# .PCD v0.7 - Point Cloud Data file format
VERSION 0.7
FIELDS x y z rgb label
SIZE 4 4 4 4 4
TYPE F F F F U
COUNT 1 1 1 1 1
WIDTH 778
HEIGHT 1
VIEWPOINT 0 0 0 1 0 0 0
POINTS 778
DATA ascii
-3.082553 0.226425 0.991314 0.000000000000000e+00 1229215041
-3.246682 0.318178 1.044096 0.000000000000000e+00 1229215041
-3.363120 0.413127 1.081541 0.000000000000000e+00 1229215041
-3.475973 0.513156 1.117834 0.000000000000000e+00 1229215041
-3.452205 0.595783 1.110190 0.000000000000000e+00 1229215041
-3.067423 -0.607082 0.986449 0.000000000000000e+00 1163024724
-3.370966 0.667157 1.084065 0.000000000000000e+00 1229215041
-3.385014 -0.584757 1.099858 0.000000000000000e+00 1163024724
-3.030206 -0.447784 0.984574 0.000000000000000e+00 1163024724
-3.200589 -0.392950 1.039935 0.000000000000000e+00 1163024724
-3.116430 -0.305711 1.012590 0.000000000000000e+00 1163024724
-3.244125 -0.238526 1.054081 0.000000000000000e+00 1163024724
-3.211837 -0.157489 1.043590 0.000000000000000e+00 1163024724
-2.998195 -0.073192 0.974173 0.000000000000000e+00 1163024724
-3.092590 0.000000 1.004844 0.000000000000000e+00 1163024724
-3.001974 0.073284 0.975401 0.000000000000000e+00 1229215041
-3.197033 0.156763 1.038780 0.000000000000000e+00 1229215041
-3.098181 0.227795 1.006660 0.000000000000000e+00 1229215041
-3.259974 0.319792 1.059230 0.000000000000000e+00 1229215041
-3.370867 0.414483 1.095262 0.000000000000000e+00 1229215041
-3.460348 0.511347 1.124336 0.000000000000000e+00 1229215041
-3.487510 0.602464 1.133161 0.000000000000000e+00 1229215041
-3.069907 -0.608166 0.997474 0.000000000000000e+00 1163024724
-3.348695 0.663396 1.088057 0.000000000000000e+00 1229215041
-3.362004 -0.581355 1.103603 0.000000000000000e+00 1163024724
-3.038312 -0.449424 0.997349 0.000000000000000e+00 1163024724
-3.200691 -0.393350 1.050651 0.000000000000000e+00 1163024724
-3.123443 -0.306701 1.025294 0.000000000000000e+00 1163024724
-3.244509 -0.238789 1.065035 0.000000000000000e+00 1163024724
-3.210282 -0.157568 1.053799 0.000000000000000e+00 1163024724
-2.978246 -0.072776 0.977632 0.000000000000000e+00 1163024724
-3.081994 0.000000 1.011688 0.000000000000000e+00 1163024724
-3.015275 0.073681 0.989787 0.000000000000000e+00 1229215041
-3.199776 0.157052 1.050351 0.000000000000000e+00 1229215041
-3.076803 0.226446 1.009984 0.000000000000000e+00 1229215041
-3.247111 0.318844 1.065889 0.000000000000000e+00 1229215041
-3.379228 0.415920 1.109257 0.000000000000000e+00 1229215041
-3.477912 0.514449 1.141651 0.000000000000000e+00 1229215041
-3.492978 0.604003 1.146596 0.000000000000000e+00 1229215041
-3.082609 -0.611284 1.011890 0.000000000000000e+00 1163024724
-3.385069 0.671263 1.111175 0.000000000000000e+00 1229215041
-3.388952 -0.586598 1.123783 0.000000000000000e+00 1163024724
-3.205281 -0.474594 1.062877 0.000000000000000e+00 1163024724
-3.157580 -0.388438 1.047059 0.000000000000000e+00 1163024724
-3.150085 -0.309625 1.044574 0.000000000000000e+00 1163024724
-3.261672 -0.240291 1.081577 0.000000000000000e+00 1163024724
-3.227065 -0.158549 1.070101 0.000000000000000e+00 1163024724
-3.009987 -0.073625 0.998117 0.000000000000000e+00 1163024724
-3.068436 0.000000 1.017499 0.000000000000000e+00 1163024724
-3.015837 0.073768 1.000057 0.000000000000000e+00 1229215041
-3.196598 0.157053 1.059998 0.000000000000000e+00 1229215041
-3.097132 0.228169 1.027015 0.000000000000000e+00 1229215041
-3.270331 0.321444 1.084448 0.000000000000000e+00 1229215041
-3.386121 0.417184 1.122844 0.000000000000000e+00 1229215041
-3.534059 0.523275 1.171900 0.000000000000000e+00 1229215041
-3.471207 0.600836 1.151059 0.000000000000000e+00 1229215041
-3.101861 -0.615714 1.028583 0.000000000000000e+00 1163024724
-3.385985 0.672113 1.122799 0.000000000000000e+00 1229215041
-3.353523 -0.581049 1.123270 0.000000000000000e+00 1163024724
-3.213124 -0.476234 1.076243 0.000000000000000e+00 1163024724
-3.175312 -0.391012 1.063578 0.000000000000000e+00 1163024724
-3.151902 -0.310115 1.055737 0.000000000000000e+00 1163024724
-3.271367 -0.241248 1.095752 0.000000000000000e+00 1163024724
-3.098076 -0.152365 1.037708 0.000000000000000e+00 1163024724
-3.000666 -0.073471 1.005080 0.000000000000000e+00 1163024724
-3.059903 0.000000 1.024922 0.000000000000000e+00 1163024724
-3.021400 0.073978 1.012025 0.000000000000000e+00 1229215041
-3.204804 0.157614 1.073456 0.000000000000000e+00 1229215041
-3.091492 0.227983 1.035502 0.000000000000000e+00 1229215041
-3.268435 0.321581 1.094770 0.000000000000000e+00 1229215041
-3.370587 0.415687 1.128986 0.000000000000000e+00 1229215041
-3.560834 0.527770 1.192709 0.000000000000000e+00 1229215041
-3.478343 0.602676 1.165079 0.000000000000000e+00 1229215041
-3.089759 -0.613929 1.034922 0.000000000000000e+00 1163024724
-3.389965 0.673579 1.135477 0.000000000000000e+00 1229215041
-3.357317 -0.582298 1.135814 0.000000000000000e+00 1163024724
-3.204414 -0.475425 1.084085 0.000000000000000e+00 1163024724
-3.146401 -0.387846 1.064459 0.000000000000000e+00 1163024724
-3.135759 -0.308840 1.060859 0.000000000000000e+00 1163024724
-3.139573 -0.231764 1.062149 0.000000000000000e+00 1163024724
-3.060625 -0.150676 1.035440 0.000000000000000e+00 1163024724
-3.045605 -0.074647 1.030359 0.000000000000000e+00 1163024724
-3.061122 0.000000 1.035608 0.000000000000000e+00 1163024724
-3.029431 0.074250 1.024887 0.000000000000000e+00 1229215041
-3.228318 0.158932 1.092173 0.000000000000000e+00 1229215041
-3.079755 0.227348 1.041912 0.000000000000000e+00 1229215041
-3.252108 0.320299 1.100221 0.000000000000000e+00 1229215041
-3.409968 0.420971 1.153627 0.000000000000000e+00 1229215041
-3.560341 0.528233 1.204499 0.000000000000000e+00 1229215041
-3.475005 0.602710 1.175629 0.000000000000000e+00 1229215041
-3.105548 -0.617693 1.050638 0.000000000000000e+00 1163024724
-3.410940 0.678435 1.153955 0.000000000000000e+00 1229215041
-3.358017 -0.583016 1.147349 0.000000000000000e+00 1163024724
-3.237575 -0.480838 1.106197 0.000000000000000e+00 1163024724
-3.152639 -0.389013 1.077177 0.000000000000000e+00 1163024724
-3.132766 -0.308862 1.070387 0.000000000000000e+00 1163024724
-3.138253 -0.231904 1.072261 0.000000000000000e+00 1163024724
-3.067769 -0.151183 1.048179 0.000000000000000e+00 1163024724
-3.041590 -0.074625 1.039234 0.000000000000000e+00 1163024724
-3.067949 0.000000 1.048240 0.000000000000000e+00 1163024724
-3.025893 0.074240 1.033871 0.000000000000000e+00 1229215041
-3.203087 0.157851 1.094414 0.000000000000000e+00 1229215041
-3.109828 0.229803 1.062550 0.000000000000000e+00 1229215041
-3.262851 0.321687 1.114834 0.000000000000000e+00 1229215041
-3.404674 0.420749 1.163291 0.000000000000000e+00 1229215041
-3.579939 0.531685 1.223175 0.000000000000000e+00 1229215041
-3.483461 0.604796 1.190211 0.000000000000000e+00 1229215041
-3.103912 -0.618001 1.060528 0.000000000000000e+00 1163024724
-3.395168 0.675991 1.160043 0.000000000000000e+00 1229215041
-3.355371 -0.583161 1.157758 0.000000000000000e+00 1163024724
-3.224698 -0.479422 1.112670 0.000000000000000e+00 1163024724
-3.165843 -0.391047 1.092363 0.000000000000000e+00 1163024724
-3.147747 -0.310660 1.086118 0.000000000000000e+00 1163024724
-3.118216 -0.230662 1.075929 0.000000000000000e+00 1163024724
-3.061315 -0.151021 1.056295 0.000000000000000e+00 1163024724
-3.035144 -0.074544 1.047265 0.000000000000000e+00 1163024724
-3.059930 0.000000 1.055817 0.000000000000000e+00 1163024724
-3.032360 0.074476 1.046305 0.000000000000000e+00 1229215041
-3.229913 0.159338 1.114470 0.000000000000000e+00 1229215041
-3.094831 0.228932 1.067860 0.000000000000000e+00 1229215041
-3.274696 0.323189 1.129922 0.000000000000000e+00 1229215041
-3.395912 0.420101 1.171747 0.000000000000000e+00 1229215041
-3.568237 0.530496 1.231207 0.000000000000000e+00 1229215041
-3.504327 0.609049 1.209155 0.000000000000000e+00 1229215041
-3.121214 -0.622090 1.076963 0.000000000000000e+00 1163024724
-3.399714 0.677597 1.173059 0.000000000000000e+00 1229215041
-3.344884 -0.581946 1.165441 0.000000000000000e+00 1163024724
-3.111288 -0.463045 1.084050 0.000000000000000e+00 1163024724
-3.180938 -0.393323 1.108318 0.000000000000000e+00 1163024724
-3.176321 -0.313808 1.106709 0.000000000000000e+00 1163024724
-3.139085 -0.232449 1.093735 0.000000000000000e+00 1163024724
-3.080201 -0.152112 1.073219 0.000000000000000e+00 1163024724
-3.047048 -0.074915 1.061667 0.000000000000000e+00 1163024724
-3.072780 0.000000 1.070633 0.000000000000000e+00 1163024724
-3.035999 0.074643 1.057817 0.000000000000000e+00 1229215041
-3.234308 0.159722 1.126914 0.000000000000000e+00 1229215041
-3.106110 0.230007 1.082246 0.000000000000000e+00 1229215041
-3.272640 0.323324 1.140269 0.000000000000000e+00 1229215041
-3.426885 0.424376 1.194012 0.000000000000000e+00 1229215041
-3.590117 0.534308 1.250886 0.000000000000000e+00 1229215041
-3.597057 0.625820 1.253304 0.000000000000000e+00 1229215041
-3.125906 -0.623677 1.089143 0.000000000000000e+00 1163024724
-3.398524 0.678069 1.184130 0.000000000000000e+00 1229215041
-3.332586 -0.580419 1.172439 0.000000000000000e+00 1163024724
-3.100414 -0.461914 1.090758 0.000000000000000e+00 1163024724
-3.174102 -0.392892 1.116683 0.000000000000000e+00 1163024724
-3.148509 -0.311389 1.107679 0.000000000000000e+00 1163024724
-3.111742 -0.230667 1.094744 0.000000000000000e+00 1163024724
-3.090721 -0.152792 1.087348 0.000000000000000e+00 1163024724
-3.066671 -0.075477 1.078887 0.000000000000000e+00 1163024724
-3.058186 0.000000 1.075902 0.000000000000000e+00 1163024724
-3.026054 0.074477 1.064598 0.000000000000000e+00 1229215041
-3.235974 0.159973 1.138450 0.000000000000000e+00 1229215041
-3.127891 0.231864 1.100425 0.000000000000000e+00 1229215041
-3.282176 0.324609 1.154704 0.000000000000000e+00 1229215041
-3.414591 0.423301 1.201289 0.000000000000000e+00 1229215041
-3.600838 0.536469 1.266813 0.000000000000000e+00 1229215041
-3.597079 0.626485 1.265490 0.000000000000000e+00 1229215041
-3.128568 -0.624867 1.100663 0.000000000000000e+00 1163024724
-3.417078 0.682491 1.202164 0.000000000000000e+00 1229215041
-3.170482 -0.552776 1.126166 0.000000000000000e+00 1163024724
-3.084983 -0.460105 1.095797 0.000000000000000e+00 1163024724
-3.198262 -0.396305 1.136034 0.000000000000000e+00 1163024724
-3.157630 -0.312625 1.121601 0.000000000000000e+00 1163024724
-3.122984 -0.231748 1.109295 0.000000000000000e+00 1163024724
-3.094038 -0.153120 1.099013 0.000000000000000e+00 1163024724
-3.055760 -0.075288 1.085417 0.000000000000000e+00 1163024724
-3.086889 0.000000 1.096474 0.000000000000000e+00 1163024724
-3.051377 0.075180 1.083860 0.000000000000000e+00 1229215041
-3.260941 0.161379 1.158298 0.000000000000000e+00 1229215041
-3.122560 0.231716 1.109144 0.000000000000000e+00 1229215041
-3.289851 0.325715 1.168566 0.000000000000000e+00 1229215041
-3.436690 0.426495 1.220724 0.000000000000000e+00 1229215041
-3.585284 0.534722 1.273505 0.000000000000000e+00 1229215041
-3.602856 0.628160 1.279747 0.000000000000000e+00 1229215041
-3.128469 -0.625514 1.111243 0.000000000000000e+00 1163024724
-3.418016 0.683407 1.214091 0.000000000000000e+00 1229215041
-3.160226 -0.551581 1.133267 0.000000000000000e+00 1163024724
-3.069962 -0.458358 1.100898 0.000000000000000e+00 1163024724
-3.173177 -0.393620 1.137911 0.000000000000000e+00 1163024724
-3.169522 -0.314140 1.136600 0.000000000000000e+00 1163024724
-3.297087 -0.244931 1.182346 0.000000000000000e+00 1163024724
-3.081141 -0.152646 1.104907 0.000000000000000e+00 1163024724
-3.071621 -0.075761 1.101493 0.000000000000000e+00 1163024724
-3.096886 0.000000 1.110553 0.000000000000000e+00 1163024724
-3.045570 0.075118 1.092151 0.000000000000000e+00 1229215041
-3.234295 0.160233 1.159828 0.000000000000000e+00 1229215041
-3.127576 0.232338 1.121558 0.000000000000000e+00 1229215041
-3.289610 0.326042 1.179664 0.000000000000000e+00 1229215041
-3.430541 0.426190 1.230203 0.000000000000000e+00 1229215041
-3.615020 0.539737 1.296357 0.000000000000000e+00 1229215041
-3.625784 0.632838 1.300218 0.000000000000000e+00 1229215041
-3.121730 -0.624839 1.119462 0.000000000000000e+00 1163024724
-3.423281 0.685197 1.227599 0.000000000000000e+00 1229215041
-3.154296 -0.551144 1.141889 0.000000000000000e+00 1163024724
-3.116356 -0.465791 1.128154 0.000000000000000e+00 1163024724
-3.200727 -0.397469 1.158697 0.000000000000000e+00 1163024724
-3.173174 -0.314844 1.148723 0.000000000000000e+00 1163024724
-3.310272 -0.246178 1.198354 0.000000000000000e+00 1163024724
-3.321760 -0.164745 1.202513 0.000000000000000e+00 1163024724
-3.073189 -0.075882 1.112527 0.000000000000000e+00 1163024724
-5.565411 0.000000 2.014738 0.000000000000000e+00 1229215041
-3.045248 0.075192 1.102412 0.000000000000000e+00 1229215041
-3.235390 0.160462 1.171245 0.000000000000000e+00 1229215041
-3.175465 0.236152 1.149552 0.000000000000000e+00 1229215041
-3.300255 0.327453 1.194727 0.000000000000000e+00 1229215041
-3.431371 0.426757 1.242193 0.000000000000000e+00 1229215041
-3.602293 0.538422 1.304068 0.000000000000000e+00 1229215041
-3.614744 0.631598 1.308576 0.000000000000000e+00 1229215041
-3.139633 -0.629105 1.136581 0.000000000000000e+00 1163024724
-3.439045 0.689100 1.244971 0.000000000000000e+00 1229215041
-3.160259 -0.552792 1.154840 0.000000000000000e+00 1163024724
-3.077906 -0.460549 1.124746 0.000000000000000e+00 1163024724
-3.199844 -0.397796 1.169305 0.000000000000000e+00 1163024724
-3.193892 -0.317247 1.167130 0.000000000000000e+00 1163024724
-3.304158 -0.245993 1.207424 0.000000000000000e+00 1163024724
-3.298699 -0.163781 1.205429 0.000000000000000e+00 1163024724
-3.074010 -0.075985 1.123322 0.000000000000000e+00 1163024724
-5.568640 0.000000 2.034924 0.000000000000000e+00 1229215041
-3.054250 0.075497 1.116101 0.000000000000000e+00 1229215041
-3.241456 0.160939 1.184511 0.000000000000000e+00 1229215041
-3.141854 0.233909 1.148114 0.000000000000000e+00 1229215041
-3.289570 0.326751 1.202093 0.000000000000000e+00 1229215041
-3.441955 0.428543 1.257779 0.000000000000000e+00 1229215041
-3.610609 0.540257 1.319409 0.000000000000000e+00 1229215041
-3.613240 0.632028 1.320371 0.000000000000000e+00 1229215041
-3.129485 -0.627760 1.143594 0.000000000000000e+00 1163024724
-3.437333 0.689513 1.256090 0.000000000000000e+00 1229215041
-3.173369 -0.555700 1.170491 0.000000000000000e+00 1163024724
-3.107697 -0.465522 1.146268 0.000000000000000e+00 1163024724
-3.366551 -0.418984 1.241746 0.000000000000000e+00 1163024724
-3.169683 -0.315191 1.169132 0.000000000000000e+00 1163024724
-3.185714 -0.237437 1.175045 0.000000000000000e+00 1163024724
-3.286401 -0.163351 1.212183 0.000000000000000e+00 1163024724
-3.077513 -0.076156 1.135135 0.000000000000000e+00 1163024724
-5.572581 0.000000 2.055436 0.000000000000000e+00 1229215041
-3.055771 0.075618 1.127115 0.000000000000000e+00 1229215041
-3.246361 0.161361 1.197414 0.000000000000000e+00 1229215041
-3.146133 0.234487 1.160445 0.000000000000000e+00 1229215041
-3.318967 0.330036 1.224195 0.000000000000000e+00 1229215041
-3.448541 0.429838 1.271988 0.000000000000000e+00 1229215041
-3.626603 0.543252 1.337666 0.000000000000000e+00 1229215041
-3.639194 0.637273 1.342310 0.000000000000000e+00 1229215041
-3.149588 -0.632493 1.161720 0.000000000000000e+00 1163024724
-3.452714 0.693366 1.273527 0.000000000000000e+00 1229215041
-3.178327 -0.557191 1.183222 0.000000000000000e+00 1163024724
-3.281946 -0.492173 1.221797 0.000000000000000e+00 1163024724
-3.251843 -0.405161 1.210590 0.000000000000000e+00 1163024724
-3.346287 -0.333125 1.245750 0.000000000000000e+00 1163024724
-3.169668 -0.236506 1.179999 0.000000000000000e+00 1163024724
-3.298394 -0.164131 1.227921 0.000000000000000e+00 1163024724
-3.077891 -0.076251 1.145832 0.000000000000000e+00 1163024724
-5.600956 0.000000 2.085114 0.000000000000000e+00 1229215041
-3.074799 0.076174 1.144681 0.000000000000000e+00 1229215041
-3.255635 0.162003 1.212002 0.000000000000000e+00 1229215041
-3.154124 0.235346 1.174212 0.000000000000000e+00 1229215041
-3.303122 0.328828 1.229681 0.000000000000000e+00 1229215041
-3.463085 0.432134 1.289232 0.000000000000000e+00 1229215041
-3.634058 0.544977 1.352881 0.000000000000000e+00 1229215041
-3.637509 0.637690 1.354166 0.000000000000000e+00 1229215041
-3.135492 -0.630366 1.167276 0.000000000000000e+00 1163024724
-3.455650 0.694731 1.286463 0.000000000000000e+00 1229215041
-3.181398 -0.558359 1.195303 0.000000000000000e+00 1163024724
-3.289865 -0.493917 1.236055 0.000000000000000e+00 1163024724
-3.219763 -0.401616 1.209717 0.000000000000000e+00 1163024724
-3.415130 -0.340362 1.283120 0.000000000000000e+00 1163024724
-3.169901 -0.236790 1.190983 0.000000000000000e+00 1163024724
-3.274173 -0.163109 1.230160 0.000000000000000e+00 1163024724
-3.090955 -0.076661 1.161322 0.000000000000000e+00 1163024724
-5.592953 0.000000 2.101363 0.000000000000000e+00 1229215041
-3.069572 0.076130 1.153288 0.000000000000000e+00 1229215041
-3.254077 0.162108 1.222609 0.000000000000000e+00 1229215041
-3.160774 0.236108 1.187554 0.000000000000000e+00 1229215041
-3.323244 0.331204 1.248596 0.000000000000000e+00 1229215041
-3.470408 0.433536 1.303889 0.000000000000000e+00 1229215041
-3.621837 0.543757 1.360783 0.000000000000000e+00 1229215041
-3.640708 0.638971 1.367873 0.000000000000000e+00 1229215041
-3.134572 -0.630892 1.177709 0.000000000000000e+00 1163024724
-3.443610 0.693092 1.293820 0.000000000000000e+00 1229215041
-3.181511 -0.559015 1.206307 0.000000000000000e+00 1163024724
-3.290843 -0.494627 1.247762 0.000000000000000e+00 1163024724
-3.223403 -0.402528 1.222191 0.000000000000000e+00 1163024724
-3.425496 -0.341784 1.298817 0.000000000000000e+00 1163024724
-3.152509 -0.235759 1.195311 0.000000000000000e+00 1163024724
-3.267045 -0.162940 1.238739 0.000000000000000e+00 1163024724
-3.087608 -0.076665 1.170703 0.000000000000000e+00 1163024724
-5.602585 0.000000 2.124286 0.000000000000000e+00 1229215041
-3.079534 0.076465 1.167642 0.000000000000000e+00 1229215041
-3.261193 0.162648 1.236520 0.000000000000000e+00 1229215041
-3.172031 0.237219 1.202713 0.000000000000000e+00 1229215041
-3.318711 0.331129 1.258328 0.000000000000000e+00 1229215041
-3.466099 0.433491 1.314212 0.000000000000000e+00 1229215041
-3.646856 0.548137 1.382748 0.000000000000000e+00 1229215041
-3.658673 0.642856 1.387229 0.000000000000000e+00 1229215041
-3.136548 -0.632009 1.189259 0.000000000000000e+00 1163024724
-3.465557 0.698304 1.314007 0.000000000000000e+00 1229215041
-3.243757 -0.570607 1.241110 0.000000000000000e+00 1163024724
-3.273291 -0.492554 1.252410 0.000000000000000e+00 1163024724
-3.210228 -0.401344 1.228281 0.000000000000000e+00 1163024724
-3.412216 -0.340850 1.305564 0.000000000000000e+00 1163024724
-3.146528 -0.235582 1.203908 0.000000000000000e+00 1163024724
-3.174335 -0.158498 1.214548 0.000000000000000e+00 1163024724
-3.088315 -0.076771 1.181635 0.000000000000000e+00 1163024724
-5.607901 0.000000 2.145666 0.000000000000000e+00 1229215041
-3.104259 0.077167 1.187735 0.000000000000000e+00 1229215041
-3.273273 0.163438 1.252403 0.000000000000000e+00 1229215041
-3.179824 0.238075 1.216648 0.000000000000000e+00 1229215041
-3.342805 0.333917 1.279007 0.000000000000000e+00 1229215041
-3.474815 0.435081 1.329515 0.000000000000000e+00 1229215041
-3.641096 0.547900 1.393137 0.000000000000000e+00 1229215041
-3.652289 0.642471 1.397420 0.000000000000000e+00 1229215041
-3.164912 -0.638457 1.210942 0.000000000000000e+00 1163024724
-3.475981 0.701209 1.329962 0.000000000000000e+00 1229215041
-3.239351 -0.570493 1.250637 0.000000000000000e+00 1163024724
-3.252167 -0.489943 1.255584 0.000000000000000e+00 1163024724
-3.216159 -0.402552 1.241683 0.000000000000000e+00 1163024724
-3.375843 -0.337608 1.303333 0.000000000000000e+00 1163024724
-3.195994 -0.239563 1.233897 0.000000000000000e+00 1163024724
-3.163640 -0.158147 1.221407 0.000000000000000e+00 1163024724
-3.102429 -0.077211 1.197775 0.000000000000000e+00 1163024724
-5.619143 0.000000 2.169418 0.000000000000000e+00 1229215041
-3.086732 0.076820 1.191714 0.000000000000000e+00 1229215041
-3.254427 0.162685 1.256457 0.000000000000000e+00 1229215041
-3.192505 0.239302 1.232551 0.000000000000000e+00 1229215041
-3.358882 0.335912 1.296785 0.000000000000000e+00 1229215041
-3.486627 0.437066 1.346104 0.000000000000000e+00 1229215041
-3.658561 0.551167 1.412484 0.000000000000000e+00 1229215041
-3.661861 0.644902 1.413758 0.000000000000000e+00 1229215041
-3.182830 -0.642817 1.228815 0.000000000000000e+00 1163024724
-3.499848 0.706843 1.351208 0.000000000000000e+00 1229215041
-3.228890 -0.569316 1.257801 0.000000000000000e+00 1163024724
-3.252407 -0.490553 1.266962 0.000000000000000e+00 1163024724
-3.220648 -0.403585 1.254590 0.000000000000000e+00 1163024724
-3.371176 -0.337536 1.313228 0.000000000000000e+00 1163024724
-3.180141 -0.238654 1.238811 0.000000000000000e+00 1163024724
-3.166771 -0.158489 1.233603 0.000000000000000e+00 1163024724
-3.078588 -0.076707 1.199251 0.000000000000000e+00 1163024724
-5.634621 0.000000 2.194944 0.000000000000000e+00 1229215041
-3.073442 0.076579 1.197247 0.000000000000000e+00 1229215041
-3.278299 0.164070 1.277048 0.000000000000000e+00 1229215041
-3.188963 0.239316 1.242248 0.000000000000000e+00 1229215041
-3.351913 0.335607 1.305724 0.000000000000000e+00 1229215041
-3.494278 0.438538 1.361182 0.000000000000000e+00 1229215041
-3.646211 0.549949 1.420367 0.000000000000000e+00 1229215041
-3.659015 0.645155 1.425354 0.000000000000000e+00 1229215041
-3.182498 -0.643502 1.239729 0.000000000000000e+00 1163024724
-3.490114 0.705702 1.359560 0.000000000000000e+00 1229215041
-3.219920 -0.568405 1.265505 0.000000000000000e+00 1163024724
-3.223791 -0.486811 1.267026 0.000000000000000e+00 1163024724
-3.245474 -0.407177 1.275548 0.000000000000000e+00 1163024724
-3.376092 -0.338427 1.326884 0.000000000000000e+00 1163024724
-3.157824 -0.237259 1.241100 0.000000000000000e+00 1163024724
-3.157802 -0.158226 1.241091 0.000000000000000e+00 1163024724
-3.098388 -0.077292 1.217740 0.000000000000000e+00 1163024724
-5.626655 0.000000 2.211408 0.000000000000000e+00 1229215041
-3.091559 0.077121 1.215056 0.000000000000000e+00 1229215041
-3.291932 0.164947 1.293807 0.000000000000000e+00 1229215041
-3.207438 0.240987 1.260599 0.000000000000000e+00 1229215041
-3.365373 0.337352 1.322671 0.000000000000000e+00 1229215041
-3.491356 0.438689 1.372185 0.000000000000000e+00 1229215041
-3.657946 0.552371 1.437659 0.000000000000000e+00 1229215041
-3.679448 0.649524 1.446110 0.000000000000000e+00 1229215041
-3.489485 0.706408 1.371450 0.000000000000000e+00 1229215041
-3.220377 -0.569162 1.276911 0.000000000000000e+00 1163024724
-3.199209 -0.483674 1.268517 0.000000000000000e+00 1163024724
-3.371359 -0.423474 1.336776 0.000000000000000e+00 1163024724
-3.335479 -0.334754 1.322550 0.000000000000000e+00 1163024724
-3.179984 -0.239208 1.260895 0.000000000000000e+00 1163024724
-3.169097 -0.158982 1.256578 0.000000000000000e+00 1163024724
-3.114299 -0.077781 1.234850 0.000000000000000e+00 1163024724
-3.144304 0.000000 1.246747 0.000000000000000e+00 1229215041
-3.096713 0.077342 1.227877 0.000000000000000e+00 1229215041
-3.288046 0.164949 1.303742 0.000000000000000e+00 1229215041
-3.199112 0.240647 1.268479 0.000000000000000e+00 1229215041
-3.368395 0.338058 1.335601 0.000000000000000e+00 1229215041
-3.505249 0.440959 1.389865 0.000000000000000e+00 1229215041
-3.675701 0.555713 1.457451 0.000000000000000e+00 1229215041
-3.669861 0.648603 1.455135 0.000000000000000e+00 1229215041
-3.501919 0.709770 1.388545 0.000000000000000e+00 1229215041
-3.215372 -0.568961 1.286162 0.000000000000000e+00 1163024724
-3.202701 -0.484784 1.281093 0.000000000000000e+00 1163024724
-3.291881 -0.413988 1.316766 0.000000000000000e+00 1163024724
-3.349234 -0.336539 1.339707 0.000000000000000e+00 1163024724
-3.192984 -0.240475 1.277207 0.000000000000000e+00 1163024724
-3.164572 -0.158945 1.265841 0.000000000000000e+00 1163024724
-3.113730 -0.077861 1.245505 0.000000000000000e+00 1163024724
-3.152749 0.000000 1.261112 0.000000000000000e+00 1229215041
-3.109750 0.077761 1.243913 0.000000000000000e+00 1229215041
-3.281456 0.164816 1.312596 0.000000000000000e+00 1229215041
-3.210075 0.241762 1.284043 0.000000000000000e+00 1229215041
-3.374251 0.339052 1.349714 0.000000000000000e+00 1229215041
-3.513996 0.442591 1.405612 0.000000000000000e+00 1229215041
-3.687225 0.558125 1.474905 0.000000000000000e+00 1229215041
-3.698933 0.654527 1.479588 0.000000000000000e+00 1229215041
-3.511100 0.712486 1.404454 0.000000000000000e+00 1229215041
-3.212898 -0.569212 1.296426 0.000000000000000e+00 1163024724
-3.175296 -0.481219 1.281253 0.000000000000000e+00 1163024724
-3.289566 -0.414198 1.327362 0.000000000000000e+00 1163024724
-3.325528 -0.334562 1.341873 0.000000000000000e+00 1163024724
-3.291789 -0.248217 1.328259 0.000000000000000e+00 1163024724
-3.157845 -0.158800 1.274212 0.000000000000000e+00 1163024724
-3.120546 -0.078126 1.259162 0.000000000000000e+00 1163024724
-3.177512 0.000000 1.282148 0.000000000000000e+00 1229215041
-3.111979 0.077911 1.255705 0.000000000000000e+00 1229215041
-3.305747 0.166237 1.333892 0.000000000000000e+00 1229215041
-3.214417 0.242383 1.297039 0.000000000000000e+00 1229215041
-3.374573 0.339496 1.361663 0.000000000000000e+00 1229215041
-3.525007 0.444516 1.422364 0.000000000000000e+00 1229215041
-3.672038 0.556501 1.481693 0.000000000000000e+00 1229215041
-3.690998 0.653915 1.489343 0.000000000000000e+00 1229215041
-3.514686 0.714078 1.418200 0.000000000000000e+00 1229215041
-3.219151 -0.571018 1.310253 0.000000000000000e+00 1163024724
-3.173197 -0.481489 1.291549 0.000000000000000e+00 1163024724
-3.274350 -0.412787 1.332720 0.000000000000000e+00 1163024724
-3.329079 -0.335329 1.354996 0.000000000000000e+00 1163024724
-3.242030 -0.244764 1.319565 0.000000000000000e+00 1163024724
-3.177854 -0.160001 1.293444 0.000000000000000e+00 1163024724
-3.130837 -0.078479 1.274308 0.000000000000000e+00 1163024724
-3.161374 0.000000 1.286737 0.000000000000000e+00 1229215041
-3.114590 0.078072 1.267695 0.000000000000000e+00 1229215041
-3.297859 0.166044 1.342289 0.000000000000000e+00 1229215041
-3.235524 0.244273 1.316917 0.000000000000000e+00 1229215041
-3.377189 0.340175 1.374577 0.000000000000000e+00 1229215041
-3.545168 0.447605 1.442948 0.000000000000000e+00 1229215041
-3.698952 0.561265 1.505541 0.000000000000000e+00 1229215041
-3.702092 0.656683 1.506819 0.000000000000000e+00 1229215041
-3.546076 0.721337 1.443317 0.000000000000000e+00 1229215041
-3.226002 -0.572939 1.324395 0.000000000000000e+00 1163024724
-3.167170 -0.481167 1.300242 0.000000000000000e+00 1163024724
-3.274676 -0.413337 1.344377 0.000000000000000e+00 1163024724
-3.293040 -0.332108 1.351917 0.000000000000000e+00 1163024724
-3.238407 -0.244792 1.329488 0.000000000000000e+00 1163024724
-3.184459 -0.160532 1.307340 0.000000000000000e+00 1163024724
-5.689871 -0.142801 2.335906 0.000000000000000e+00 1229215041
-3.189981 0.000000 1.309607 0.000000000000000e+00 1229215041
-3.127143 0.078483 1.283810 0.000000000000000e+00 1229215041
-3.313070 0.167015 1.360140 0.000000000000000e+00 1229215041
-3.223666 0.243678 1.323436 0.000000000000000e+00 1229215041
-3.391696 0.342057 1.392419 0.000000000000000e+00 1229215041
-3.527330 0.445902 1.448102 0.000000000000000e+00 1229215041
-3.692165 0.560926 1.515773 0.000000000000000e+00 1229215041
-3.714999 0.659785 1.525147 0.000000000000000e+00 1229215041
-3.555271 0.724099 1.459572 0.000000000000000e+00 1229215041
-3.162634 -0.481076 1.309540 0.000000000000000e+00 1163024724
-3.269071 -0.413143 1.353612 0.000000000000000e+00 1163024724
-3.269155 -0.330109 1.353647 0.000000000000000e+00 1163024724
-3.236884 -0.244981 1.340284 0.000000000000000e+00 1163024724
-3.170669 -0.160035 1.312867 0.000000000000000e+00 1163024724
-5.704370 -0.143343 2.361987 0.000000000000000e+00 1229215041
-3.195788 0.000000 1.323268 0.000000000000000e+00 1229215041
-3.128517 0.078615 1.295413 0.000000000000000e+00 1229215041
-3.325126 0.167831 1.376823 0.000000000000000e+00 1229215041
-3.261947 0.246878 1.350662 0.000000000000000e+00 1229215041
-3.396721 0.342990 1.406467 0.000000000000000e+00 1229215041
-3.561870 0.450829 1.474850 0.000000000000000e+00 1229215041
-3.693017 0.561754 1.529154 0.000000000000000e+00 1229215041
-3.729598 0.663202 1.544301 0.000000000000000e+00 1229215041
-3.573908 0.728801 1.479835 0.000000000000000e+00 1229215041
-3.161369 -0.481487 1.320200 0.000000000000000e+00 1163024724
-3.279677 -0.415003 1.369606 0.000000000000000e+00 1163024724
-3.276551 -0.331271 1.368300 0.000000000000000e+00 1163024724
-3.219502 -0.243972 1.344476 0.000000000000000e+00 1163024724
-3.175029 -0.160457 1.325904 0.000000000000000e+00 1163024724
-5.693700 -0.143255 2.377711 0.000000000000000e+00 1229215041
-3.196715 0.000000 1.334960 0.000000000000000e+00 1229215041
-3.131418 0.078787 1.307692 0.000000000000000e+00 1229215041
-3.317659 0.167665 1.385467 0.000000000000000e+00 1229215041
-3.245153 0.245915 1.355188 0.000000000000000e+00 1229215041
-3.415882 0.345358 1.426485 0.000000000000000e+00 1229215041
-3.555235 0.450553 1.484680 0.000000000000000e+00 1229215041
-3.742226 0.569953 1.562768 0.000000000000000e+00 1229215041
-3.717762 0.661927 1.552552 0.000000000000000e+00 1229215041
-3.585849 0.732153 1.497464 0.000000000000000e+00 1229215041
-3.181465 -0.485161 1.339875 0.000000000000000e+00 1163024724
-3.369459 -0.426904 1.419049 0.000000000000000e+00 1163024724
-3.263064 -0.330325 1.374240 0.000000000000000e+00 1163024724
-3.234932 -0.245451 1.362392 0.000000000000000e+00 1163024724
-3.181389 -0.160982 1.339843 0.000000000000000e+00 1163024724
-3.208964 -0.080840 1.351456 0.000000000000000e+00 1229215041
-3.206920 0.000000 1.350595 0.000000000000000e+00 1229215041
-3.138144 0.079056 1.321630 0.000000000000000e+00 1229215041
-3.310899 0.167535 1.394386 0.000000000000000e+00 1229215041
-3.264827 0.247719 1.374982 0.000000000000000e+00 1229215041
-3.411952 0.345397 1.436944 0.000000000000000e+00 1229215041
-3.565757 0.452459 1.501719 0.000000000000000e+00 1229215041
-3.720594 0.567376 1.566929 0.000000000000000e+00 1229215041
-3.733780 0.665620 1.572482 0.000000000000000e+00 1229215041
-3.634044 0.742933 1.530479 0.000000000000000e+00 1229215041
-3.180817 -0.485681 1.350911 0.000000000000000e+00 1163024724
-3.265895 -0.414310 1.387044 0.000000000000000e+00 1163024724
-3.249334 -0.329355 1.380011 0.000000000000000e+00 1163024724
-3.207043 -0.243646 1.362049 0.000000000000000e+00 1163024724
-3.223954 -0.163344 1.369232 0.000000000000000e+00 1163024724
-3.207776 -0.080914 1.362361 0.000000000000000e+00 1229215041
-3.208695 0.000000 1.362751 0.000000000000000e+00 1229215041
-3.129756 0.078946 1.329225 0.000000000000000e+00 1229215041
-3.342544 0.169352 1.419598 0.000000000000000e+00 1229215041
-3.254949 0.247285 1.382395 0.000000000000000e+00 1229215041
-3.422186 0.346875 1.453422 0.000000000000000e+00 1229215041
-3.582767 0.455198 1.521622 0.000000000000000e+00 1229215041
-3.731696 0.569795 1.584873 0.000000000000000e+00 1229215041
-3.754817 0.670225 1.594692 0.000000000000000e+00 1229215041
-3.702991 0.757994 1.572682 0.000000000000000e+00 1229215041
-3.270299 -0.415403 1.400572 0.000000000000000e+00 1163024724
-3.261385 -0.331002 1.396754 0.000000000000000e+00 1163024724
-3.235847 -0.246150 1.385817 0.000000000000000e+00 1163024724
-5.775519 -0.292997 2.473483 0.000000000000000e+00 1229215041
-3.214805 -0.081195 1.376806 0.000000000000000e+00 1229215041
-3.205846 0.000000 1.372969 0.000000000000000e+00 1229215041
-3.145548 0.079446 1.347145 0.000000000000000e+00 1229215041
-3.334325 0.169153 1.427992 0.000000000000000e+00 1229215041
-3.282178 0.249675 1.405659 0.000000000000000e+00 1229215041
-3.420586 0.347159 1.464935 0.000000000000000e+00 1229215041
-3.565067 0.453532 1.526812 0.000000000000000e+00 1229215041
-3.747659 0.572969 1.605011 0.000000000000000e+00 1229215041
-3.727087 0.666131 1.596201 0.000000000000000e+00 1229215041
-3.291767 -0.418673 1.421530 0.000000000000000e+00 1163024724
-3.248717 -0.330144 1.402939 0.000000000000000e+00 1163024724
-3.231670 -0.246152 1.395577 0.000000000000000e+00 1163024724
-5.775313 -0.293367 2.494035 0.000000000000000e+00 1229215041
-3.220468 -0.081444 1.390740 0.000000000000000e+00 1229215041
-3.233448 0.000000 1.396345 0.000000000000000e+00 1229215041
-3.158213 0.079869 1.363855 0.000000000000000e+00 1229215041
-3.359664 0.170660 1.450851 0.000000000000000e+00 1229215041
-3.283185 0.250075 1.417824 0.000000000000000e+00 1229215041
-3.433753 0.348948 1.482846 0.000000000000000e+00 1229215041
-3.566493 0.454302 1.540169 0.000000000000000e+00 1229215041
-3.764779 0.576334 1.625798 0.000000000000000e+00 1229215041
-3.755230 0.672032 1.621674 0.000000000000000e+00 1229215041
-3.273057 -0.333053 1.425176 0.000000000000000e+00 1163024724
-5.819265 -0.443825 2.533863 0.000000000000000e+00 1229215041
-3.262578 -0.165945 1.420613 0.000000000000000e+00 1229215041
-3.253405 -0.082384 1.416619 0.000000000000000e+00 1229215041
-3.231248 0.000000 1.406972 0.000000000000000e+00 1229215041
-3.164472 0.080132 1.377895 0.000000000000000e+00 1229215041
-3.344639 0.170119 1.456345 0.000000000000000e+00 1229215041
-3.280884 0.250227 1.428584 0.000000000000000e+00 1229215041
-3.444665 0.350515 1.499899 0.000000000000000e+00 1229215041
-3.604451 0.459738 1.569474 0.000000000000000e+00 1229215041
-3.753613 0.575376 1.634423 0.000000000000000e+00 1229215041
-3.765709 0.674789 1.639690 0.000000000000000e+00 1229215041
-3.315827 -0.253226 1.455712 0.000000000000000e+00 1229215041
-3.262815 -0.166176 1.432438 0.000000000000000e+00 1229215041
-3.251372 -0.082442 1.427415 0.000000000000000e+00 1229215041
-3.220554 0.000000 1.413885 0.000000000000000e+00 1229215041
-3.171838 0.080425 1.392498 0.000000000000000e+00 1229215041
-3.353340 0.170786 1.472181 0.000000000000000e+00 1229215041
-3.295088 0.251642 1.446607 0.000000000000000e+00 1229215041
-3.452151 0.351740 1.515561 0.000000000000000e+00 1229215041
-3.584204 0.457759 1.573535 0.000000000000000e+00 1229215041
-3.746304 0.575014 1.644699 0.000000000000000e+00 1229215041
-3.776987 0.677703 1.658170 0.000000000000000e+00 1229215041
-3.365455 -0.343363 1.489622 0.000000000000000e+00 1229215041
-3.337466 -0.255218 1.477234 0.000000000000000e+00 1229215041
-3.283931 -0.167474 1.453538 0.000000000000000e+00 1229215041
-3.241302 -0.082296 1.434669 0.000000000000000e+00 1229215041
-3.251772 0.000000 1.439304 0.000000000000000e+00 1229215041
-3.185426 0.080877 1.409937 0.000000000000000e+00 1229215041
-3.372018 0.171966 1.492527 0.000000000000000e+00 1229215041
-3.302863 0.252571 1.461918 0.000000000000000e+00 1229215041
-3.475829 0.354624 1.538476 0.000000000000000e+00 1229215041
-3.614744 0.462273 1.599963 0.000000000000000e+00 1229215041
-3.774238 0.580072 1.670558 0.000000000000000e+00 1229215041
-3.788525 0.680678 1.676882 0.000000000000000e+00 1229215041
-3.357419 -0.343003 1.498191 0.000000000000000e+00 1229215041
-3.330176 -0.255002 1.486035 0.000000000000000e+00 1229215041
-3.292915 -0.168157 1.469407 0.000000000000000e+00 1229215041
-3.240449 -0.082384 1.445995 0.000000000000000e+00 1229215041
-3.238815 0.000000 1.445266 0.000000000000000e+00 1229215041
-3.183135 0.080927 1.420420 0.000000000000000e+00 1229215041
-3.369747 0.172081 1.503692 0.000000000000000e+00 1229215041
-3.332220 0.255158 1.486946 0.000000000000000e+00 1229215041
-3.471417 0.354649 1.549061 0.000000000000000e+00 1229215041
-3.593364 0.460155 1.603478 0.000000000000000e+00 1229215041
-3.799451 0.584730 1.695440 0.000000000000000e+00 1229215041
-3.782646 0.680533 1.687941 0.000000000000000e+00 1229215041
-3.343262 -0.428059 1.503981 0.000000000000000e+00 1229215041
-3.344019 -0.342096 1.504322 0.000000000000000e+00 1229215041
-3.338453 -0.255981 1.501818 0.000000000000000e+00 1229215041
-3.297631 -0.168626 1.483454 0.000000000000000e+00 1229215041
-3.234588 -0.082346 1.455094 0.000000000000000e+00 1229215041
-3.249450 0.000000 1.461779 0.000000000000000e+00 1229215041
-3.197218 0.081395 1.438283 0.000000000000000e+00 1229215041
-3.380355 0.172856 1.520667 0.000000000000000e+00 1229215041
-3.334711 0.255694 1.500134 0.000000000000000e+00 1229215041
-3.476533 0.355652 1.563934 0.000000000000000e+00 1229215041
-3.611480 0.463101 1.624640 0.000000000000000e+00 1229215041
-3.801415 0.585823 1.710083 0.000000000000000e+00 1229215041
-3.784216 0.681736 1.702346 0.000000000000000e+00 1229215041
-3.310090 -0.424389 1.501078 0.000000000000000e+00 1229215041
-3.366746 -0.344890 1.526771 0.000000000000000e+00 1229215041
-3.337242 -0.256237 1.513392 0.000000000000000e+00 1229215041
-3.293074 -0.168622 1.493362 0.000000000000000e+00 1229215041
-3.249874 -0.082848 1.473771 0.000000000000000e+00 1229215041
-3.263849 0.000000 1.480109 0.000000000000000e+00 1229215041
-3.210174 0.081836 1.455768 0.000000000000000e+00 1229215041
-3.385098 0.173334 1.535093 0.000000000000000e+00 1229215041
-3.328924 0.255598 1.509620 0.000000000000000e+00 1229215041
-3.502492 0.358796 1.588330 0.000000000000000e+00 1229215041
-3.617947 0.464562 1.640687 0.000000000000000e+00 1229215041
-3.790076 0.584872 1.718745 0.000000000000000e+00 1229215041
-3.793071 0.684263 1.720103 0.000000000000000e+00 1229215041
-3.342847 -0.429178 1.528105 0.000000000000000e+00 1229215041
-3.373621 -0.346069 1.542173 0.000000000000000e+00 1229215041
-3.337637 -0.256620 1.525724 0.000000000000000e+00 1229215041
-3.305543 -0.169493 1.511053 0.000000000000000e+00 1229215041
-3.254527 -0.083081 1.487732 0.000000000000000e+00 1229215041
-3.267422 0.000000 1.493626 0.000000000000000e+00 1229215041
-3.222886 0.082273 1.473268 0.000000000000000e+00 1229215041
-3.381779 0.173402 1.545902 0.000000000000000e+00 1229215041
-3.338549 0.256690 1.526141 0.000000000000000e+00 1229215041
-3.581473 0.367391 1.637188 0.000000000000000e+00 1229215041
-3.647382 0.468985 1.667317 0.000000000000000e+00 1229215041
-3.789036 0.585515 1.732070 0.000000000000000e+00 1229215041
-3.822083 0.690444 1.747177 0.000000000000000e+00 1229215041
-3.373348 -0.433693 1.554363 0.000000000000000e+00 1229215041
-3.371521 -0.346333 1.553521 0.000000000000000e+00 1229215041
-3.351254 -0.258023 1.544183 0.000000000000000e+00 1229215041
-3.318310 -0.170384 1.529003 0.000000000000000e+00 1229215041
-3.253515 -0.083170 1.499147 0.000000000000000e+00 1229215041
-3.283279 0.000000 1.512861 0.000000000000000e+00 1229215041
-3.212057 0.082110 1.480044 0.000000000000000e+00 1229215041
-3.406135 0.174893 1.569471 0.000000000000000e+00 1229215041
-3.343369 0.257416 1.540549 0.000000000000000e+00 1229215041
-3.584668 0.368228 1.651735 0.000000000000000e+00 1229215041
-3.637341 0.468342 1.676005 0.000000000000000e+00 1229215041
-3.829055 0.592519 1.764343 0.000000000000000e+00 1229215041
-3.805911 0.688475 1.753678 0.000000000000000e+00 1229215041
-3.350738 -0.431388 1.556213 0.000000000000000e+00 1229215041
-3.378059 -0.347489 1.568903 0.000000000000000e+00 1229215041
-3.370801 -0.259891 1.565532 0.000000000000000e+00 1229215041
-3.321036 -0.170762 1.542419 0.000000000000000e+00 1229215041
-3.275960 -0.083861 1.521484 0.000000000000000e+00 1229215041
-3.270209 0.000000 1.518813 0.000000000000000e+00 1229215041
-3.217299 0.082359 1.494239 0.000000000000000e+00 1229215041
-3.407700 0.175218 1.582669 0.000000000000000e+00 1229215041
-3.343323 0.257772 1.552770 0.000000000000000e+00 1229215041
-3.598582 0.370173 1.671322 0.000000000000000e+00 1229215041
-3.635819 0.468800 1.688616 0.000000000000000e+00 1229215041
-3.819774 0.591908 1.774052 0.000000000000000e+00 1229215041
-3.806383 0.689522 1.767833 0.000000000000000e+00 1229215041
-3.359058 -0.433068 1.572411 0.000000000000000e+00 1229215041
-3.374201 -0.347581 1.579500 0.000000000000000e+00 1229215041
-3.370838 -0.260259 1.577925 0.000000000000000e+00 1229215041
-3.326760 -0.171297 1.557292 0.000000000000000e+00 1229215041
-3.278885 -0.084054 1.534881 0.000000000000000e+00 1229215041
-3.293773 0.000000 1.541851 0.000000000000000e+00 1229215041
-3.228461 0.082761 1.511277 0.000000000000000e+00 1229215041
-3.421891 0.176195 1.601824 0.000000000000000e+00 1229215041
-3.351339 0.258754 1.568798 0.000000000000000e+00 1229215041
-3.611374 0.372012 1.690523 0.000000000000000e+00 1229215041
-3.659859 0.472564 1.713220 0.000000000000000e+00 1229215041
-3.820291 0.592821 1.788320 0.000000000000000e+00 1229215041
-3.810174 0.691180 1.783584 0.000000000000000e+00 1229215041
-3.378990 -0.436255 1.594183 0.000000000000000e+00 1229215041
-3.394301 -0.350147 1.601407 0.000000000000000e+00 1229215041
-3.378391 -0.261212 1.593900 0.000000000000000e+00 1229215041
-3.346736 -0.172570 1.578966 0.000000000000000e+00 1229215041
-3.287059 -0.084383 1.550811 0.000000000000000e+00 1229215041
-3.281944 0.000000 1.548398 0.000000000000000e+00 1229215041
-3.233497 0.083008 1.525541 0.000000000000000e+00 1229215041
-3.424654 0.176588 1.615727 0.000000000000000e+00 1229215041
-3.345433 0.258664 1.578351 0.000000000000000e+00 1229215041
-3.621344 0.373568 1.708524 0.000000000000000e+00 1229215041
-3.653877 0.472460 1.723873 0.000000000000000e+00 1229215041
-3.832126 0.595501 1.807970 0.000000000000000e+00 1229215041
-3.797344 0.689829 1.791560 0.000000000000000e+00 1229215041
-3.372574 -0.436050 1.603610 0.000000000000000e+00 1229215041
-3.398951 -0.351128 1.616152 0.000000000000000e+00 1229215041
-3.385817 -0.262161 1.609907 0.000000000000000e+00 1229215041
-3.336367 -0.172281 1.586394 0.000000000000000e+00 1229215041
-3.303375 -0.084923 1.570707 0.000000000000000e+00 1229215041
-3.305342 0.000000 1.571642 0.000000000000000e+00 1229215041
-3.252631 0.083619 1.546579 0.000000000000000e+00 1229215041
-3.433587 0.177301 1.632621 0.000000000000000e+00 1229215041
-3.356088 0.259859 1.595771 0.000000000000000e+00 1229215041
-3.630084 0.375005 1.726052 0.000000000000000e+00 1229215041
-3.683103 0.476920 1.751262 0.000000000000000e+00 1229215041
-3.821392 0.594682 1.817016 0.000000000000000e+00 1229215041
-3.790229 0.689521 1.802199 0.000000000000000e+00 1229215041
-3.395983 -0.439709 1.627316 0.000000000000000e+00 1229215041
-3.392325 -0.350948 1.625564 0.000000000000000e+00 1229215041
-3.393369 -0.263124 1.626064 0.000000000000000e+00 1229215041
-3.345183 -0.172985 1.602974 0.000000000000000e+00 1229215041
-3.297993 -0.084907 1.580361 0.000000000000000e+00 1229215041
-3.314939 0.000000 1.588481 0.000000000000000e+00 1229215041
-3.252719 0.083741 1.558666 0.000000000000000e+00 1229215041
-3.426244 0.177177 1.641817 0.000000000000000e+00 1229215041
-3.367793 0.261141 1.613808 0.000000000000000e+00 1229215041
-3.636427 0.376202 1.742535 0.000000000000000e+00 1229215041
-3.667423 0.475574 1.757387 0.000000000000000e+00 1229215041
-3.812890 0.594214 1.827093 0.000000000000000e+00 1229215041
-3.751675 0.683491 1.797760 0.000000000000000e+00 1229215041
-3.381062 -0.438412 1.632723 0.000000000000000e+00 1229215041
-3.406534 -0.352930 1.645024 0.000000000000000e+00 1229215041
-3.388786 -0.263150 1.636453 0.000000000000000e+00 1229215041
-3.352579 -0.173619 1.618969 0.000000000000000e+00 1229215041
-3.302441 -0.085145 1.594757 0.000000000000000e+00 1229215041
-3.310180 0.000000 1.598494 0.000000000000000e+00 1229215041
-3.253546 0.083884 1.571145 0.000000000000000e+00 1229215041
-3.448433 0.178583 1.665257 0.000000000000000e+00 1229215041
-3.399981 0.264020 1.641859 0.000000000000000e+00 1229215041
-3.650987 0.378256 1.763071 0.000000000000000e+00 1229215041
-3.676841 0.477488 1.775556 0.000000000000000e+00 1229215041
-3.796616 0.592536 1.833395 0.000000000000000e+00 1229215041
-3.792279 0.691891 1.831301 0.000000000000000e+00 1229215041
-3.395408 -0.440917 1.652296 0.000000000000000e+00 1229215041
-3.413608 -0.354180 1.661153 0.000000000000000e+00 1229215041
-3.405653 -0.264847 1.657282 0.000000000000000e+00 1229215041
-3.344654 -0.173462 1.627598 0.000000000000000e+00 1229215041
-3.333509 -0.086072 1.622175 0.000000000000000e+00 1229215041
-3.302728 0.000000 1.607196 0.000000000000000e+00 1229215041
-3.268971 0.084405 1.590769 0.000000000000000e+00 1229215041
-3.428640 0.177818 1.668468 0.000000000000000e+00 1229215041
-3.388457 0.263510 1.648914 0.000000000000000e+00 1229215041
-3.647304 0.378427 1.774875 0.000000000000000e+00 1229215041
-3.696172 0.480700 1.798656 0.000000000000000e+00 1229215041
-3.807986 0.595180 1.853067 0.000000000000000e+00 1229215041
-3.793332 0.693096 1.845937 0.000000000000000e+00 1229215041
-3.393548 -0.441325 1.664069 0.000000000000000e+00 1229215041
-3.419673 -0.355333 1.676879 0.000000000000000e+00 1229215041
-3.415631 -0.266014 1.674897 0.000000000000000e+00 1229215041
-3.360304 -0.174531 1.647767 0.000000000000000e+00 1229215041
-3.323849 -0.085949 1.629891 0.000000000000000e+00 1229215041
-3.313857 0.000000 1.624991 0.000000000000000e+00 1229215041
-3.265414 0.084438 1.601236 0.000000000000000e+00 1229215041
-3.469312 0.180193 1.701220 0.000000000000000e+00 1229215041
-3.382690 0.263449 1.658744 0.000000000000000e+00 1229215041
-3.661072 0.380416 1.795252 0.000000000000000e+00 1229215041
-3.673401 0.478443 1.801298 0.000000000000000e+00 1229215041
-3.783876 0.592284 1.855471 0.000000000000000e+00 1229215041
-3.795961 0.694599 1.861397 0.000000000000000e+00 1229215041
-3.417526 -0.445103 1.688631 0.000000000000000e+00 1229215041
-3.429818 -0.356916 1.694705 0.000000000000000e+00 1229215041
-3.401335 -0.265295 1.680631 0.000000000000000e+00 1229215041
-3.371507 -0.175373 1.665892 0.000000000000000e+00 1229215041
-3.332497 -0.086300 1.646617 0.000000000000000e+00 1229215041
-3.334819 0.000000 1.647764 0.000000000000000e+00 1229215041
-3.277223 0.084869 1.619306 0.000000000000000e+00 1229215041
-3.467044 0.180342 1.713098 0.000000000000000e+00 1229215041
-3.390598 0.264457 1.675325 0.000000000000000e+00 1229215041
-3.638277 0.378609 1.797706 0.000000000000000e+00 1229215041
-3.665791 0.478161 1.811301 0.000000000000000e+00 1229215041
-3.796790 0.595188 1.876029 0.000000000000000e+00 1229215041
-3.852882 0.706062 1.903744 0.000000000000000e+00 1229215041
-3.405763 -0.444235 1.695617 0.000000000000000e+00 1229215041
-3.443868 -0.358915 1.714589 0.000000000000000e+00 1229215041
-3.426318 -0.267643 1.705851 0.000000000000000e+00 1229215041
-3.371895 -0.175656 1.678756 0.000000000000000e+00 1229215041
-3.338625 -0.086588 1.662192 0.000000000000000e+00 1229215041
-3.347053 0.000000 1.666387 0.000000000000000e+00 1229215041
-3.305840 0.085738 1.645869 0.000000000000000e+00 1229215041
-3.478723 0.181221 1.731942 0.000000000000000e+00 1229215041
-3.421881 0.267297 1.703642 0.000000000000000e+00 1229215041
-3.667463 0.382218 1.825909 0.000000000000000e+00 1229215041
-3.644681 0.476119 1.814567 0.000000000000000e+00 1229215041
-3.814946 0.598930 1.899336 0.000000000000000e+00 1229215041
-3.825165 0.702032 1.904424 0.000000000000000e+00 1229215041
-3.424657 -0.447374 1.717932 0.000000000000000e+00 1229215041
-3.440326 -0.359087 1.725793 0.000000000000000e+00 1229215041
-3.440947 -0.269191 1.726104 0.000000000000000e+00 1229215041
-3.377871 -0.176232 1.694463 0.000000000000000e+00 1229215041
-3.335943 -0.086649 1.673430 0.000000000000000e+00 1229215041
-3.346645 0.000000 1.678799 0.000000000000000e+00 1229215041
-3.285561 0.085341 1.648157 0.000000000000000e+00 1229215041
-3.462368 0.180641 1.736849 0.000000000000000e+00 1229215041
-3.441234 0.269214 1.726248 0.000000000000000e+00 1229215041
-3.646403 0.380596 1.829169 0.000000000000000e+00 1229215041
-3.637662 0.475919 1.824784 0.000000000000000e+00 1229215041
-3.813764 0.599647 1.913122 0.000000000000000e+00 1229215041
-3.836902 0.705248 1.924730 0.000000000000000e+00 1229215041
-3.444076 -0.450594 1.740695 0.000000000000000e+00 1229215041
-3.450525 -0.360698 1.743954 0.000000000000000e+00 1229215041
-3.421456 -0.268073 1.729262 0.000000000000000e+00 1229215041
-3.400403 -0.177678 1.718621 0.000000000000000e+00 1229215041
-3.337819 -0.086830 1.686991 0.000000000000000e+00 1229215041
-3.358434 0.000000 1.697410 0.000000000000000e+00 1229215041
-3.292991 0.085664 1.664334 0.000000000000000e+00 1229215041
