# .PCD v0.7 - Point Cloud Data file format
VERSION 0.7
FIELDS x y z rgb label
SIZE 4 4 4 4 4
TYPE F F F F U
COUNT 1 1 1 1 1
WIDTH 778
HEIGHT 1
VIEWPOINT 0 0 0 1 0 0 0
POINTS 778
DATA ascii
-3.183599 0.078781 1.174265 0.000000000000000e+00 1229215041
-3.180815 0.158103 1.173238 0.000000000000000e+00 1229215041
-3.204137 0.238810 1.181840 0.000000000000000e+00 1229215041
-3.298306 0.327982 1.216574 0.000000000000000e+00 1229215041
-3.454506 0.430582 1.274188 0.000000000000000e+00 1229215041
-3.523940 0.527873 1.299799 0.000000000000000e+00 1229215041
-3.588634 0.628419 1.323661 0.000000000000000e+00 1229215041
-3.150213 -0.632618 1.161950 0.000000000000000e+00 1163024724
-3.574447 0.717812 1.318428 0.000000000000000e+00 1229215041
-3.167627 -0.555315 1.179239 0.000000000000000e+00 1163024724
-3.354243 -0.503015 1.248712 0.000000000000000e+00 1163024724
-3.203724 -0.399165 1.192677 0.000000000000000e+00 1163024724
-3.328674 -0.331371 1.239193 0.000000000000000e+00 1163024724
-3.180483 -0.237312 1.184025 0.000000000000000e+00 1163024724
-3.334478 -0.165926 1.241354 0.000000000000000e+00 1163024724
-3.158691 -0.078252 1.175912 0.000000000000000e+00 1163024724
-5.647785 0.000000 2.102548 0.000000000000000e+00 1229215041
-3.188090 0.078981 1.186857 0.000000000000000e+00 1229215041
-3.185251 0.158501 1.185800 0.000000000000000e+00 1229215041
-3.210102 0.239523 1.195051 0.000000000000000e+00 1229215041
-3.304683 0.328983 1.230262 0.000000000000000e+00 1229215041
-3.461706 0.431962 1.288718 0.000000000000000e+00 1229215041
-3.530213 0.529404 1.314222 0.000000000000000e+00 1229215041
-3.595200 0.630273 1.338415 0.000000000000000e+00 1229215041
-3.154465 -0.634180 1.174339 0.000000000000000e+00 1163024724
-3.581386 0.720010 1.333272 0.000000000000000e+00 1229215041
-3.166355 -0.555719 1.189651 0.000000000000000e+00 1163024724
-3.344933 -0.502185 1.256745 0.000000000000000e+00 1163024724
-3.183576 -0.397103 1.196121 0.000000000000000e+00 1163024724
-3.401514 -0.339005 1.278004 0.000000000000000e+00 1163024724
-3.168838 -0.236711 1.190584 0.000000000000000e+00 1163024724
-3.323969 -0.165590 1.248869 0.000000000000000e+00 1163024724
-3.163889 -0.078470 1.188724 0.000000000000000e+00 1163024724
-5.656870 0.000000 2.125377 0.000000000000000e+00 1229215041
-3.192604 0.079182 1.199513 0.000000000000000e+00 1229215041
-3.189830 0.158908 1.198470 0.000000000000000e+00 1229215041
-3.216104 0.240241 1.208342 0.000000000000000e+00 1229215041
-3.311008 0.329985 1.243999 0.000000000000000e+00 1229215041
-3.468735 0.433327 1.303260 0.000000000000000e+00 1229215041
-3.536526 0.530950 1.328730 0.000000000000000e+00 1229215041
-3.601843 0.632150 1.353271 0.000000000000000e+00 1229215041
-3.159290 -0.635867 1.186996 0.000000000000000e+00 1163024724
-3.587974 0.722148 1.348060 0.000000000000000e+00 1229215041
-3.172625 -0.557453 1.202938 0.000000000000000e+00 1163024724
-3.335527 -0.501343 1.264704 0.000000000000000e+00 1163024724
-3.176364 -0.396654 1.204356 0.000000000000000e+00 1163024724
-3.390482 -0.338290 1.285541 0.000000000000000e+00 1163024724
-3.162241 -0.236487 1.199001 0.000000000000000e+00 1163024724
-3.313425 -0.165253 1.256324 0.000000000000000e+00 1163024724
-3.158448 -0.078424 1.197563 0.000000000000000e+00 1163024724
-5.666005 0.000000 2.148333 0.000000000000000e+00 1229215041
-3.197153 0.079385 1.212238 0.000000000000000e+00 1229215041
-3.194432 0.159318 1.211207 0.000000000000000e+00 1229215041
-3.222437 0.240988 1.221825 0.000000000000000e+00 1229215041
-3.317697 0.331028 1.257944 0.000000000000000e+00 1229215041
-3.475776 0.434702 1.317881 0.000000000000000e+00 1229215041
-3.542913 0.532514 1.343337 0.000000000000000e+00 1229215041
-3.608710 0.634077 1.368285 0.000000000000000e+00 1229215041
-3.165699 -0.637883 1.200312 0.000000000000000e+00 1163024724
-3.594562 0.724298 1.362921 0.000000000000000e+00 1229215041
-3.227530 -0.567752 1.234901 0.000000000000000e+00 1163024724
-3.326131 -0.500506 1.272627 0.000000000000000e+00 1163024724
-3.176378 -0.397112 1.215329 0.000000000000000e+00 1163024724
-3.379450 -0.337577 1.293028 0.000000000000000e+00 1163024724
-3.162452 -0.236774 1.210001 0.000000000000000e+00 1163024724
-3.219693 -0.160762 1.231902 0.000000000000000e+00 1163024724
-3.155409 -0.078439 1.207306 0.000000000000000e+00 1163024724
-5.675188 0.000000 2.171411 0.000000000000000e+00 1229215041
-3.202046 0.079598 1.225150 0.000000000000000e+00 1229215041
-3.199199 0.159739 1.224061 0.000000000000000e+00 1229215041
-3.228989 0.241756 1.235459 0.000000000000000e+00 1229215041
-3.324736 0.332112 1.272093 0.000000000000000e+00 1229215041
-3.482918 0.436095 1.332616 0.000000000000000e+00 1229215041
-3.549572 0.534128 1.358119 0.000000000000000e+00 1229215041
-3.615640 0.636024 1.383397 0.000000000000000e+00 1229215041
-3.175487 -0.640591 1.214988 0.000000000000000e+00 1163024724
-3.601535 0.726537 1.378001 0.000000000000000e+00 1229215041
-3.216435 -0.566457 1.241789 0.000000000000000e+00 1163024724
-3.316530 -0.499640 1.280434 0.000000000000000e+00 1163024724
-3.179541 -0.397968 1.227545 0.000000000000000e+00 1163024724
-3.368407 -0.336864 1.300462 0.000000000000000e+00 1163024724
-3.194516 -0.239452 1.233327 0.000000000000000e+00 1163024724
-3.206423 -0.160286 1.237924 0.000000000000000e+00 1163024724
-3.157578 -0.078584 1.219066 0.000000000000000e+00 1163024724
-5.684425 0.000000 2.194622 0.000000000000000e+00 1229215041
-3.207046 0.079815 1.238165 0.000000000000000e+00 1229215041
-3.204344 0.160182 1.237121 0.000000000000000e+00 1229215041
-3.236171 0.242575 1.249409 0.000000000000000e+00 1229215041
-3.331721 0.333195 1.286299 0.000000000000000e+00 1229215041
-3.490120 0.437504 1.347453 0.000000000000000e+00 1229215041
-3.556247 0.535753 1.372983 0.000000000000000e+00 1229215041
-3.622663 0.637999 1.398624 0.000000000000000e+00 1229215041
-3.189196 -0.644102 1.231273 0.000000000000000e+00 1163024724
-3.608498 0.728786 1.393156 0.000000000000000e+00 1229215041
-3.206000 -0.565280 1.248884 0.000000000000000e+00 1163024724
-3.306793 -0.498756 1.288148 0.000000000000000e+00 1163024724
-3.185639 -0.399198 1.240953 0.000000000000000e+00 1163024724
-3.357350 -0.336151 1.307842 0.000000000000000e+00 1163024724
-3.185516 -0.239057 1.240905 0.000000000000000e+00 1163024724
-3.194399 -0.159871 1.244365 0.000000000000000e+00 1163024724
-3.160959 -0.078760 1.231339 0.000000000000000e+00 1163024724
-5.693712 0.000000 2.217962 0.000000000000000e+00 1229215041
-3.212128 0.080035 1.251271 0.000000000000000e+00 1229215041
-3.209523 0.160628 1.250256 0.000000000000000e+00 1229215041
-3.243423 0.243403 1.263462 0.000000000000000e+00 1229215041
-3.338820 0.334296 1.300624 0.000000000000000e+00 1229215041
-3.497219 0.438907 1.362327 0.000000000000000e+00 1229215041
-3.562962 0.537393 1.387937 0.000000000000000e+00 1229215041
-3.629770 0.639999 1.413962 0.000000000000000e+00 1229215041
-3.203428 -0.647734 1.247882 0.000000000000000e+00 1163024724
-3.615434 0.731042 1.408378 0.000000000000000e+00 1229215041
-3.207233 -0.566165 1.260518 0.000000000000000e+00 1163024724
-3.297086 -0.497879 1.295833 0.000000000000000e+00 1163024724
-3.198384 -0.401269 1.257041 0.000000000000000e+00 1163024724
-3.346235 -0.335434 1.315150 0.000000000000000e+00 1163024724
-3.179343 -0.238876 1.249557 0.000000000000000e+00 1163024724
-3.190385 -0.159859 1.253897 0.000000000000000e+00 1163024724
-3.165167 -0.078958 1.243985 0.000000000000000e+00 1163024724
-5.703052 0.000000 2.241435 0.000000000000000e+00 1229215041
-3.217298 0.080258 1.264474 0.000000000000000e+00 1229215041
-3.214759 0.161080 1.263476 0.000000000000000e+00 1229215041
-3.250874 0.244250 1.277671 0.000000000000000e+00 1229215041
-3.346154 0.335426 1.315118 0.000000000000000e+00 1229215041
-3.504296 0.440315 1.377271 0.000000000000000e+00 1229215041
-3.570055 0.539099 1.403116 0.000000000000000e+00 1229215041
-3.637016 0.642034 1.429433 0.000000000000000e+00 1229215041
-3.622417 0.733319 1.423696 0.000000000000000e+00 1229215041
-3.201532 -0.565832 1.269439 0.000000000000000e+00 1163024724
-3.268081 -0.494087 1.295826 0.000000000000000e+00 1163024724
-3.326490 -0.417838 1.318985 0.000000000000000e+00 1163024724
-3.335169 -0.334723 1.322427 0.000000000000000e+00 1163024724
-3.177640 -0.239032 1.259965 0.000000000000000e+00 1163024724
-3.194458 -0.160254 1.266634 0.000000000000000e+00 1163024724
-3.170494 -0.079185 1.257132 0.000000000000000e+00 1163024724
-3.227419 0.000000 1.279703 0.000000000000000e+00 1229215041
-3.222798 0.080491 1.277871 0.000000000000000e+00 1229215041
-3.220126 0.161541 1.276811 0.000000000000000e+00 1229215041
-3.258455 0.245111 1.292009 0.000000000000000e+00 1229215041
-3.353541 0.336567 1.329711 0.000000000000000e+00 1229215041
-3.511422 0.441736 1.392313 0.000000000000000e+00 1229215041
-3.577299 0.540836 1.418434 0.000000000000000e+00 1229215041
-3.644179 0.644064 1.444952 0.000000000000000e+00 1229215041
-3.629442 0.735616 1.439109 0.000000000000000e+00 1229215041
-3.197487 -0.565796 1.279008 0.000000000000000e+00 1163024724
-3.255354 -0.492754 1.302155 0.000000000000000e+00 1163024724
-3.265904 -0.410721 1.306375 0.000000000000000e+00 1163024724
-3.323944 -0.333998 1.329591 0.000000000000000e+00 1163024724
-3.184251 -0.239817 1.273713 0.000000000000000e+00 1163024724
-3.206468 -0.161050 1.282600 0.000000000000000e+00 1163024724
-3.178382 -0.079477 1.271366 0.000000000000000e+00 1163024724
-3.232544 0.000000 1.293031 0.000000000000000e+00 1229215041
-3.228329 0.080726 1.291345 0.000000000000000e+00 1229215041
-3.225665 0.162014 1.290279 0.000000000000000e+00 1229215041
-3.265918 0.245968 1.306381 0.000000000000000e+00 1229215041
-3.360918 0.337713 1.344381 0.000000000000000e+00 1229215041
-3.518708 0.443184 1.407498 0.000000000000000e+00 1229215041
-3.584603 0.542592 1.433855 0.000000000000000e+00 1229215041
-3.651388 0.646114 1.460570 0.000000000000000e+00 1229215041
-3.636400 0.737912 1.454575 0.000000000000000e+00 1229215041
-3.199382 -0.566818 1.290973 0.000000000000000e+00 1163024724
-3.242708 -0.491435 1.308455 0.000000000000000e+00 1163024724
-3.243110 -0.408349 1.308617 0.000000000000000e+00 1163024724
-3.312714 -0.333273 1.336703 0.000000000000000e+00 1163024724
-3.292131 -0.248243 1.328397 0.000000000000000e+00 1163024724
-3.208455 -0.161345 1.294634 0.000000000000000e+00 1163024724
-3.191285 -0.079897 1.287705 0.000000000000000e+00 1163024724
-3.237717 0.000000 1.306441 0.000000000000000e+00 1229215041
-3.233900 0.080964 1.304901 0.000000000000000e+00 1229215041
-3.231236 0.162490 1.303826 0.000000000000000e+00 1229215041
-3.273227 0.246817 1.320769 0.000000000000000e+00 1229215041
-3.368314 0.338866 1.359138 0.000000000000000e+00 1229215041
-3.526057 0.444648 1.422788 0.000000000000000e+00 1229215041
-3.591948 0.544363 1.449376 0.000000000000000e+00 1229215041
-3.658672 0.648188 1.476299 0.000000000000000e+00 1229215041
-3.643406 0.740230 1.470139 0.000000000000000e+00 1229215041
-3.204026 -0.568335 1.304097 0.000000000000000e+00 1163024724
-3.230554 -0.490192 1.314894 0.000000000000000e+00 1163024724
-3.236084 -0.407962 1.317145 0.000000000000000e+00 1163024724
-3.301193 -0.332520 1.343646 0.000000000000000e+00 1163024724
-3.257362 -0.245921 1.325806 0.000000000000000e+00 1163024724
-3.213879 -0.161815 1.308107 0.000000000000000e+00 1163024724
-3.205650 -0.080354 1.304758 0.000000000000000e+00 1163024724
-3.243152 0.000000 1.320022 0.000000000000000e+00 1229215041
-3.239505 0.081203 1.318537 0.000000000000000e+00 1229215041
-3.236840 0.162971 1.317453 0.000000000000000e+00 1229215041
-3.280589 0.247675 1.335259 0.000000000000000e+00 1229215041
-3.375935 0.340048 1.374067 0.000000000000000e+00 1229215041
-3.533457 0.446126 1.438181 0.000000000000000e+00 1229215041
-3.599333 0.546149 1.464994 0.000000000000000e+00 1229215041
-3.666014 0.650283 1.492134 0.000000000000000e+00 1229215041
-3.656191 0.743736 1.488136 0.000000000000000e+00 1229215041
-3.218115 -0.571538 1.321157 0.000000000000000e+00 1163024724
-3.231196 -0.490894 1.326528 0.000000000000000e+00 1163024724
-3.239974 -0.408957 1.330131 0.000000000000000e+00 1163024724
-3.269302 -0.329714 1.342172 0.000000000000000e+00 1163024724
-3.242524 -0.245103 1.331178 0.000000000000000e+00 1163024724
-3.202265 -0.161429 1.314650 0.000000000000000e+00 1163024724
-5.755804 -0.144456 2.362973 0.000000000000000e+00 1229215041
-3.248648 0.000000 1.333692 0.000000000000000e+00 1229215041
-3.245352 0.081450 1.332339 0.000000000000000e+00 1229215041
-3.242495 0.163457 1.331166 0.000000000000000e+00 1229215041
-3.288005 0.248541 1.349850 0.000000000000000e+00 1229215041
-3.383652 0.341246 1.389117 0.000000000000000e+00 1229215041
-3.540924 0.447620 1.453682 0.000000000000000e+00 1229215041
-3.606801 0.547957 1.480727 0.000000000000000e+00 1229215041
-3.673332 0.652385 1.508041 0.000000000000000e+00 1229215041
-3.674620 0.748407 1.508570 0.000000000000000e+00 1229215041
-3.222142 -0.490128 1.334181 0.000000000000000e+00 1163024724
-3.245368 -0.410147 1.343797 0.000000000000000e+00 1163024724
-3.254976 -0.328677 1.347776 0.000000000000000e+00 1163024724
-3.229197 -0.244400 1.337102 0.000000000000000e+00 1163024724
-3.201839 -0.161609 1.325774 0.000000000000000e+00 1163024724
-5.765498 -0.144879 2.387298 0.000000000000000e+00 1229215041
-3.254421 0.000000 1.347546 0.000000000000000e+00 1229215041
-3.251186 0.081698 1.346206 0.000000000000000e+00 1229215041
-3.248233 0.163950 1.344984 0.000000000000000e+00 1229215041
-3.295478 0.249416 1.364546 0.000000000000000e+00 1229215041
-3.391526 0.342466 1.404317 0.000000000000000e+00 1229215041
-3.548507 0.449137 1.469317 0.000000000000000e+00 1229215041
-3.614454 0.549803 1.496624 0.000000000000000e+00 1229215041
-3.680674 0.654502 1.524043 0.000000000000000e+00 1229215041
-3.694163 0.753323 1.529628 0.000000000000000e+00 1229215041
-3.219689 -0.490369 1.344554 0.000000000000000e+00 1163024724
-3.239124 -0.409872 1.352671 0.000000000000000e+00 1163024724
-3.241286 -0.327706 1.353573 0.000000000000000e+00 1163024724
-3.233093 -0.245001 1.350152 0.000000000000000e+00 1163024724
-3.205211 -0.161982 1.338508 0.000000000000000e+00 1163024724
-5.775249 -0.145306 2.411766 0.000000000000000e+00 1229215041
-3.260270 0.000000 1.361501 0.000000000000000e+00 1229215041
-3.257061 0.081948 1.360161 0.000000000000000e+00 1229215041
-3.254004 0.164448 1.358885 0.000000000000000e+00 1229215041
-3.303066 0.250304 1.379373 0.000000000000000e+00 1229215041
-3.399458 0.343697 1.419627 0.000000000000000e+00 1229215041
-3.556128 0.450667 1.485053 0.000000000000000e+00 1229215041
-3.622012 0.551644 1.512566 0.000000000000000e+00 1229215041
-3.687923 0.656614 1.540091 0.000000000000000e+00 1229215041
-3.714778 0.758478 1.551305 0.000000000000000e+00 1229215041
-3.222666 -0.491444 1.357227 0.000000000000000e+00 1163024724
-3.327624 -0.421603 1.401430 0.000000000000000e+00 1163024724
-3.241620 -0.328154 1.365209 0.000000000000000e+00 1163024724
-3.223755 -0.244603 1.357685 0.000000000000000e+00 1163024724
-3.214090 -0.162636 1.353615 0.000000000000000e+00 1163024724
-3.272078 -0.082430 1.378037 0.000000000000000e+00 1229215041
-3.266225 0.000000 1.375571 0.000000000000000e+00 1229215041
-3.262967 0.082201 1.374199 0.000000000000000e+00 1229215041
-3.259813 0.164950 1.372871 0.000000000000000e+00 1229215041
-3.310413 0.251178 1.394181 0.000000000000000e+00 1229215041
-3.407614 0.344958 1.435117 0.000000000000000e+00 1229215041
-3.563805 0.452211 1.500897 0.000000000000000e+00 1229215041
-3.629569 0.553495 1.528594 0.000000000000000e+00 1229215041
-3.695221 0.658746 1.556243 0.000000000000000e+00 1229215041
-3.739403 0.764472 1.574851 0.000000000000000e+00 1229215041
-3.237314 -0.494308 1.374906 0.000000000000000e+00 1163024724
-3.229663 -0.409714 1.371656 0.000000000000000e+00 1163024724
-3.232726 -0.327672 1.372957 0.000000000000000e+00 1163024724
-3.221277 -0.244727 1.368094 0.000000000000000e+00 1163024724
-3.235473 -0.163927 1.374124 0.000000000000000e+00 1163024724
-3.277716 -0.082678 1.392065 0.000000000000000e+00 1229215041
-3.272333 0.000000 1.389778 0.000000000000000e+00 1229215041
-3.269020 0.082458 1.388372 0.000000000000000e+00 1229215041
-3.265672 0.165457 1.386949 0.000000000000000e+00 1229215041
-3.317814 0.252061 1.409095 0.000000000000000e+00 1229215041
-3.415845 0.346233 1.450729 0.000000000000000e+00 1229215041
-3.571537 0.453771 1.516852 0.000000000000000e+00 1229215041
-3.637193 0.555365 1.544737 0.000000000000000e+00 1229215041
-3.702573 0.660899 1.572504 0.000000000000000e+00 1229215041
-3.801410 0.778141 1.614481 0.000000000000000e+00 1229215041
-3.230994 -0.410411 1.383739 0.000000000000000e+00 1163024724
-3.229804 -0.327797 1.383229 0.000000000000000e+00 1163024724
-3.224529 -0.245289 1.380970 0.000000000000000e+00 1163024724
-5.805956 -0.294541 2.486519 0.000000000000000e+00 1229215041
-3.283500 -0.082930 1.406225 0.000000000000000e+00 1229215041
-3.278480 0.000000 1.404076 0.000000000000000e+00 1229215041
-3.275160 0.082720 1.402654 0.000000000000000e+00 1229215041
-3.271803 0.165981 1.401216 0.000000000000000e+00 1229215041
-3.325271 0.252953 1.424115 0.000000000000000e+00 1229215041
-3.424141 0.347520 1.466458 0.000000000000000e+00 1229215041
-3.579230 0.455333 1.532878 0.000000000000000e+00 1229215041
-3.644903 0.557259 1.561004 0.000000000000000e+00 1229215041
-3.709932 0.663065 1.588853 0.000000000000000e+00 1229215041
-3.240914 -0.412205 1.399570 0.000000000000000e+00 1163024724
-3.233269 -0.328574 1.396268 0.000000000000000e+00 1163024724
-3.241671 -0.246913 1.399896 0.000000000000000e+00 1163024724
-5.814584 -0.295361 2.510994 0.000000000000000e+00 1229215041
-3.289366 -0.083186 1.420493 0.000000000000000e+00 1229215041
-3.284666 0.000000 1.418464 0.000000000000000e+00 1229215041
-3.281339 0.082983 1.417027 0.000000000000000e+00 1229215041
-3.277977 0.166510 1.415575 0.000000000000000e+00 1229215041
-3.332799 0.253854 1.439250 0.000000000000000e+00 1229215041
-3.432608 0.348832 1.482352 0.000000000000000e+00 1229215041
-3.586987 0.456912 1.549019 0.000000000000000e+00 1229215041
-3.652386 0.559128 1.577261 0.000000000000000e+00 1229215041
-3.717268 0.665238 1.605280 0.000000000000000e+00 1229215041
-3.255849 -0.331302 1.417683 0.000000000000000e+00 1163024724
-5.821232 -0.443975 2.534720 0.000000000000000e+00 1229215041
-3.306487 -0.168178 1.439732 0.000000000000000e+00 1229215041
-3.295479 -0.083450 1.434939 0.000000000000000e+00 1229215041
-3.290893 0.000000 1.432942 0.000000000000000e+00 1229215041
-3.287558 0.083249 1.431490 0.000000000000000e+00 1229215041
-3.284192 0.167044 1.430025 0.000000000000000e+00 1229215041
-3.340142 0.254747 1.454387 0.000000000000000e+00 1229215041
-3.441263 0.350169 1.498417 0.000000000000000e+00 1229215041
-3.594854 0.458514 1.565295 0.000000000000000e+00 1229215041
-3.659922 0.561015 1.593627 0.000000000000000e+00 1229215041
-3.724655 0.667433 1.621814 0.000000000000000e+00 1229215041
-3.320241 -0.253563 1.457649 0.000000000000000e+00 1229215041
-3.312677 -0.168715 1.454329 0.000000000000000e+00 1229215041
-3.301637 -0.083716 1.449482 0.000000000000000e+00 1229215041
-3.297241 0.000000 1.447552 0.000000000000000e+00 1229215041
-3.293924 0.083521 1.446096 0.000000000000000e+00 1229215041
-3.290447 0.167583 1.444569 0.000000000000000e+00 1229215041
-3.347857 0.255672 1.469773 0.000000000000000e+00 1229215041
-3.450070 0.351528 1.514647 0.000000000000000e+00 1229215041
-3.602659 0.460116 1.581636 0.000000000000000e+00 1229215041
-3.667503 0.562919 1.610104 0.000000000000000e+00 1229215041
-3.732063 0.669643 1.638447 0.000000000000000e+00 1229215041
-3.319326 -0.338657 1.469204 0.000000000000000e+00 1229215041
-3.325725 -0.254320 1.472037 0.000000000000000e+00 1229215041
-3.318796 -0.169252 1.468970 0.000000000000000e+00 1229215041
-3.307882 -0.083986 1.464139 0.000000000000000e+00 1229215041
-3.303608 0.000000 1.462247 0.000000000000000e+00 1229215041
-3.300526 0.083799 1.460883 0.000000000000000e+00 1229215041
-3.297045 0.168143 1.459342 0.000000000000000e+00 1229215041
-3.356002 0.256635 1.485438 0.000000000000000e+00 1229215041
-3.458987 0.352906 1.531021 0.000000000000000e+00 1229215041
-3.610312 0.461706 1.598001 0.000000000000000e+00 1229215041
-3.674934 0.564809 1.626604 0.000000000000000e+00 1229215041
-3.739462 0.671863 1.655165 0.000000000000000e+00 1229215041
-3.324815 -0.339672 1.483642 0.000000000000000e+00 1229215041
-3.331533 -0.255105 1.486640 0.000000000000000e+00 1229215041
-3.324903 -0.169791 1.483681 0.000000000000000e+00 1229215041
-3.314168 -0.084258 1.478891 0.000000000000000e+00 1229215041
-3.310001 0.000000 1.477032 0.000000000000000e+00 1229215041
-3.307150 0.084080 1.475759 0.000000000000000e+00 1229215041
-3.303872 0.168717 1.474297 0.000000000000000e+00 1229215041
-3.375652 0.258484 1.506327 0.000000000000000e+00 1229215041
-3.467966 0.354296 1.547521 0.000000000000000e+00 1229215041
-3.618045 0.463316 1.614491 0.000000000000000e+00 1229215041
-3.682417 0.566719 1.643216 0.000000000000000e+00 1229215041
-3.746286 0.673992 1.671716 0.000000000000000e+00 1229215041
-3.289277 -0.421146 1.479696 0.000000000000000e+00 1229215041
-3.330755 -0.340739 1.498355 0.000000000000000e+00 1229215041
-3.337415 -0.255901 1.501351 0.000000000000000e+00 1229215041
-3.331018 -0.170333 1.498473 0.000000000000000e+00 1229215041
-3.320495 -0.084533 1.493739 0.000000000000000e+00 1229215041
-3.316436 0.000000 1.491913 0.000000000000000e+00 1229215041
-3.313776 0.084362 1.490717 0.000000000000000e+00 1229215041
-3.310745 0.169296 1.489353 0.000000000000000e+00 1229215041
-3.381989 0.259319 1.521402 0.000000000000000e+00 1229215041
-3.475826 0.355580 1.563615 0.000000000000000e+00 1229215041
-3.625959 0.464957 1.631154 0.000000000000000e+00 1229215041
-3.689956 0.568647 1.659943 0.000000000000000e+00 1229215041
-3.752973 0.676108 1.688291 0.000000000000000e+00 1229215041
-3.294277 -0.422362 1.493908 0.000000000000000e+00 1229215041
-3.336930 -0.341836 1.513250 0.000000000000000e+00 1229215041
-3.343505 -0.256718 1.516232 0.000000000000000e+00 1229215041
-3.337077 -0.170876 1.513317 0.000000000000000e+00 1229215041
-3.326829 -0.084810 1.508669 0.000000000000000e+00 1229215041
-3.322930 0.000000 1.506901 0.000000000000000e+00 1229215041
-3.320447 0.084647 1.505775 0.000000000000000e+00 1229215041
-3.317784 0.169888 1.504567 0.000000000000000e+00 1229215041
-3.386875 0.260048 1.535899 0.000000000000000e+00 1229215041
-3.486259 0.357133 1.580968 0.000000000000000e+00 1229215041
-3.633632 0.466576 1.647800 0.000000000000000e+00 1229215041
-3.697694 0.570616 1.676851 0.000000000000000e+00 1229215041
-3.759675 0.678238 1.704959 0.000000000000000e+00 1229215041
-3.300289 -0.423714 1.508651 0.000000000000000e+00 1229215041
-3.343430 -0.342972 1.528372 0.000000000000000e+00 1229215041
-3.349627 -0.257541 1.531205 0.000000000000000e+00 1229215041
-3.343175 -0.171423 1.528255 0.000000000000000e+00 1229215041
-3.333117 -0.085087 1.523657 0.000000000000000e+00 1229215041
-3.329515 0.000000 1.522011 0.000000000000000e+00 1229215041
-3.327296 0.084939 1.520997 0.000000000000000e+00 1229215041
-3.325028 0.170493 1.519960 0.000000000000000e+00 1229215041
-3.391788 0.260783 1.550478 0.000000000000000e+00 1229215041
-3.577069 0.366939 1.635174 0.000000000000000e+00 1229215041
-3.641267 0.468199 1.664521 0.000000000000000e+00 1229215041
-3.704972 0.572525 1.693642 0.000000000000000e+00 1229215041
-3.766376 0.680381 1.721712 0.000000000000000e+00 1229215041
-3.306312 -0.425075 1.523475 0.000000000000000e+00 1229215041
-3.349819 -0.344104 1.543522 0.000000000000000e+00 1229215041
-3.355787 -0.258372 1.546271 0.000000000000000e+00 1229215041
-3.349347 -0.171977 1.543304 0.000000000000000e+00 1229215041
-3.339551 -0.085370 1.538790 0.000000000000000e+00 1229215041
-3.336060 0.000000 1.537181 0.000000000000000e+00 1229215041
-3.334258 0.085234 1.536351 0.000000000000000e+00 1229215041
-3.332401 0.171107 1.535496 0.000000000000000e+00 1229215041
-3.395608 0.261438 1.564620 0.000000000000000e+00 1229215041
-3.585142 0.368277 1.651953 0.000000000000000e+00 1229215041
-3.649200 0.469869 1.681469 0.000000000000000e+00 1229215041
-3.711882 0.574387 1.710352 0.000000000000000e+00 1229215041
-3.768976 0.681794 1.736660 0.000000000000000e+00 1229215041
-3.312999 -0.426529 1.538686 0.000000000000000e+00 1229215041
-3.356251 -0.345246 1.558774 0.000000000000000e+00 1229215041
-3.362020 -0.259214 1.561454 0.000000000000000e+00 1229215041
-3.355520 -0.172535 1.558434 0.000000000000000e+00 1229215041
-3.346044 -0.085655 1.554033 0.000000000000000e+00 1229215041
-3.342613 0.000000 1.552440 0.000000000000000e+00 1229215041
-3.341230 0.085532 1.551798 0.000000000000000e+00 1229215041
-3.339853 0.171729 1.551158 0.000000000000000e+00 1229215041
-3.395099 0.261764 1.576817 0.000000000000000e+00 1229215041
-3.593210 0.369621 1.668827 0.000000000000000e+00 1229215041
-3.657201 0.471557 1.698547 0.000000000000000e+00 1229215041
-3.718790 0.576259 1.727151 0.000000000000000e+00 1229215041
-3.769199 0.682786 1.750563 0.000000000000000e+00 1229215041
-3.319735 -0.427998 1.554004 0.000000000000000e+00 1229215041
-3.362773 -0.346403 1.574150 0.000000000000000e+00 1229215041
-3.368305 -0.260064 1.576740 0.000000000000000e+00 1229215041
-3.361704 -0.173096 1.573650 0.000000000000000e+00 1229215041
-3.352577 -0.085943 1.569378 0.000000000000000e+00 1229215041
-3.349210 0.000000 1.567801 0.000000000000000e+00 1229215041
-3.348158 0.085830 1.567309 0.000000000000000e+00 1229215041
-3.347360 0.172357 1.566935 0.000000000000000e+00 1229215041
-3.398835 0.262421 1.591031 0.000000000000000e+00 1229215041
-3.601328 0.370977 1.685821 0.000000000000000e+00 1229215041
-3.664771 0.473198 1.715519 0.000000000000000e+00 1229215041
-3.725696 0.578142 1.744039 0.000000000000000e+00 1229215041
-3.762388 0.682511 1.761214 0.000000000000000e+00 1229215041
-3.326530 -0.429482 1.569433 0.000000000000000e+00 1229215041
-3.369363 -0.347574 1.589641 0.000000000000000e+00 1229215041
-3.374632 -0.260922 1.592127 0.000000000000000e+00 1229215041
-3.367929 -0.173663 1.588965 0.000000000000000e+00 1229215041
-3.359071 -0.086232 1.584785 0.000000000000000e+00 1229215041
-3.355864 0.000000 1.583273 0.000000000000000e+00 1229215041
-3.355155 0.086131 1.582938 0.000000000000000e+00 1229215041
-3.354922 0.172992 1.582828 0.000000000000000e+00 1229215041
-3.403664 0.263166 1.605824 0.000000000000000e+00 1229215041
-3.609509 0.372347 1.702941 0.000000000000000e+00 1229215041
-3.671835 0.474782 1.732346 0.000000000000000e+00 1229215041
-3.727929 0.579309 1.758810 0.000000000000000e+00 1229215041
-3.751257 0.681457 1.769816 0.000000000000000e+00 1229215041
-3.333433 -0.430989 1.584999 0.000000000000000e+00 1229215041
-3.376011 -0.348758 1.605244 0.000000000000000e+00 1229215041
-3.381001 -0.261788 1.607617 0.000000000000000e+00 1229215041
-3.374195 -0.174234 1.604380 0.000000000000000e+00 1229215041
-3.365539 -0.086521 1.600265 0.000000000000000e+00 1229215041
-3.362517 0.000000 1.598828 0.000000000000000e+00 1229215041
-3.362313 0.086438 1.598731 0.000000000000000e+00 1229215041
-3.362465 0.173629 1.598803 0.000000000000000e+00 1229215041
-3.411656 0.264161 1.622193 0.000000000000000e+00 1229215041
-3.617754 0.373731 1.720189 0.000000000000000e+00 1229215041
-3.678989 0.476387 1.749306 0.000000000000000e+00 1229215041
-3.725865 0.579816 1.771595 0.000000000000000e+00 1229215041
-3.737722 0.679969 1.777233 0.000000000000000e+00 1229215041
-3.340458 -0.432519 1.600709 0.000000000000000e+00 1229215041
-3.382885 -0.349972 1.621040 0.000000000000000e+00 1229215041
-3.387419 -0.262663 1.623213 0.000000000000000e+00 1229215041
-3.380505 -0.174812 1.619900 0.000000000000000e+00 1229215041
-3.372072 -0.086814 1.615859 0.000000000000000e+00 1229215041
-3.369216 0.000000 1.614490 0.000000000000000e+00 1229215041
-3.369485 0.086747 1.614619 0.000000000000000e+00 1229215041
-3.370072 0.174272 1.614900 0.000000000000000e+00 1229215041
-3.419876 0.265179 1.638766 0.000000000000000e+00 1229215041
-3.625575 0.375079 1.737334 0.000000000000000e+00 1229215041
-3.686212 0.478010 1.766391 0.000000000000000e+00 1229215041
-3.720233 0.579774 1.782694 0.000000000000000e+00 1229215041
-3.732384 0.679976 1.788516 0.000000000000000e+00 1229215041
-3.347528 -0.434064 1.616530 0.000000000000000e+00 1229215041
-3.389807 -0.351197 1.636947 0.000000000000000e+00 1229215041
-3.393873 -0.263545 1.638910 0.000000000000000e+00 1229215041
-3.386841 -0.175394 1.635514 0.000000000000000e+00 1229215041
-3.378752 -0.087112 1.631608 0.000000000000000e+00 1229215041
-3.375962 0.000000 1.630260 0.000000000000000e+00 1229215041
-3.376601 0.087057 1.630569 0.000000000000000e+00 1229215041
-3.377786 0.174925 1.631142 0.000000000000000e+00 1229215041
-3.428224 0.266213 1.655498 0.000000000000000e+00 1229215041
-3.632862 0.376378 1.754318 0.000000000000000e+00 1229215041
-3.687735 0.478902 1.780817 0.000000000000000e+00 1229215041
-3.707949 0.578698 1.790578 0.000000000000000e+00 1229215041
-3.741260 0.682583 1.806664 0.000000000000000e+00 1229215041
-3.354643 -0.435623 1.632459 0.000000000000000e+00 1229215041
-3.396765 -0.352433 1.652957 0.000000000000000e+00 1229215041
-3.400369 -0.264436 1.654710 0.000000000000000e+00 1229215041
-3.393217 -0.175981 1.651230 0.000000000000000e+00 1229215041
-3.385400 -0.087411 1.647426 0.000000000000000e+00 1229215041
-3.382570 0.000000 1.646049 0.000000000000000e+00 1229215041
-3.383708 0.087368 1.646603 0.000000000000000e+00 1229215041
-3.385557 0.175584 1.647503 0.000000000000000e+00 1229215041
-3.436899 0.267277 1.672487 0.000000000000000e+00 1229215041
-3.640112 0.377681 1.771376 0.000000000000000e+00 1229215041
-3.683201 0.479013 1.792344 0.000000000000000e+00 1229215041
-3.694689 0.577472 1.797934 0.000000000000000e+00 1229215041
-3.750441 0.685259 1.825065 0.000000000000000e+00 1229215041
-3.361810 -0.437197 1.648505 0.000000000000000e+00 1229215041
-3.403597 -0.353662 1.668996 0.000000000000000e+00 1229215041
-3.406910 -0.265335 1.670621 0.000000000000000e+00 1229215041
-3.399635 -0.176574 1.667053 0.000000000000000e+00 1229215041
-3.392003 -0.087711 1.663311 0.000000000000000e+00 1229215041
-3.389208 0.000000 1.661940 0.000000000000000e+00 1229215041
-3.390633 0.087676 1.662639 0.000000000000000e+00 1229215041
-3.392903 0.176224 1.663752 0.000000000000000e+00 1229215041
-3.445946 0.268375 1.689763 0.000000000000000e+00 1229215041
-3.646697 0.378922 1.788203 0.000000000000000e+00 1229215041
-3.678836 0.479151 1.803963 0.000000000000000e+00 1229215041
-3.692340 0.577956 1.810585 0.000000000000000e+00 1229215041
-3.759690 0.687962 1.843610 0.000000000000000e+00 1229215041
-3.369029 -0.438787 1.664668 0.000000000000000e+00 1229215041
-3.410475 -0.354903 1.685147 0.000000000000000e+00 1229215041
-3.413551 -0.266247 1.686667 0.000000000000000e+00 1229215041
-3.406063 -0.177170 1.682967 0.000000000000000e+00 1229215041
-3.398651 -0.088013 1.679305 0.000000000000000e+00 1229215041
-3.395911 0.000000 1.677951 0.000000000000000e+00 1229215041
-3.397579 0.087986 1.678775 0.000000000000000e+00 1229215041
-3.400066 0.176858 1.680004 0.000000000000000e+00 1229215041
-3.455202 0.269496 1.707247 0.000000000000000e+00 1229215041
-3.647986 0.379619 1.802503 0.000000000000000e+00 1229215041
-3.665285 0.478095 1.811051 0.000000000000000e+00 1229215041
-3.701196 0.580203 1.828795 0.000000000000000e+00 1229215041
-3.798358 0.696070 1.876803 0.000000000000000e+00 1229215041
-3.376305 -0.440393 1.680951 0.000000000000000e+00 1229215041
-3.417451 -0.356162 1.701437 0.000000000000000e+00 1229215041
-3.420329 -0.267175 1.702869 0.000000000000000e+00 1229215041
-3.412533 -0.177773 1.698988 0.000000000000000e+00 1229215041
-3.405345 -0.088319 1.695409 0.000000000000000e+00 1229215041
-3.402662 0.000000 1.694073 0.000000000000000e+00 1229215041
-3.404540 0.088298 1.695009 0.000000000000000e+00 1229215041
-3.407342 0.177502 1.696403 0.000000000000000e+00 1229215041
-3.464662 0.270638 1.724941 0.000000000000000e+00 1229215041
-3.642040 0.379568 1.813252 0.000000000000000e+00 1229215041
-3.652327 0.477118 1.818373 0.000000000000000e+00 1229215041
-3.710251 0.582493 1.847212 0.000000000000000e+00 1229215041
-3.790177 0.695610 1.887004 0.000000000000000e+00 1229215041
-3.383637 -0.442015 1.697355 0.000000000000000e+00 1229215041
-3.424482 -0.357433 1.717845 0.000000000000000e+00 1229215041
-3.427294 -0.268123 1.719255 0.000000000000000e+00 1229215041
-3.419036 -0.178380 1.715113 0.000000000000000e+00 1229215041
-3.412150 -0.088629 1.711658 0.000000000000000e+00 1229215041
-3.409297 0.000000 1.710227 0.000000000000000e+00 1229215041
-3.411434 0.088610 1.711299 0.000000000000000e+00 1229215041
-3.414696 0.178154 1.712935 0.000000000000000e+00 1229215041
-3.474332 0.271803 1.742851 0.000000000000000e+00 1229215041
-3.636605 0.379573 1.824253 0.000000000000000e+00 1229215041
-3.653242 0.477958 1.832599 0.000000000000000e+00 1229215041
-3.719390 0.584809 1.865781 0.000000000000000e+00 1229215041
-3.791410 0.696886 1.901909 0.000000000000000e+00 1229215041
-3.391023 -0.443653 1.713881 0.000000000000000e+00 1229215041
-3.431680 -0.358728 1.734430 0.000000000000000e+00 1229215041
-3.434305 -0.269080 1.735756 0.000000000000000e+00 1229215041
-3.425539 -0.178991 1.731326 0.000000000000000e+00 1229215041
-3.418880 -0.088939 1.727960 0.000000000000000e+00 1229215041
-3.415926 0.000000 1.726467 0.000000000000000e+00 1229215041
-3.417877 0.088912 1.727453 0.000000000000000e+00 1229215041
-3.421493 0.178780 1.729281 0.000000000000000e+00 1229215041
-3.484412 0.273006 1.761081 0.000000000000000e+00 1229215041
-3.623295 0.378759 1.831275 0.000000000000000e+00 1229215041
-3.662103 0.479845 1.850889 0.000000000000000e+00 1229215041
-3.758279 0.591821 1.899498 0.000000000000000e+00 1229215041
-3.797443 0.699056 1.919292 0.000000000000000e+00 1229215041
-3.398464 -0.445307 1.730529 0.000000000000000e+00 1229215041
-3.438991 -0.360043 1.751166 0.000000000000000e+00 1229215041
-3.441646 -0.270068 1.752518 0.000000000000000e+00 1229215041
-3.432069 -0.179607 1.747641 0.000000000000000e+00 1229215041
-3.425656 -0.089251 1.744375 0.000000000000000e+00 1229215041
-3.422601 0.000000 1.742820 0.000000000000000e+00 1229215041
-3.424382 0.089218 1.743727 0.000000000000000e+00 1229215041
-3.427985 0.179393 1.745561 0.000000000000000e+00 1229215041
-3.494698 0.274231 1.779532 0.000000000000000e+00 1229215041
-3.611942 0.378150 1.839234 0.000000000000000e+00 1229215041
-3.671048 0.481754 1.869331 0.000000000000000e+00 1229215041
-3.750284 0.591467 1.909679 0.000000000000000e+00 1229215041
-3.807153 0.701917 1.938637 0.000000000000000e+00 1229215041
-3.405951 -0.446977 1.747297 0.000000000000000e+00 1229215041
-3.446384 -0.361374 1.768040 0.000000000000000e+00 1229215041
-3.449178 -0.271077 1.769474 0.000000000000000e+00 1229215041
-3.438645 -0.180229 1.764070 0.000000000000000e+00 1229215041
-3.432502 -0.089568 1.760918 0.000000000000000e+00 1229215041
-3.429322 0.000000 1.759287 0.000000000000000e+00 1229215041
-3.430967 0.089528 1.760131 0.000000000000000e+00 1229215041
-3.434443 0.180008 1.761914 0.000000000000000e+00 1229215041
-3.504924 0.275458 1.798072 0.000000000000000e+00 1229215041
-3.614648 0.379017 1.854362 0.000000000000000e+00 1229215041
-3.680061 0.483681 1.887920 0.000000000000000e+00 1229215041
-3.751093 0.592507 1.924360 0.000000000000000e+00 1229215041
-3.817671 0.704942 1.958515 0.000000000000000e+00 1229215041
-3.413493 -0.448663 1.764189 0.000000000000000e+00 1229215041
-3.453830 -0.362717 1.785037 0.000000000000000e+00 1229215041
-3.456765 -0.272095 1.786554 0.000000000000000e+00 1229215041
-3.445228 -0.180854 1.780591 0.000000000000000e+00 1229215041
-3.439407 -0.089887 1.777583 0.000000000000000e+00 1229215041
-3.436075 0.000000 1.775861 0.000000000000000e+00 1229215041
-3.437597 0.089840 1.776647 0.000000000000000e+00 1229215041
-3.440934 0.180629 1.778372 0.000000000000000e+00 1229215041
-3.514956 0.276676 1.816628 0.000000000000000e+00 1229215041
-3.623398 0.380525 1.872674 0.000000000000000e+00 1229215041
-3.689152 0.485630 1.906657 0.000000000000000e+00 1229215041
-3.756663 0.594309 1.941549 0.000000000000000e+00 1229215041
-3.848099 0.711664 1.988806 0.000000000000000e+00 1229215041
-3.421093 -0.450366 1.781212 0.000000000000000e+00 1229215041
-3.461233 -0.364064 1.802111 0.000000000000000e+00 1229215041
-3.464417 -0.273125 1.803768 0.000000000000000e+00 1229215041
-3.451854 -0.181486 1.797227 0.000000000000000e+00 1229215041
-3.446237 -0.090207 1.794303 0.000000000000000e+00 1229215041
-3.442873 0.000000 1.792551 0.000000000000000e+00 1229215041
-3.444118 0.090151 1.793200 0.000000000000000e+00 1229215041
-3.447473 0.181255 1.794946 0.000000000000000e+00 1229215041
-3.525083 0.277907 1.835355 0.000000000000000e+00 1229215041
-3.632213 0.382048 1.891133 0.000000000000000e+00 1229215041
-3.711880 0.489387 1.932611 0.000000000000000e+00 1229215041
-3.766232 0.596755 1.960910 0.000000000000000e+00 1229215041
-3.856715 0.714375 2.008021 0.000000000000000e+00 1229215041
-3.428750 -0.452086 1.798363 0.000000000000000e+00 1229215041
-3.468658 -0.365420 1.819295 0.000000000000000e+00 1229215041
-3.472157 -0.274167 1.821130 0.000000000000000e+00 1229215041
-3.458492 -0.182122 1.813963 0.000000000000000e+00 1229215041
-3.453186 -0.090531 1.811180 0.000000000000000e+00 1229215041
-3.449803 0.000000 1.809406 0.000000000000000e+00 1229215041
-3.450570 0.090463 1.809808 0.000000000000000e+00 1229215041
-3.453783 0.181874 1.811493 0.000000000000000e+00 1229215041
-3.535304 0.279153 1.854251 0.000000000000000e+00 1229215041
-3.641105 0.383587 1.909742 0.000000000000000e+00 1229215041
-3.711770 0.490144 1.946806 0.000000000000000e+00 1229215041
-3.776079 0.599260 1.980536 0.000000000000000e+00 1229215041
-3.862518 0.716578 2.025873 0.000000000000000e+00 1229215041
-3.436466 -0.453823 1.815647 0.000000000000000e+00 1229215041
-3.476158 -0.366792 1.836618 0.000000000000000e+00 1229215041
-3.480121 -0.275232 1.838712 0.000000000000000e+00 1229215041
-3.465138 -0.182761 1.830796 0.000000000000000e+00 1229215041
-3.460186 -0.090859 1.828179 0.000000000000000e+00 1229215041
-3.456784 0.000000 1.826382 0.000000000000000e+00 1229215041
-3.457177 0.090780 1.826590 0.000000000000000e+00 1229215041
-3.460115 0.182497 1.828142 0.000000000000000e+00 1229215041
-3.545838 0.280429 1.873433 0.000000000000000e+00 1229215041
-3.650061 0.385142 1.928499 0.000000000000000e+00 1229215041
-3.716843 0.491594 1.963783 0.000000000000000e+00 1229215041
-3.809032 0.605450 2.012491 0.000000000000000e+00 1229215041
-3.863733 0.717942 2.041392 0.000000000000000e+00 1229215041
-3.444248 -0.455579 1.833068 0.000000000000000e+00 1229215041
-3.483806 -0.368188 1.854120 0.000000000000000e+00 1229215041
-3.488146 -0.276308 1.856430 0.000000000000000e+00 1229215041
-3.471831 -0.183408 1.847747 0.000000000000000e+00 1229215041
-3.467165 -0.091188 1.845264 0.000000000000000e+00 1229215041
-3.463815 0.000000 1.843481 0.000000000000000e+00 1229215041
-3.463838 0.091100 1.843493 0.000000000000000e+00 1229215041
-3.466494 0.183126 1.844907 0.000000000000000e+00 1229215041
-3.556538 0.281726 1.892829 0.000000000000000e+00 1229215041
-3.674707 0.388363 1.955720 0.000000000000000e+00 1229215041
-3.726265 0.493629 1.983160 0.000000000000000e+00 1229215041
-3.829329 0.609650 2.038012 0.000000000000000e+00 1229215041
-3.868630 0.720003 2.058928 0.000000000000000e+00 1229215041
-3.452093 -0.457353 1.850625 0.000000000000000e+00 1229215041
-3.491511 -0.369597 1.871756 0.000000000000000e+00 1229215041
-3.496232 -0.277395 1.874287 0.000000000000000e+00 1229215041
-3.478571 -0.184060 1.864819 0.000000000000000e+00 1229215041
-3.474036 -0.091516 1.862388 0.000000000000000e+00 1229215041
-3.470926 0.000000 1.860721 0.000000000000000e+00 1229215041
-3.470560 0.091424 1.860525 0.000000000000000e+00 1229215041
-3.473106 0.183771 1.861889 0.000000000000000e+00 1229215041
-3.567345 0.283037 1.912410 0.000000000000000e+00 1229215041
-3.673007 0.388809 1.969054 0.000000000000000e+00 1229215041
-3.735927 0.495707 2.002784 0.000000000000000e+00 1229215041
-3.840537 0.612420 2.058865 0.000000000000000e+00 1229215041
-3.877815 0.722876 2.078849 0.000000000000000e+00 1229215041
-3.459701 -0.459105 1.868158 0.000000000000000e+00 1229215041
-3.499471 -0.371041 1.889633 0.000000000000000e+00 1229215041
-3.504386 -0.278494 1.892287 0.000000000000000e+00 1229215041
-3.485334 -0.184717 1.881999 0.000000000000000e+00 1229215041
-3.481151 -0.091852 1.879741 0.000000000000000e+00 1229215041
-3.478109 0.000000 1.878098 0.000000000000000e+00 1229215041
-3.477424 0.091754 1.877728 0.000000000000000e+00 1229215041
-3.480180 0.184444 1.879216 0.000000000000000e+00 1229215041
-3.578212 0.284361 1.932152 0.000000000000000e+00 1229215041
-3.677366 0.389903 1.985692 0.000000000000000e+00 1229215041
-3.767913 0.500763 2.034585 0.000000000000000e+00 1229215041
-3.850730 0.615043 2.079305 0.000000000000000e+00 1229215041
-3.467360 -0.460874 1.885821 0.000000000000000e+00 1229215041
-3.507547 -0.372506 1.907677 0.000000000000000e+00 1229215041
-3.531006 -0.281068 1.920436 0.000000000000000e+00 1229215041
-3.491993 -0.185373 1.899218 0.000000000000000e+00 1229215041
-3.488215 -0.092189 1.897163 0.000000000000000e+00 1229215041
-3.485346 0.000000 1.895603 0.000000000000000e+00 1229215041
-3.484389 0.092088 1.895082 0.000000000000000e+00 1229215041
-3.487382 0.185128 1.896710 0.000000000000000e+00 1229215041
-3.602726 0.286777 1.959443 0.000000000000000e+00 1229215041
-3.686662 0.391528 2.005094 0.000000000000000e+00 1229215041
-3.788469 0.504318 2.060465 0.000000000000000e+00 1229215041
-3.860805 0.617661 2.099807 0.000000000000000e+00 1229215041
-3.475071 -0.462660 1.903618 0.000000000000000e+00 1229215041
-3.516369 -0.374058 1.926241 0.000000000000000e+00 1229215041
-3.556080 -0.283530 1.947994 0.000000000000000e+00 1229215041
-3.498701 -0.186035 1.916562 0.000000000000000e+00 1229215041
-3.495183 -0.092525 1.914635 0.000000000000000e+00 1229215041
-3.492650 0.000000 1.913248 0.000000000000000e+00 1229215041
-3.491468 0.092427 1.912600 0.000000000000000e+00 1229215041
-3.494719 0.185823 1.914381 0.000000000000000e+00 1229215041
-3.600955 0.287108 1.972576 0.000000000000000e+00 1229215041
-3.696110 0.393178 2.024701 0.000000000000000e+00 1229215041
-3.799881 0.506671 2.081546 0.000000000000000e+00 1229215041
-3.870810 0.620282 2.120401 0.000000000000000e+00 1229215041
-3.482842 -0.464464 1.921553 0.000000000000000e+00 1229215041
-3.524820 -0.375579 1.944714 0.000000000000000e+00 1229215041
-3.562997 -0.284553 1.965777 0.000000000000000e+00 1229215041
-3.505369 -0.186699 1.933982 0.000000000000000e+00 1229215041
-3.502253 -0.092867 1.932263 0.000000000000000e+00 1229215041
-3.500026 0.000000 1.931034 0.000000000000000e+00 1229215041
-3.498701 0.092772 1.930303 0.000000000000000e+00 1229215041
-3.502431 0.186542 1.932361 0.000000000000000e+00 1229215041
-3.613218 0.288564 1.993484 0.000000000000000e+00 1229215041
-3.727146 0.397137 2.056341 0.000000000000000e+00 1229215041
-3.809978 0.508860 2.102041 0.000000000000000e+00 1229215041
-3.880743 0.622905 2.141083 0.000000000000000e+00 1229215041
-3.490409 -0.466251 1.939483 0.000000000000000e+00 1229215041
-3.533541 -0.377138 1.963450 0.000000000000000e+00 1229215041
-3.581091 -0.286476 1.989872 0.000000000000000e+00 1229215041
-3.512084 -0.187369 1.951527 0.000000000000000e+00 1229215041
-3.509447 -0.093213 1.950061 0.000000000000000e+00 1229215041
-3.507459 0.000000 1.948957 0.000000000000000e+00 1229215041
-3.505968 0.093120 1.948128 0.000000000000000e+00 1229215041
-3.510238 0.187271 1.950501 0.000000000000000e+00 1229215041
-3.625364 0.290018 2.014472 0.000000000000000e+00 1229215041
-3.748016 0.400029 2.082625 0.000000000000000e+00 1229215041
-3.819979 0.511048 2.122612 0.000000000000000e+00 1229215041
-3.890754 0.625556 2.161939 0.000000000000000e+00 1229215041
-3.497336 -0.467963 1.957160 0.000000000000000e+00 1229215041
-3.542580 -0.378739 1.982479 0.000000000000000e+00 1229215041
-3.578023 -0.286713 2.002313 0.000000000000000e+00 1229215041
-3.518870 -0.188047 1.969211 0.000000000000000e+00 1229215041
-3.519454 -0.093636 1.969537 0.000000000000000e+00 1229215041
-3.531041 0.000000 1.976022 0.000000000000000e+00 1229215041
-3.526782 0.093831 1.973638 0.000000000000000e+00 1229215041
-3.526667 0.188464 1.973574 0.000000000000000e+00 1229215041
-3.637847 0.291507 2.035792 0.000000000000000e+00 1229215041
-3.759489 0.401929 2.103864 0.000000000000000e+00 1229215041
-3.830170 0.513274 2.143419 0.000000000000000e+00 1229215041
-3.900762 0.628221 2.182923 0.000000000000000e+00 1229215041
-3.504314 -0.469691 1.974967 0.000000000000000e+00 1229215041
-3.551456 -0.380331 2.001536 0.000000000000000e+00 1229215041
-3.585111 -0.287768 2.020503 0.000000000000000e+00 1229215041
-3.535400 -0.189251 1.992487 0.000000000000000e+00 1229215041
-3.527376 -0.094006 1.987965 0.000000000000000e+00 1229215041
-3.524030 0.000000 1.986079 0.000000000000000e+00 1229215041
-3.521177 0.093841 1.984471 0.000000000000000e+00 1229215041
-3.525120 0.188700 1.986693 0.000000000000000e+00 1229215041
-3.650793 0.293040 2.057520 0.000000000000000e+00 1229215041
-3.769613 0.403694 2.124485 0.000000000000000e+00 1229215041
-3.840321 0.515507 2.164334 0.000000000000000e+00 1229215041
-3.910825 0.630909 2.204069 0.000000000000000e+00 1229215041
-3.511353 -0.471438 1.992912 0.000000000000000e+00 1229215041
-3.566962 -0.382644 2.024473 0.000000000000000e+00 1229215041
-3.592808 -0.288878 2.039143 0.000000000000000e+00 1229215041
-3.532938 -0.189442 2.005163 0.000000000000000e+00 1229215041
-3.529938 -0.094235 2.003460 0.000000000000000e+00 1229215041
-3.527568 0.000000 2.002115 0.000000000000000e+00 1229215041
-3.525005 0.094103 2.000660 0.000000000000000e+00 1229215041
-3.532053 0.189394 2.004661 0.000000000000000e+00 1229215041
-3.664285 0.294625 2.079710 0.000000000000000e+00 1229215041
-3.779876 0.405484 2.145315 0.000000000000000e+00 1229215041
-3.850455 0.517750 2.185374 0.000000000000000e+00 1229215041
-3.920839 0.633604 2.225321 0.000000000000000e+00 1229215041
-3.517709 -0.473104 2.010568 0.000000000000000e+00 1229215041
-3.564878 -0.383078 2.037528 0.000000000000000e+00 1229215041
-3.600610 -0.290003 2.057951 0.000000000000000e+00 1229215041
-3.539110 -0.190099 2.022800 0.000000000000000e+00 1229215041
-3.536135 -0.094562 2.021100 0.000000000000000e+00 1229215041
-3.533345 0.000000 2.019505 0.000000000000000e+00 1229215041
-3.530157 0.094403 2.017683 0.000000000000000e+00 1229215041
-3.539484 0.190119 2.023014 0.000000000000000e+00 1229215041
-3.678010 0.296237 2.102189 0.000000000000000e+00 1229215041
-3.790155 0.407286 2.166287 0.000000000000000e+00 1229215041
-3.860778 0.520030 2.206651 0.000000000000000e+00 1229215041
-3.929967 0.636171 2.246197 0.000000000000000e+00 1229215041
-3.524017 -0.474773 2.028299 0.000000000000000e+00 1229215041
-3.567597 -0.384034 2.053382 0.000000000000000e+00 1229215041
-3.608490 -0.291141 2.076918 0.000000000000000e+00 1229215041
-3.545664 -0.190781 2.040757 0.000000000000000e+00 1229215041
-3.542308 -0.094891 2.038826 0.000000000000000e+00 1229215041
-3.539218 0.000000 2.037048 0.000000000000000e+00 1229215041
-3.535268 0.094703 2.034774 0.000000000000000e+00 1229215041
-3.547524 0.190881 2.041828 0.000000000000000e+00 1229215041
-3.691448 0.297834 2.124666 0.000000000000000e+00 1229215041
-3.800480 0.409102 2.187421 0.000000000000000e+00 1229215041
-3.870992 0.522309 2.228005 0.000000000000000e+00 1229215041
-3.937712 0.638529 2.266407 0.000000000000000e+00 1229215041
-3.530370 -0.476458 2.046154 0.000000000000000e+00 1229215041
-3.571480 -0.385122 2.069981 0.000000000000000e+00 1229215041
-3.616300 -0.292280 2.095958 0.000000000000000e+00 1229215041
-3.552364 -0.191474 2.058902 0.000000000000000e+00 1229215041
-3.548650 -0.095227 2.056749 0.000000000000000e+00 1229215041
-3.545200 0.000000 2.054750 0.000000000000000e+00 1229215041
