# .PCD v0.7 - Point Cloud Data file format
VERSION 0.7
FIELDS x y z rgb label
SIZE 4 4 4 4 4
TYPE F F F F U
COUNT 1 1 1 1 1
WIDTH 774
HEIGHT 1
VIEWPOINT 0 0 0 1 0 0 0
POINTS 774
DATA ascii
3.405041 -0.571634 -11.775452 0.000000000000000e+00 1851878480
3.392522 -0.283545 -11.732161 0.000000000000000e+00 1851878480
3.450231 0.000000 -11.931729 0.000000000000000e+00 1851878480
3.741649 -1.269904 -13.087299 0.000000000000000e+00 1701537140
3.364059 -0.855767 -11.766590 0.000000000000000e+00 1851878480
3.323845 -0.563887 -11.625933 0.000000000000000e+00 1851878480
3.308012 -0.279397 -11.570553 0.000000000000000e+00 1851878480
3.355127 0.000000 -11.735346 0.000000000000000e+00 1851878480
3.672667 0.310196 -12.846018 0.000000000000000e+00 1851878480
3.702083 -1.269878 -13.098250 0.000000000000000e+00 1701537140
3.283881 -0.844281 -11.618620 0.000000000000000e+00 1851878480
3.237732 -0.555137 -11.455341 0.000000000000000e+00 1851878480
3.263085 -0.278542 -11.545039 0.000000000000000e+00 1851878480
3.319185 0.000000 -11.743526 0.000000000000000e+00 1851878480
3.562082 0.304065 -12.602914 0.000000000000000e+00 1851878480
3.665734 -1.270977 -13.120708 0.000000000000000e+00 1701537140
3.192664 -0.829686 -11.427454 0.000000000000000e+00 1851878480
3.195489 -0.553806 -11.437568 0.000000000000000e+00 1851878480
3.236596 -0.279262 -11.584700 0.000000000000000e+00 1851878480
3.245438 0.000000 -11.616349 0.000000000000000e+00 1851878480
3.481596 0.300402 -12.461623 0.000000000000000e+00 1851878480
3.631443 -1.272833 -13.150875 0.000000000000000e+00 1701537140
3.127194 -0.821544 -11.324793 0.000000000000000e+00 1851878480
3.172774 -0.555872 -11.489858 0.000000000000000e+00 1851878480
3.213218 -0.280272 -11.636321 0.000000000000000e+00 1851878480
3.155388 0.000000 -11.426896 0.000000000000000e+00 1851878480
3.385288 0.295281 -12.259454 0.000000000000000e+00 1851878480
3.096351 -1.097271 -11.346363 0.000000000000000e+00 1851878480
3.106571 -0.825142 -11.383816 0.000000000000000e+00 1851878480
3.144427 -0.556991 -11.522535 0.000000000000000e+00 1851878480
3.182562 -0.280665 -11.662280 0.000000000000000e+00 1851878480
3.070198 0.000000 -11.250528 0.000000000000000e+00 1851878480
3.287852 0.289950 -12.048106 0.000000000000000e+00 1851878480
3.012925 -1.079644 -11.173231 0.000000000000000e+00 1851878480
3.071667 -0.824993 -11.391068 0.000000000000000e+00 1851878480
3.120402 -0.558915 -11.571801 0.000000000000000e+00 1851878480
3.050051 -0.271986 -11.310908 0.000000000000000e+00 1851878480
2.989369 0.000000 -11.085872 0.000000000000000e+00 1851878480
3.179955 0.283570 -11.792648 0.000000000000000e+00 1851878480
2.936857 -1.064294 -11.023284 0.000000000000000e+00 1851878480
3.041677 -0.826182 -11.416717 0.000000000000000e+00 1851878480
3.006633 -0.544631 -11.285184 0.000000000000000e+00 1851878480
2.964009 -0.267304 -11.125198 0.000000000000000e+00 1851878480
2.913018 0.000000 -10.933806 0.000000000000000e+00 1851878480
3.054253 0.275443 -11.463922 0.000000000000000e+00 1851878480
2.859806 -1.048242 -10.865698 0.000000000000000e+00 1851878480
2.965774 -0.814792 -11.268317 0.000000000000000e+00 1851878480
2.915730 -0.534214 -11.078180 0.000000000000000e+00 1851878480
2.876766 -0.262408 -10.930135 0.000000000000000e+00 1851878480
2.831187 0.000000 -10.756962 0.000000000000000e+00 1851878480
2.936709 0.267876 -11.157887 0.000000000000000e+00 1851878480
2.585004 0.473619 -9.821601 0.000000000000000e+00 1768716611
2.782412 -1.031701 -10.702679 0.000000000000000e+00 1851878480
2.885489 -0.801929 -11.099171 0.000000000000000e+00 1851878480
2.826622 -0.523894 -10.872735 0.000000000000000e+00 1851878480
2.791370 -0.257571 -10.737133 0.000000000000000e+00 1851878480
2.756693 0.000000 -10.603747 0.000000000000000e+00 1851878480
2.843162 0.262350 -10.936354 0.000000000000000e+00 1851878480
2.542459 0.471226 -9.779688 0.000000000000000e+00 1768716611
2.713312 -1.017892 -10.567662 0.000000000000000e+00 1851878480
2.803771 -0.788367 -10.919978 0.000000000000000e+00 1851878480
2.746039 -0.514935 -10.695127 0.000000000000000e+00 1851878480
2.709183 -0.252923 -10.551579 0.000000000000000e+00 1851878480
2.683299 0.000000 -10.450769 0.000000000000000e+00 1851878480
2.758989 0.257572 -10.745561 0.000000000000000e+00 1851878480
2.504367 0.469617 -9.753876 0.000000000000000e+00 1768716611
2.636712 -1.000918 -10.399433 0.000000000000000e+00 1851878480
2.716189 -0.772822 -10.712898 0.000000000000000e+00 1851878480
2.671171 -0.506852 -10.535345 0.000000000000000e+00 1851878480
2.635245 -0.248945 -10.393650 0.000000000000000e+00 1851878480
2.609676 0.000000 -10.292803 0.000000000000000e+00 1851878480
2.677639 0.252950 -10.560855 0.000000000000000e+00 1851878480
2.468313 0.468359 -9.735252 0.000000000000000e+00 1768716611
2.578743 -0.990701 -10.301102 0.000000000000000e+00 1851878480
2.640415 -0.760310 -10.547459 0.000000000000000e+00 1851878480
2.598938 -0.499084 -10.381774 0.000000000000000e+00 1851878480
2.564462 -0.245176 -10.244056 0.000000000000000e+00 1851878480
2.548670 0.000000 -10.180970 0.000000000000000e+00 1851878480
2.603614 0.248919 -10.400453 0.000000000000000e+00 1851878480
2.437848 0.468149 -9.738281 0.000000000000000e+00 1768716611
2.513131 -0.977273 -10.169104 0.000000000000000e+00 1851878480
2.568373 -0.748587 -10.392632 0.000000000000000e+00 1851878480
2.525115 -0.490823 -10.217597 0.000000000000000e+00 1851878480
2.495076 -0.241452 -10.096046 0.000000000000000e+00 1851878480
2.479233 0.000000 -10.031937 0.000000000000000e+00 1851878480
2.527483 0.244588 -10.227175 0.000000000000000e+00 1851878480
2.408070 0.468072 -9.743987 0.000000000000000e+00 1768716611
2.454367 -0.966217 -10.061511 0.000000000000000e+00 1851878480
2.500822 -0.737907 -10.251951 0.000000000000000e+00 1851878480
2.459277 -0.483934 -10.081642 0.000000000000000e+00 1851878480
2.431732 -0.238231 -9.968721 0.000000000000000e+00 1851878480
2.422901 0.000000 -9.932521 0.000000000000000e+00 1851878480
2.463411 0.241334 -10.098586 0.000000000000000e+00 1851878480
2.369956 0.466357 -9.715477 0.000000000000000e+00 1768716611
2.399465 -0.956432 -9.966901 0.000000000000000e+00 1851878480
2.432707 -0.726797 -10.104982 0.000000000000000e+00 1851878480
2.398599 -0.477904 -9.963305 0.000000000000000e+00 1851878480
2.375670 -0.235653 -9.868064 0.000000000000000e+00 1851878480
2.370251 0.000000 -9.845551 0.000000000000000e+00 1851878480
2.397340 0.237803 -9.958073 0.000000000000000e+00 1851878480
2.345725 0.467369 -9.743677 0.000000000000000e+00 1768716611
2.340210 -0.944652 -9.851241 0.000000000000000e+00 1851878480
2.372136 -0.717696 -9.985638 0.000000000000000e+00 1851878480
2.339930 -0.472132 -9.850062 0.000000000000000e+00 1851878480
2.323207 -0.233374 -9.779667 0.000000000000000e+00 1851878480
2.316121 0.000000 -9.749838 0.000000000000000e+00 1851878480
2.335750 0.234634 -9.832469 0.000000000000000e+00 1851878480
2.312716 0.466641 -9.735504 0.000000000000000e+00 1768716611
2.282376 -0.933158 -9.738309 0.000000000000000e+00 1851878480
2.309444 -0.707716 -9.853802 0.000000000000000e+00 1851878480
2.279469 -0.465849 -9.725904 0.000000000000000e+00 1851878480
2.259131 -0.229856 -9.639127 0.000000000000000e+00 1851878480
2.256897 0.000000 -9.629597 0.000000000000000e+00 1851878480
2.280577 0.232038 -9.730632 0.000000000000000e+00 1851878480
2.280476 0.466054 -9.730201 0.000000000000000e+00 1768716611
2.230765 -0.923951 -9.648994 0.000000000000000e+00 1851878480
2.249546 -0.698351 -9.730229 0.000000000000000e+00 1851878480
2.211787 -0.457911 -9.566906 0.000000000000000e+00 1851878480
2.199440 -0.226701 -9.513497 0.000000000000000e+00 1851878480
2.200316 0.000000 -9.517290 0.000000000000000e+00 1851878480
2.223193 0.229150 -9.616241 0.000000000000000e+00 1851878480
2.247760 0.465359 -9.722505 0.000000000000000e+00 1768716611
2.178947 -0.914421 -9.556086 0.000000000000000e+00 1851878480
2.057898 -0.647302 -9.025205 0.000000000000000e+00 1701537140
2.100485 -0.440618 -9.211977 0.000000000000000e+00 1851878480
2.124669 -0.221890 -9.318040 0.000000000000000e+00 1851878480
2.134476 0.000000 -9.361052 0.000000000000000e+00 1851878480
2.163179 0.225912 -9.486931 0.000000000000000e+00 1851878480
2.220898 0.465877 -9.740067 0.000000000000000e+00 1768716611
2.704523 0.850695 -11.861071 0.000000000000000e+00 1851878480
2.011718 -0.855561 -8.947088 0.000000000000000e+00 1701537140
2.026888 -0.646097 -9.014555 0.000000000000000e+00 1701537140
2.018088 -0.429010 -8.975419 0.000000000000000e+00 1701537140
2.038699 -0.215767 -9.067085 0.000000000000000e+00 1851878480
2.060142 0.000000 -9.162453 0.000000000000000e+00 1851878480
2.109344 0.223243 -9.381282 0.000000000000000e+00 1851878480
2.190296 0.465619 -9.741314 0.000000000000000e+00 1768716611
2.615751 0.833804 -11.633514 0.000000000000000e+00 1851878480
2.008941 -0.866000 -9.062355 0.000000000000000e+00 1701537140
1.999011 -0.645877 -9.017561 0.000000000000000e+00 1701537140
2.018632 -0.434962 -9.106072 0.000000000000000e+00 1701537140
1.962178 -0.210492 -8.851410 0.000000000000000e+00 1701537140
1.979941 0.000000 -8.931537 0.000000000000000e+00 1851878480
2.063148 0.221324 -9.306884 0.000000000000000e+00 1851878480
2.161299 0.465703 -9.749647 0.000000000000000e+00 1768716611
2.529130 0.817158 -11.408933 0.000000000000000e+00 1851878480
1.913586 -1.046655 -8.757114 0.000000000000000e+00 1701537140
1.909313 -0.834409 -8.737556 0.000000000000000e+00 1701537140
1.962567 -0.642851 -8.981264 0.000000000000000e+00 1701537140
1.926867 -0.420917 -8.817890 0.000000000000000e+00 1701537140
1.969154 -0.214155 -9.011408 0.000000000000000e+00 1701537140
1.956561 0.000000 -8.953780 0.000000000000000e+00 1851878480
2.008610 0.218446 -9.191967 0.000000000000000e+00 1851878480
2.133380 0.466029 -9.762952 0.000000000000000e+00 1768716611
2.449161 0.802237 -11.208055 0.000000000000000e+00 1851878480
1.880285 -1.042839 -8.730892 0.000000000000000e+00 1701537140
1.872068 -0.829586 -8.692739 0.000000000000000e+00 1701537140
1.938267 -0.643779 -9.000124 0.000000000000000e+00 1701537140
1.908149 -0.422664 -8.860276 0.000000000000000e+00 1701537140
1.899905 -0.209517 -8.821998 0.000000000000000e+00 1701537140
1.861143 0.000000 -8.642009 0.000000000000000e+00 1701537140
1.940204 0.213961 -9.009122 0.000000000000000e+00 1851878480
2.237844 0.495693 -10.391181 0.000000000000000e+00 1851878480
2.370147 0.787225 -11.005513 0.000000000000000e+00 1851878480
1.846172 -1.038467 -8.699901 0.000000000000000e+00 1701537140
1.846171 -0.829733 -8.699896 0.000000000000000e+00 1701537140
1.914971 -0.645078 -9.024106 0.000000000000000e+00 1701537140
1.878610 -0.422033 -8.852760 0.000000000000000e+00 1701537140
1.818122 -0.203347 -8.567718 0.000000000000000e+00 1701537140
1.819595 0.000000 -8.574656 0.000000000000000e+00 1701537140
1.812184 0.202682 -8.539737 0.000000000000000e+00 1851878480
2.178032 0.489299 -10.263755 0.000000000000000e+00 1851878480
2.298300 0.774207 -10.830504 0.000000000000000e+00 1851878480
1.816607 -1.036574 -8.689559 0.000000000000000e+00 1701537140
1.826579 -0.832767 -8.737256 0.000000000000000e+00 1701537140
1.797698 -0.614308 -8.599107 0.000000000000000e+00 1701537140
1.887338 -0.430109 -9.027889 0.000000000000000e+00 1701537140
1.780822 -0.202047 -8.518385 0.000000000000000e+00 1701537140
1.775039 0.000000 -8.490719 0.000000000000000e+00 1701537140
1.767368 0.200521 -8.454026 0.000000000000000e+00 1851878480
2.127694 0.484884 -10.177610 0.000000000000000e+00 1851878480
2.232346 0.762835 -10.678205 0.000000000000000e+00 1851878480
1.795582 -1.039578 -8.720196 0.000000000000000e+00 1701537140
1.744649 -0.807060 -8.472841 0.000000000000000e+00 1701537140
1.751391 -0.607246 -8.505585 0.000000000000000e+00 1701537140
1.758172 -0.406539 -8.538517 0.000000000000000e+00 1701537140
1.751106 -0.201585 -8.504198 0.000000000000000e+00 1701537140
1.724173 0.000000 -8.373399 0.000000000000000e+00 1701537140
1.721196 0.198141 -8.358941 0.000000000000000e+00 1851878480
2.069053 0.478424 -10.048299 0.000000000000000e+00 1851878480
2.168195 0.751761 -10.529780 0.000000000000000e+00 1851878480
1.713197 -1.006629 -8.449015 0.000000000000000e+00 1701537140
1.702153 -0.799110 -8.394549 0.000000000000000e+00 1701537140
1.711195 -0.602132 -8.439142 0.000000000000000e+00 1701537140
1.706370 -0.400428 -8.415349 0.000000000000000e+00 1701537140
1.725941 -0.201642 -8.511864 0.000000000000000e+00 1701537140
1.679795 0.000000 -8.284286 0.000000000000000e+00 1701537140
1.675906 0.195797 -8.265107 0.000000000000000e+00 1851878480
2.003790 0.470223 -9.882143 0.000000000000000e+00 1851878480
2.104405 0.740494 -10.378346 0.000000000000000e+00 1851878480
1.642203 -0.979488 -8.226202 0.000000000000000e+00 1701537140
1.678237 -0.799782 -8.406708 0.000000000000000e+00 1701537140
1.663496 -0.594188 -8.332868 0.000000000000000e+00 1701537140
1.666761 -0.397041 -8.349220 0.000000000000000e+00 1701537140
1.648278 -0.195477 -8.256636 0.000000000000000e+00 1701537140
1.643977 0.000000 -8.235091 0.000000000000000e+00 1701537140
1.634776 0.193876 -8.189000 0.000000000000000e+00 1851878480
1.959151 0.466691 -9.813873 0.000000000000000e+00 1851878480
2.042380 0.729523 -10.230791 0.000000000000000e+00 1851878480
1.610502 -0.975319 -8.196085 0.000000000000000e+00 1701537140
1.653319 -0.799997 -8.413989 0.000000000000000e+00 1701537140
1.609270 -0.583639 -8.189816 0.000000000000000e+00 1701537140
1.641847 -0.397107 -8.355611 0.000000000000000e+00 1701537140
1.618937 -0.194943 -8.239014 0.000000000000000e+00 1701537140
1.614190 0.000000 -8.214859 0.000000000000000e+00 1701537140
1.604306 0.193182 -8.164557 0.000000000000000e+00 1851878480
1.918505 0.464021 -9.763563 0.000000000000000e+00 1851878480
1.981589 0.718669 -10.084606 0.000000000000000e+00 1851878480
2.175746 1.052786 -11.072702 0.000000000000000e+00 1851878480
1.580511 -0.972081 -8.173675 0.000000000000000e+00 1701537140
1.556777 -0.765028 -8.050930 0.000000000000000e+00 1701537140
1.576251 -0.580577 -8.151640 0.000000000000000e+00 1701537140
1.618500 -0.397564 -8.370137 0.000000000000000e+00 1701537140
1.556533 -0.190351 -8.049667 0.000000000000000e+00 1701537140
1.581728 0.000000 -8.179965 0.000000000000000e+00 1701537140
1.574410 0.192538 -8.142119 0.000000000000000e+00 1851878480
1.846757 0.453632 -9.550577 0.000000000000000e+00 1851878480
1.918249 0.706544 -9.920296 0.000000000000000e+00 1851878480
2.103448 1.033672 -10.878063 0.000000000000000e+00 1851878480
1.552108 -0.969741 -8.158720 0.000000000000000e+00 1701537140
1.535008 -0.766286 -8.068835 0.000000000000000e+00 1701537140
1.519896 -0.568693 -7.989396 0.000000000000000e+00 1701537140
1.519653 -0.379200 -7.988123 0.000000000000000e+00 1701537140
1.525991 -0.189574 -8.021437 0.000000000000000e+00 1701537140
1.524230 0.000000 -8.012178 0.000000000000000e+00 1851878480
1.541424 0.191491 -8.102560 0.000000000000000e+00 1851878480
1.796315 0.448235 -9.442407 0.000000000000000e+00 1851878480
1.879210 0.703136 -9.878149 0.000000000000000e+00 1851878480
2.041253 1.019006 -10.729931 0.000000000000000e+00 1851878480
1.530777 -0.971825 -8.180907 0.000000000000000e+00 1701537140
1.501350 -0.761560 -8.023642 0.000000000000000e+00 1701537140
1.494224 -0.568096 -7.985559 0.000000000000000e+00 1701537140
1.493342 -0.378639 -7.980845 0.000000000000000e+00 1701537140
1.498000 -0.189096 -8.005741 0.000000000000000e+00 1701537140
1.492520 0.000000 -7.976453 0.000000000000000e+00 1851878480
1.509009 0.190485 -8.064573 0.000000000000000e+00 1851878480
1.620136 0.410787 -8.658471 0.000000000000000e+00 1851878480
1.841736 0.700218 -9.842763 0.000000000000000e+00 1851878480
1.989805 1.009329 -10.634086 0.000000000000000e+00 1851878480
1.503761 -0.970317 -8.172786 0.000000000000000e+00 1701537140
1.478152 -0.762079 -8.033602 0.000000000000000e+00 1701537140
1.465644 -0.566361 -7.965622 0.000000000000000e+00 1701537140
1.463291 -0.377099 -7.952836 0.000000000000000e+00 1701537140
1.450779 -0.186136 -7.884834 0.000000000000000e+00 1851878480
1.462840 0.000000 -7.950382 0.000000000000000e+00 1851878480
1.480304 0.189924 -8.045297 0.000000000000000e+00 1851878480
1.583118 0.407979 -8.604080 0.000000000000000e+00 1851878480
1.803751 0.697014 -9.803198 0.000000000000000e+00 1851878480
1.942785 1.001626 -10.558835 0.000000000000000e+00 1851878480
1.479148 -0.970345 -8.177519 0.000000000000000e+00 1701537140
1.453979 -0.762112 -8.038372 0.000000000000000e+00 1701537140
1.445906 -0.568047 -7.993739 0.000000000000000e+00 1701537140
1.439690 -0.377201 -7.959374 0.000000000000000e+00 1701537140
1.422716 -0.185578 -7.865534 0.000000000000000e+00 1851878480
1.431657 0.000000 -7.914964 0.000000000000000e+00 1851878480
1.445793 0.188588 -7.993117 0.000000000000000e+00 1851878480
1.548552 0.405723 -8.561221 0.000000000000000e+00 1851878480
1.772595 0.696392 -9.799850 0.000000000000000e+00 1851878480
1.898610 0.995168 -10.496527 0.000000000000000e+00 1851878480
1.456918 -0.971973 -8.195670 0.000000000000000e+00 1701537140
1.430604 -0.762579 -8.047645 0.000000000000000e+00 1701537140
1.397395 -0.558301 -7.860831 0.000000000000000e+00 1851878480
1.391286 -0.370702 -7.826468 0.000000000000000e+00 1851878480
1.393028 -0.184787 -7.836267 0.000000000000000e+00 1851878480
1.405083 0.000000 -7.904079 0.000000000000000e+00 1851878480
1.418579 0.188177 -7.980002 0.000000000000000e+00 1851878480
1.513825 0.403352 -8.515790 0.000000000000000e+00 1851878480
1.740397 0.695340 -9.790339 0.000000000000000e+00 1851878480
1.858893 0.990877 -10.456920 0.000000000000000e+00 1851878480
1.432506 -0.972185 -8.201819 0.000000000000000e+00 1701537140
1.404971 -0.761844 -8.044168 0.000000000000000e+00 1701537140
1.369389 -0.556557 -7.840442 0.000000000000000e+00 1851878480
1.364373 -0.369807 -7.811720 0.000000000000000e+00 1851878480
1.361189 -0.183681 -7.793491 0.000000000000000e+00 1851878480
1.376632 0.000000 -7.881909 0.000000000000000e+00 1851878480
1.389176 0.187458 -7.953732 0.000000000000000e+00 1851878480
1.483312 0.402045 -8.492708 0.000000000000000e+00 1851878480
1.706642 0.693625 -9.771385 0.000000000000000e+00 1851878480
1.824103 0.989118 -10.443906 0.000000000000000e+00 1851878480
1.408520 -0.972707 -8.210504 0.000000000000000e+00 1701537140
1.356438 -0.748454 -7.906908 0.000000000000000e+00 1851878480
1.342092 -0.555049 -7.823281 0.000000000000000e+00 1851878480
1.335672 -0.368390 -7.785858 0.000000000000000e+00 1851878480
1.337809 -0.183699 -7.798317 0.000000000000000e+00 1851878480
1.346670 0.000000 -7.849967 0.000000000000000e+00 1851878480
1.359248 0.186643 -7.923288 0.000000000000000e+00 1851878480
1.457344 0.401948 -8.495105 0.000000000000000e+00 1851878480
1.674279 0.692431 -9.759653 0.000000000000000e+00 1851878480
1.792578 0.989107 -10.449243 0.000000000000000e+00 1851878480
1.384309 -0.973099 -8.218029 0.000000000000000e+00 1701537140
1.325498 -0.744474 -7.868893 0.000000000000000e+00 1851878480
1.313685 -0.553025 -7.798762 0.000000000000000e+00 1851878480
1.310762 -0.367991 -7.781409 0.000000000000000e+00 1851878480
1.308779 -0.182929 -7.769641 0.000000000000000e+00 1851878480
1.319575 0.000000 -7.833731 0.000000000000000e+00 1851878480
1.326885 0.185460 -7.877127 0.000000000000000e+00 1851878480
1.426960 0.400613 -8.471224 0.000000000000000e+00 1851878480
1.643414 0.691832 -9.756216 0.000000000000000e+00 1851878480
1.756899 0.986772 -10.429925 0.000000000000000e+00 1851878480
1.359759 -0.973272 -8.223628 0.000000000000000e+00 1701537140
1.296121 -0.741249 -7.838756 0.000000000000000e+00 1851878480
1.288080 -0.552135 -7.790124 0.000000000000000e+00 1851878480
1.281449 -0.366322 -7.750019 0.000000000000000e+00 1851878480
1.276075 -0.181611 -7.717516 0.000000000000000e+00 1851878480
1.294049 0.000000 -7.826221 0.000000000000000e+00 1851878480
1.297861 0.184711 -7.849275 0.000000000000000e+00 1851878480
1.399475 0.400061 -8.463821 0.000000000000000e+00 1851878480
1.609448 0.689889 -9.733707 0.000000000000000e+00 1851878480
1.725958 0.987071 -10.438342 0.000000000000000e+00 1851878480
1.339489 -0.976579 -8.255648 0.000000000000000e+00 1701537140
1.270093 -0.739861 -7.827946 0.000000000000000e+00 1851878480
1.260463 -0.550337 -7.768594 0.000000000000000e+00 1851878480
1.254940 -0.365410 -7.734550 0.000000000000000e+00 1851878480
1.256772 -0.182187 -7.745841 0.000000000000000e+00 1851878480
1.264633 0.000000 -7.794292 0.000000000000000e+00 1851878480
1.266329 0.183573 -7.804747 0.000000000000000e+00 1851878480
1.372892 0.399755 -8.461523 0.000000000000000e+00 1851878480
1.578472 0.689184 -9.728571 0.000000000000000e+00 1851878480
1.692712 0.986047 -10.432663 0.000000000000000e+00 1851878480
1.312656 -0.975147 -8.247540 0.000000000000000e+00 1701537140
1.246625 -0.739948 -7.832662 0.000000000000000e+00 1851878480
1.232884 -0.548494 -7.746325 0.000000000000000e+00 1851878480
1.228324 -0.364436 -7.717672 0.000000000000000e+00 1851878480
1.226094 -0.181107 -7.703659 0.000000000000000e+00 1851878480
1.236614 0.000000 -7.769758 0.000000000000000e+00 1851878480
1.239935 0.183152 -7.790624 0.000000000000000e+00 1851878480
1.347358 0.399753 -8.465577 0.000000000000000e+00 1851878480
1.545645 0.687636 -9.711430 0.000000000000000e+00 1851878480
1.662452 0.986767 -10.445340 0.000000000000000e+00 1851878480
1.292904 -0.979031 -8.284324 0.000000000000000e+00 1701537140
1.214744 -0.734955 -7.783508 0.000000000000000e+00 1851878480
1.203409 -0.545724 -7.710879 0.000000000000000e+00 1851878480
1.201883 -0.363481 -7.701100 0.000000000000000e+00 1851878480
1.203833 -0.181255 -7.713592 0.000000000000000e+00 1851878480
1.207752 0.000000 -7.738705 0.000000000000000e+00 1851878480
1.214136 0.182806 -7.779612 0.000000000000000e+00 1851878480
1.316701 0.398205 -8.436800 0.000000000000000e+00 1851878480
1.516708 0.687800 -9.718355 0.000000000000000e+00 1851878480
1.628975 0.985577 -10.437705 0.000000000000000e+00 1851878480
1.267951 -0.979060 -8.288433 0.000000000000000e+00 1701537140
1.191404 -0.735042 -7.788056 0.000000000000000e+00 1851878480
1.177044 -0.544289 -7.694187 0.000000000000000e+00 1851878480
1.175024 -0.362362 -7.680982 0.000000000000000e+00 1851878480
1.175664 -0.180503 -7.685163 0.000000000000000e+00 1851878480
1.177918 0.000000 -7.699899 0.000000000000000e+00 1851878480
1.187202 0.182274 -7.760590 0.000000000000000e+00 1851878480
1.289226 0.397581 -8.427505 0.000000000000000e+00 1851878480
1.486711 0.687485 -9.718441 0.000000000000000e+00 1851878480
1.596542 0.984993 -10.436388 0.000000000000000e+00 1851878480
1.244894 -0.980592 -8.305191 0.000000000000000e+00 1701537140
1.166153 -0.733935 -7.779877 0.000000000000000e+00 1851878480
1.150940 -0.542923 -7.678384 0.000000000000000e+00 1851878480
1.146241 -0.360596 -7.647039 0.000000000000000e+00 1851878480
1.146510 -0.179567 -7.648831 0.000000000000000e+00 1851878480
1.154219 0.000000 -7.700265 0.000000000000000e+00 1851878480
1.160773 0.181801 -7.743990 0.000000000000000e+00 1851878480
1.266604 0.398461 -8.450028 0.000000000000000e+00 1851878480
1.456217 0.686929 -9.715014 0.000000000000000e+00 1851878480
1.561393 0.982685 -10.416688 0.000000000000000e+00 1851878480
1.224089 -0.984008 -8.337853 0.000000000000000e+00 1701537140
1.132987 -0.727707 -7.717312 0.000000000000000e+00 1851878480
1.124447 -0.541321 -7.659147 0.000000000000000e+00 1851878480
1.121747 -0.360139 -7.640749 0.000000000000000e+00 1851878480
1.122175 -0.179366 -7.643670 0.000000000000000e+00 1851878480
1.130355 0.000000 -7.699384 0.000000000000000e+00 1851878480
1.135721 0.181531 -7.735937 0.000000000000000e+00 1851878480
1.242136 0.398790 -8.460778 0.000000000000000e+00 1851878480
1.428357 0.687626 -9.729222 0.000000000000000e+00 1851878480
1.530435 0.982984 -10.424520 0.000000000000000e+00 1851878480
1.199177 -0.984205 -8.343177 0.000000000000000e+00 1701537140
1.108727 -0.727065 -7.713883 0.000000000000000e+00 1851878480
1.099156 -0.540246 -7.647293 0.000000000000000e+00 1851878480
1.098142 -0.359957 -7.640238 0.000000000000000e+00 1851878480
1.093958 -0.178524 -7.611124 0.000000000000000e+00 1851878480
1.103525 0.000000 -7.677685 0.000000000000000e+00 1700951363
1.109103 0.180995 -7.716497 0.000000000000000e+00 1851878480
1.217253 0.399000 -8.468940 0.000000000000000e+00 1851878480
1.395861 0.686080 -9.711594 0.000000000000000e+00 1851878480
1.498497 0.982662 -10.425673 0.000000000000000e+00 1851878480
1.174593 -0.984695 -8.350912 0.000000000000000e+00 1701537140
1.080631 -0.723832 -7.682880 0.000000000000000e+00 1851878480
1.070959 -0.537672 -7.614117 0.000000000000000e+00 1851878480
1.071175 -0.358644 -7.615649 0.000000000000000e+00 1851878480
1.069960 -0.178351 -7.607013 0.000000000000000e+00 1851878480
1.081214 0.000000 -7.687024 0.000000000000000e+00 1700951363
1.085144 0.180882 -7.714966 0.000000000000000e+00 1851878480
1.190502 0.398597 -8.464017 0.000000000000000e+00 1851878480
1.364327 0.684956 -9.699849 0.000000000000000e+00 1851878480
1.467692 0.983095 -10.434739 0.000000000000000e+00 1851878480
1.053733 -0.721283 -7.659036 0.000000000000000e+00 1851878480
1.046679 -0.536998 -7.607766 0.000000000000000e+00 1851878480
1.046986 -0.358228 -7.610001 0.000000000000000e+00 1851878480
1.048920 -0.178675 -7.624056 0.000000000000000e+00 1851878480
1.052262 0.000000 -7.648350 0.000000000000000e+00 1700951363
1.058892 0.180374 -7.696537 0.000000000000000e+00 1851878480
1.172244 0.401085 -8.520434 0.000000000000000e+00 1851878480
1.334121 0.684470 -9.697036 0.000000000000000e+00 1851878480
1.437310 0.983843 -10.447057 0.000000000000000e+00 1851878480
1.029674 -0.720616 -7.655087 0.000000000000000e+00 1851878480
1.018025 -0.534006 -7.568476 0.000000000000000e+00 1851878480
1.018427 -0.356268 -7.571468 0.000000000000000e+00 1851878480
1.041893 -0.181457 -7.745928 0.000000000000000e+00 1851878480
1.026190 0.000000 -7.629182 0.000000000000000e+00 1700951363
1.033697 0.180030 -7.684995 0.000000000000000e+00 1851878480
1.144355 0.400321 -8.507680 0.000000000000000e+00 1851878480
1.303063 0.683523 -9.687589 0.000000000000000e+00 1851878480
1.401956 0.981156 -10.422804 0.000000000000000e+00 1851878480
1.002045 -0.717367 -7.623639 0.000000000000000e+00 1851878480
0.992439 -0.532528 -7.550557 0.000000000000000e+00 1851878480
0.997390 -0.356913 -7.588226 0.000000000000000e+00 1851878480
1.018743 -0.181496 -7.750677 0.000000000000000e+00 1851878480
1.002700 0.000000 -7.628620 0.000000000000000e+00 1700951363
1.009882 0.179917 -7.683262 0.000000000000000e+00 1851878480
1.120800 0.401075 -8.527135 0.000000000000000e+00 1851878480
1.274469 0.683861 -9.696264 0.000000000000000e+00 1851878480
1.372844 0.982824 -10.444711 0.000000000000000e+00 1851878480
0.975855 -0.715027 -7.601747 0.000000000000000e+00 1851878480
0.970628 -0.533057 -7.561028 0.000000000000000e+00 1851878480
0.975007 -0.357099 -7.595137 0.000000000000000e+00 1851878480
0.995465 -0.181514 -7.754504 0.000000000000000e+00 1851878480
0.977767 0.000000 -7.616635 0.000000000000000e+00 1700951363
0.984946 0.179596 -7.672564 0.000000000000000e+00 1851878480
1.092004 0.399949 -8.506524 0.000000000000000e+00 1851878480
1.247831 0.685293 -9.720387 0.000000000000000e+00 1851878480
1.338747 0.980925 -10.428613 0.000000000000000e+00 1851878480
0.950838 -0.713462 -7.588003 0.000000000000000e+00 1851878480
0.944317 -0.531087 -7.535968 0.000000000000000e+00 1851878480
0.951430 -0.356849 -7.592731 0.000000000000000e+00 1851878480
0.972181 -0.181534 -7.758335 0.000000000000000e+00 1851878480
0.953054 0.000000 -7.605690 0.000000000000000e+00 1700951363
0.958264 0.178935 -7.647265 0.000000000000000e+00 1851878480
1.064310 0.399186 -8.493554 0.000000000000000e+00 1851878480
1.216709 0.684281 -9.709746 0.000000000000000e+00 1851878480
1.309887 0.982874 -10.453336 0.000000000000000e+00 1851878480
0.925814 -0.711821 -7.573380 0.000000000000000e+00 1851878480
0.920094 -0.530229 -7.526593 0.000000000000000e+00 1851878480
0.926874 -0.356214 -7.582049 0.000000000000000e+00 1851878480
0.944430 -0.180702 -7.725666 0.000000000000000e+00 1851878480
0.926719 0.000000 -7.580785 0.000000000000000e+00 1700951363
0.936413 0.179168 -7.660084 0.000000000000000e+00 1851878480
1.038670 0.399179 -8.496572 0.000000000000000e+00 1851878480
1.187024 0.684054 -9.710145 0.000000000000000e+00 1851878480
1.278892 0.983288 -10.461644 0.000000000000000e+00 1851878480
0.902797 -0.711686 -7.574699 0.000000000000000e+00 1851878480
0.898269 -0.530748 -7.536706 0.000000000000000e+00 1851878480
0.900889 -0.354987 -7.558690 0.000000000000000e+00 1851878480
0.918831 -0.180252 -7.709225 0.000000000000000e+00 1851878480
0.902205 0.000000 -7.569730 0.000000000000000e+00 1700951363
0.911379 0.178790 -7.646706 0.000000000000000e+00 1851878480
1.008532 0.397403 -8.461846 0.000000000000000e+00 1851878480
1.158800 0.684685 -9.722634 0.000000000000000e+00 1851878480
1.248852 0.984485 -10.478189 0.000000000000000e+00 1851878480
0.875536 -0.708116 -7.539379 0.000000000000000e+00 1851878480
0.873720 -0.529647 -7.523741 0.000000000000000e+00 1851878480
0.877168 -0.354614 -7.553431 0.000000000000000e+00 1851878480
0.897126 -0.180564 -7.725297 0.000000000000000e+00 1851878480
0.878112 0.000000 -7.561568 0.000000000000000e+00 1700951363
0.887583 0.178643 -7.643120 0.000000000000000e+00 1851878480
0.981709 0.396878 -8.453655 0.000000000000000e+00 1851878480
1.126335 0.682781 -9.699048 0.000000000000000e+00 1851878480
1.215702 0.983235 -10.468604 0.000000000000000e+00 1851878480
0.849332 -0.705242 -7.511380 0.000000000000000e+00 1851878480
0.851929 -0.530210 -7.534342 0.000000000000000e+00 1851878480
0.851470 -0.353405 -7.530284 0.000000000000000e+00 1851878480
0.871366 -0.180056 -7.706238 0.000000000000000e+00 1851878480
0.852886 0.000000 -7.542811 0.000000000000000e+00 1700951363
0.859927 0.177693 -7.605076 0.000000000000000e+00 1851878480
0.954410 0.396131 -8.440676 0.000000000000000e+00 1851878480
1.099963 0.684577 -9.727923 0.000000000000000e+00 1851878480
1.183017 0.982317 -10.462444 0.000000000000000e+00 1851878480
0.827953 -0.706333 -7.525533 0.000000000000000e+00 1851878480
0.846517 -0.541282 -7.694266 0.000000000000000e+00 1851878480
0.826957 -0.352639 -7.516478 0.000000000000000e+00 1851878480
0.849259 -0.180298 -7.719183 0.000000000000000e+00 1851878480
0.829500 0.000000 -7.539590 0.000000000000000e+00 1700951363
0.838831 0.178084 -7.624407 0.000000000000000e+00 1851878480
0.926094 0.394914 -8.417562 0.000000000000000e+00 1851878480
1.072168 0.685568 -9.745277 0.000000000000000e+00 1851878480
1.152267 0.983008 -10.473321 0.000000000000000e+00 1851878480
0.804221 -0.705428 -7.518350 0.000000000000000e+00 1851878480
0.822820 -0.540961 -7.692225 0.000000000000000e+00 1851878480
0.802814 -0.351994 -7.505199 0.000000000000000e+00 1851878480
0.823964 -0.179859 -7.702921 0.000000000000000e+00 1851878480
0.805483 0.000000 -7.530151 0.000000000000000e+00 1700951363
0.814915 0.177884 -7.618329 0.000000000000000e+00 1851878480
0.898537 0.393964 -8.400071 0.000000000000000e+00 1851878480
1.041053 0.684438 -9.732404 0.000000000000000e+00 1851878480
1.121502 0.983734 -10.484491 0.000000000000000e+00 1851878480
0.778857 -0.703004 -7.494891 0.000000000000000e+00 1851878480
0.797663 -0.539639 -7.675857 0.000000000000000e+00 1851878480
0.778868 -0.351404 -7.494991 0.000000000000000e+00 1851878480
0.800418 -0.179789 -7.702364 0.000000000000000e+00 1851878480
0.780356 0.000000 -7.509315 0.000000000000000e+00 1700951363
0.789860 0.177418 -7.600765 0.000000000000000e+00 1851878480
0.872037 0.393439 -8.391549 0.000000000000000e+00 1851878480
1.010395 0.683557 -9.722963 0.000000000000000e+00 1851878480
1.091271 0.984991 -10.501225 0.000000000000000e+00 1851878480
0.755480 -0.702289 -7.489583 0.000000000000000e+00 1851878480
0.774220 -0.539437 -7.675357 0.000000000000000e+00 1851878480
0.754566 -0.350617 -7.480518 0.000000000000000e+00 1851878480
0.774998 -0.179284 -7.683074 0.000000000000000e+00 1851878480
0.757908 0.000000 -7.513649 0.000000000000000e+00 1700951363
0.767208 0.177481 -7.605843 0.000000000000000e+00 1851878480
0.845230 0.392745 -8.379335 0.000000000000000e+00 1851878480
0.982206 0.684351 -9.737262 0.000000000000000e+00 1851878480
1.059421 0.984830 -10.502752 0.000000000000000e+00 1851878480
0.731501 -0.700960 -7.477646 0.000000000000000e+00 1851878480
0.748758 -0.537778 -7.654053 0.000000000000000e+00 1851878480
0.730979 -0.350127 -7.472306 0.000000000000000e+00 1851878480
0.753358 -0.179650 -7.701070 0.000000000000000e+00 1851878480
0.734803 0.000000 -7.511395 0.000000000000000e+00 1700951363
0.743337 0.177260 -7.598637 0.000000000000000e+00 1851878480
0.821123 0.393305 -8.393785 0.000000000000000e+00 1851878480
0.953239 0.684642 -9.744329 0.000000000000000e+00 1851878480
1.029412 0.986432 -10.522985 0.000000000000000e+00 1851878480
0.708525 -0.700542 -7.475363 0.000000000000000e+00 1851878480
0.727581 -0.539193 -7.676415 0.000000000000000e+00 1851878480
0.708709 -0.350260 -7.477301 0.000000000000000e+00 1851878480
0.727323 -0.178959 -7.673698 0.000000000000000e+00 1851878480
0.709174 0.000000 -7.482209 0.000000000000000e+00 1700951363
0.721037 0.177412 -7.607370 0.000000000000000e+00 1851878480
0.793600 0.392215 -8.372958 0.000000000000000e+00 1851878480
0.924991 0.685489 -9.759214 0.000000000000000e+00 1851878480
0.998333 0.987085 -10.533011 0.000000000000000e+00 1851878480
0.684020 -0.698544 -7.456143 0.000000000000000e+00 1851878480
0.703565 -0.538535 -7.669199 0.000000000000000e+00 1851878480
0.684505 -0.349418 -7.461427 0.000000000000000e+00 1851878480
0.704413 -0.179019 -7.678443 0.000000000000000e+00 1851878480
0.687349 0.000000 -7.492435 0.000000000000000e+00 1700951363
0.696861 0.177100 -7.596119 0.000000000000000e+00 1851878480
0.769371 0.392739 -8.386509 0.000000000000000e+00 1851878480
0.896083 0.685894 -9.767732 0.000000000000000e+00 1851878480
0.967903 0.988455 -10.550604 0.000000000000000e+00 1851878480
0.659930 -0.696856 -7.440148 0.000000000000000e+00 1851878480
0.680299 -0.538429 -7.669781 0.000000000000000e+00 1851878480
0.660346 -0.348546 -7.444835 0.000000000000000e+00 1851878480
0.680473 -0.178815 -7.671752 0.000000000000000e+00 1851878480
0.663019 0.000000 -7.474972 0.000000000000000e+00 1700951363
0.671967 0.176580 -7.575854 0.000000000000000e+00 1851878480
0.743297 0.392329 -8.380035 0.000000000000000e+00 1851878480
0.866182 0.685548 -9.765456 0.000000000000000e+00 1851878480
0.938281 0.990782 -10.578315 0.000000000000000e+00 1851878480
0.637162 -0.696500 -7.438303 0.000000000000000e+00 1851878480
0.655805 -0.537316 -7.655943 0.000000000000000e+00 1851878480
0.660944 -0.361143 -7.715929 0.000000000000000e+00 1851878480
0.655317 -0.178266 -7.650237 0.000000000000000e+00 1851878480
0.640223 0.000000 -7.474038 0.000000000000000e+00 1700951363
0.650231 0.176883 -7.590872 0.000000000000000e+00 1851878480
0.719479 0.393126 -8.399272 0.000000000000000e+00 1851878480
0.837648 0.686304 -9.778793 0.000000000000000e+00 1851878480
0.906330 0.990735 -10.580595 0.000000000000000e+00 1851878480
0.616629 -0.698655 -7.463205 0.000000000000000e+00 1851878480
0.633439 -0.537932 -7.666661 0.000000000000000e+00 1851878480
0.636351 -0.360395 -7.701906 0.000000000000000e+00 1851878480
0.632524 -0.178346 -7.655588 0.000000000000000e+00 1851878480
0.617429 0.000000 -7.472887 0.000000000000000e+00 1700951363
0.623794 0.175884 -7.549924 0.000000000000000e+00 1851878480
0.694889 0.393548 -8.410408 0.000000000000000e+00 1851878480
0.807145 0.685448 -9.769071 0.000000000000000e+00 1851878480
0.874284 0.990584 -10.581671 0.000000000000000e+00 1851878480
0.590834 -0.694794 -7.423779 0.000000000000000e+00 1851878480
0.609831 -0.537507 -7.662476 0.000000000000000e+00 1851878480
0.611592 -0.359497 -7.684598 0.000000000000000e+00 1851878480
0.607735 -0.177849 -7.636145 0.000000000000000e+00 1851878480
0.593559 0.000000 -7.458023 0.000000000000000e+00 1700951363
0.601792 0.176110 -7.561466 0.000000000000000e+00 1851878480
0.668851 0.393155 -8.404058 0.000000000000000e+00 1851878480
0.779202 0.686791 -9.790606 0.000000000000000e+00 1851878480
0.846584 0.995545 -10.637260 0.000000000000000e+00 1851878480
0.569017 -0.695498 -7.433047 0.000000000000000e+00 1851878480
0.586500 -0.537307 -7.661434 0.000000000000000e+00 1851878480
0.588118 -0.359318 -7.682570 0.000000000000000e+00 1851878480
0.585941 -0.178226 -7.654121 0.000000000000000e+00 1851878480
0.570267 0.000000 -7.449384 0.000000000000000e+00 1700951363
0.578909 0.176087 -7.562264 0.000000000000000e+00 1851878480
0.643148 0.392939 -8.401420 0.000000000000000e+00 1851878480
0.751010 0.688018 -9.810411 0.000000000000000e+00 1851878480
0.813568 0.994407 -10.627605 0.000000000000000e+00 1851878480
0.545826 -0.694515 -7.424229 0.000000000000000e+00 1851878480
0.562127 -0.536100 -7.645957 0.000000000000000e+00 1851878480
0.564739 -0.359185 -7.681478 0.000000000000000e+00 1851878480
0.562625 -0.178153 -7.652723 0.000000000000000e+00 1851878480
0.547605 0.000000 -7.448430 0.000000000000000e+00 1700951363
0.555731 0.175970 -7.558960 0.000000000000000e+00 1851878480
0.619025 0.393712 -8.419860 0.000000000000000e+00 1851878480
0.720539 0.687177 -9.800646 0.000000000000000e+00 1851878480
0.784113 0.997714 -10.665358 0.000000000000000e+00 1851878480
0.522625 -0.693445 -7.414393 0.000000000000000e+00 1851878480
0.540041 -0.537072 -7.661473 0.000000000000000e+00 1851878480
0.541041 -0.358835 -7.675650 0.000000000000000e+00 1851878480
0.539011 -0.177978 -7.646854 0.000000000000000e+00 1851878480
0.524493 0.000000 -7.440888 0.000000000000000e+00 1700951363
0.532202 0.175730 -7.550256 0.000000000000000e+00 1851878480
0.593967 0.393937 -8.426505 0.000000000000000e+00 1851878480
0.693629 0.689814 -9.840389 0.000000000000000e+00 1851878480
0.753680 1.000019 -10.692321 0.000000000000000e+00 1851878480
0.501021 -0.694497 -7.427195 0.000000000000000e+00 1851878480
0.516311 -0.536427 -7.653863 0.000000000000000e+00 1851878480
0.517167 -0.358335 -7.666552 0.000000000000000e+00 1851878480
0.513863 -0.177259 -7.617571 0.000000000000000e+00 1851878480
0.502654 0.000000 -7.451404 0.000000000000000e+00 1700951363
0.508619 0.175450 -7.539829 0.000000000000000e+00 1851878480
0.570188 0.395072 -8.452542 0.000000000000000e+00 1851878480
0.663906 0.689772 -9.841833 0.000000000000000e+00 1851878480
0.722369 1.001323 -10.708497 0.000000000000000e+00 1851878480
0.477301 -0.692587 -7.408234 0.000000000000000e+00 1851878480
0.493147 -0.536342 -7.654181 0.000000000000000e+00 1851878480
0.494176 -0.358432 -7.670150 0.000000000000000e+00 1851878480
0.492273 -0.177760 -7.640607 0.000000000000000e+00 1851878480
0.480069 0.000000 -7.451188 0.000000000000000e+00 1700951363
0.485724 0.175396 -7.538969 0.000000000000000e+00 1851878480
0.542793 0.393694 -8.424731 0.000000000000000e+00 1851878480
0.633607 0.689105 -9.834272 0.000000000000000e+00 1851878480
0.692279 1.004530 -10.744929 0.000000000000000e+00 1851878480
0.454890 -0.692483 -7.408533 0.000000000000000e+00 1851878480
0.467868 -0.533839 -7.619906 0.000000000000000e+00 1851878480
0.471195 -0.358547 -7.674081 0.000000000000000e+00 1851878480
0.468853 -0.177618 -7.635949 0.000000000000000e+00 1851878480
0.455134 0.000000 -7.412511 0.000000000000000e+00 1700951363
0.461833 0.174959 -7.521622 0.000000000000000e+00 1851878480
0.519387 0.395219 -8.458961 0.000000000000000e+00 1851878480
0.605619 0.691014 -9.863383 0.000000000000000e+00 1851878480
0.661933 1.007668 -10.780536 0.000000000000000e+00 1851878480
0.431096 -0.690165 -7.385068 0.000000000000000e+00 1851878480
0.446217 -0.535438 -7.644112 0.000000000000000e+00 1851878480
0.446539 -0.357340 -7.649627 0.000000000000000e+00 1851878480
0.444532 -0.177105 -7.615251 0.000000000000000e+00 1851878480
0.433199 0.000000 -7.421094 0.000000000000000e+00 1700951363
0.439888 0.175254 -7.535683 0.000000000000000e+00 1851878480
0.494065 0.395373 -8.463795 0.000000000000000e+00 1851878480
0.576593 0.691883 -9.877570 0.000000000000000e+00 1851878480
0.629679 1.008089 -10.786990 0.000000000000000e+00 1851878480
0.409108 -0.690651 -7.391528 0.000000000000000e+00 1851878480
0.424072 -0.536591 -7.661888 0.000000000000000e+00 1851878480
0.423614 -0.357465 -7.653615 0.000000000000000e+00 1851878480
0.421639 -0.177137 -7.617934 0.000000000000000e+00 1851878480
0.410014 0.000000 -7.407894 0.000000000000000e+00 1700951363
0.418207 0.175695 -7.555930 0.000000000000000e+00 1851878480
0.468229 0.395113 -8.459687 0.000000000000000e+00 1851878480
0.547132 0.692303 -9.885272 0.000000000000000e+00 1851878480
0.598609 1.010564 -10.815328 0.000000000000000e+00 1851878480
0.386955 -0.690903 -7.395436 0.000000000000000e+00 1851878480
0.398675 -0.533531 -7.619420 0.000000000000000e+00 1851878480
0.399050 -0.356146 -7.626604 0.000000000000000e+00 1851878480
0.397680 -0.176701 -7.600414 0.000000000000000e+00 1851878480
0.388263 0.000000 -7.420443 0.000000000000000e+00 1700951363
0.393678 0.174922 -7.523928 0.000000000000000e+00 1851878480
0.443038 0.395405 -8.467297 0.000000000000000e+00 1851878480
0.518812 0.694306 -9.915469 0.000000000000000e+00 1851878480
0.567639 1.013513 -10.848654 0.000000000000000e+00 1851878480
0.365379 -0.692284 -7.411343 0.000000000000000e+00 1851878480
0.376598 -0.534814 -7.638915 0.000000000000000e+00 1851878480
0.375588 -0.355710 -7.618430 0.000000000000000e+00 1851878480
0.375274 -0.176944 -7.612057 0.000000000000000e+00 1851878480
0.365612 0.000000 -7.416073 0.000000000000000e+00 1700951363
0.370667 0.174772 -7.518613 0.000000000000000e+00 1851878480
0.418622 0.396466 -8.491330 0.000000000000000e+00 1851878480
0.489080 0.694551 -9.920489 0.000000000000000e+00 1851878480
0.536229 1.015994 -10.876873 0.000000000000000e+00 1851878480
0.340870 -0.687936 -7.365861 0.000000000000000e+00 1851878480
0.353552 -0.534805 -7.639897 0.000000000000000e+00 1851878480
0.352241 -0.355338 -7.611573 0.000000000000000e+00 1851878480
0.351954 -0.176763 -7.605368 0.000000000000000e+00 1851878480
0.343075 0.000000 -7.413506 0.000000000000000e+00 1700951363
0.347979 0.174767 -7.519477 0.000000000000000e+00 1851878480
0.392542 0.395994 -8.482442 0.000000000000000e+00 1851878480
0.460071 0.695932 -9.941657 0.000000000000000e+00 1851878480
0.505483 1.020153 -10.922975 0.000000000000000e+00 1851878480
0.318549 -0.687710 -7.364432 0.000000000000000e+00 1851878480
0.330089 -0.534127 -7.631236 0.000000000000000e+00 1851878480
0.330046 -0.356162 -7.630237 0.000000000000000e+00 1851878480
0.327798 -0.176110 -7.578275 0.000000000000000e+00 1851878480
0.320938 0.000000 -7.419682 0.000000000000000e+00 1700951363
0.324710 0.174451 -7.506880 0.000000000000000e+00 1851878480
0.367186 0.396241 -8.488872 0.000000000000000e+00 1851878480
0.430358 0.696375 -9.949323 0.000000000000000e+00 1851878480
0.473769 1.022812 -10.952919 0.000000000000000e+00 1851878480
0.296591 -0.688297 -7.371646 0.000000000000000e+00 1851878480
0.307163 -0.534282 -7.634418 0.000000000000000e+00 1851878480
0.306478 -0.355517 -7.617392 0.000000000000000e+00 1851878480
0.305009 -0.176148 -7.580882 0.000000000000000e+00 1851878480
0.298066 0.000000 -7.408314 0.000000000000000e+00 1700951363
0.301789 0.174288 -7.500837 0.000000000000000e+00 1851878480
0.341454 0.396090 -8.486708 0.000000000000000e+00 1851878480
0.401721 0.698757 -9.984610 0.000000000000000e+00 1851878480
0.441763 1.025196 -10.979835 0.000000000000000e+00 1851878480
0.274202 -0.687908 -7.368342 0.000000000000000e+00 1851878480
0.284193 -0.534388 -7.636818 0.000000000000000e+00 1851878480
0.283017 -0.354909 -7.605238 0.000000000000000e+00 1851878480
0.281746 -0.175900 -7.571076 0.000000000000000e+00 1851878480
0.275568 0.000000 -7.405056 0.000000000000000e+00 1700951363
0.278644 0.173963 -7.487731 0.000000000000000e+00 1851878480
0.316075 0.396364 -8.493566 0.000000000000000e+00 1851878480
0.372101 0.699688 -9.999089 0.000000000000000e+00 1851878480
0.410608 1.030119 -11.033850 0.000000000000000e+00 1851878480
0.250844 -0.684813 -7.335985 0.000000000000000e+00 1851878480
0.260788 -0.533630 -7.626801 0.000000000000000e+00 1851878480
0.260322 -0.355241 -7.613180 0.000000000000000e+00 1851878480
0.258428 -0.175572 -7.557783 0.000000000000000e+00 1851878480
0.253167 0.000000 -7.403931 0.000000000000000e+00 1700951363
0.255896 0.173851 -7.483719 0.000000000000000e+00 1851878480
0.290937 0.397019 -8.508521 0.000000000000000e+00 1851878480
0.342647 0.701131 -10.020782 0.000000000000000e+00 1851878480
0.378790 1.034110 -11.077790 0.000000000000000e+00 1851878480
0.229602 -0.687461 -7.365079 0.000000000000000e+00 1851878480
0.237809 -0.533684 -7.628325 0.000000000000000e+00 1851878480
0.236990 -0.354688 -7.602071 0.000000000000000e+00 1851878480
0.234740 -0.174907 -7.529903 0.000000000000000e+00 1851878480
0.230979 0.000000 -7.409242 0.000000000000000e+00 1700951363
0.233388 0.173899 -7.486524 0.000000000000000e+00 1851878480
0.266219 0.398432 -8.539657 0.000000000000000e+00 1851878480
0.312493 0.701289 -10.024029 0.000000000000000e+00 1851878480
0.347597 1.040756 -11.150085 0.000000000000000e+00 1851878480
0.207155 -0.686683 -7.357402 0.000000000000000e+00 1851878480
0.211931 -0.526549 -7.527026 0.000000000000000e+00 1851878480
0.213672 -0.354040 -7.588866 0.000000000000000e+00 1851878480
0.211386 -0.174375 -7.507665 0.000000000000000e+00 1851878480
0.208315 0.000000 -7.398616 0.000000000000000e+00 1700951363
0.210988 0.174047 -7.493531 0.000000000000000e+00 1851878480
0.239777 0.397293 -8.516009 0.000000000000000e+00 1851878480
0.282933 0.702958 -10.048780 0.000000000000000e+00 1851878480
0.185047 -0.686991 -7.361287 0.000000000000000e+00 1851878480
0.188900 -0.525635 -7.514565 0.000000000000000e+00 1851878480
0.190981 -0.354408 -7.597362 0.000000000000000e+00 1851878480
0.187899 -0.173597 -7.474753 0.000000000000000e+00 1851878480
0.186247 0.000000 -7.409041 0.000000000000000e+00 1700951363
0.188409 0.174067 -7.495011 0.000000000000000e+00 1851878480
0.214653 0.398335 -8.539014 0.000000000000000e+00 1851878480
0.253799 0.706223 -10.096269 0.000000000000000e+00 1851878480
0.162901 -0.687230 -7.364379 0.000000000000000e+00 1851878480
0.165975 -0.524811 -7.503312 0.000000000000000e+00 1851878480
0.167795 -0.353835 -7.585629 0.000000000000000e+00 1851878480
0.164975 -0.173198 -7.458133 0.000000000000000e+00 1851878480
0.164180 0.000000 -7.422183 0.000000000000000e+00 1851878480
0.166167 0.174449 -7.512012 0.000000000000000e+00 1851878480
0.188594 0.397693 -8.525877 0.000000000000000e+00 1851878480
0.223441 0.706520 -10.101239 0.000000000000000e+00 1851878480
0.140204 -0.684850 -7.339330 0.000000000000000e+00 1851878480
0.143204 -0.524293 -7.496373 0.000000000000000e+00 1851878480
0.144246 -0.352193 -7.550888 0.000000000000000e+00 1851878480
0.141923 -0.172518 -7.429319 0.000000000000000e+00 1851878480
0.141835 0.000000 -7.424671 0.000000000000000e+00 1851878480
0.143196 0.174066 -7.495957 0.000000000000000e+00 1851878480
0.163121 0.398280 -8.538984 0.000000000000000e+00 1851878480
0.193616 0.708857 -10.135278 0.000000000000000e+00 1851878480
0.117871 -0.683703 -7.327430 0.000000000000000e+00 1851878480
0.120309 -0.523049 -7.478989 0.000000000000000e+00 1851878480
0.120910 -0.350565 -7.516392 0.000000000000000e+00 1851878480
0.118820 -0.171514 -7.386455 0.000000000000000e+00 1851878480
0.118742 0.000000 -7.381586 0.000000000000000e+00 1851878480
0.120688 0.174211 -7.502606 0.000000000000000e+00 1851878480
0.137321 0.398146 -8.536558 0.000000000000000e+00 1851878480
0.163610 0.711306 -10.170837 0.000000000000000e+00 1851878480
0.095970 -0.685124 -7.342976 0.000000000000000e+00 1851878480
0.097876 -0.523716 -7.488853 0.000000000000000e+00 1851878480
0.097817 -0.349056 -7.484358 0.000000000000000e+00 1851878480
0.096672 -0.171745 -7.396717 0.000000000000000e+00 1851878480
0.096588 0.000000 -7.390295 0.000000000000000e+00 1851878480
0.098116 0.174310 -7.507209 0.000000000000000e+00 1851878480
0.111701 0.398597 -8.546609 0.000000000000000e+00 1851878480
0.133530 0.714495 -10.216883 0.000000000000000e+00 1851878480
0.073888 -0.685727 -7.349700 0.000000000000000e+00 1851878480
0.074962 -0.521439 -7.456552 0.000000000000000e+00 1851878480
0.074922 -0.347561 -7.452571 0.000000000000000e+00 1851878480
