# .PCD v0.7 - Point Cloud Data file format
VERSION 0.7
FIELDS x y z rgb label
SIZE 4 4 4 4 4
TYPE F F F F U
COUNT 1 1 1 1 1
WIDTH 783
HEIGHT 1
VIEWPOINT 0 0 0 1 0 0 0
POINTS 783
DATA ascii
-0.836254 2.103803 0.274895 0.000000000000000e+00 1851878480
-0.777873 2.188234 0.334937 0.000000000000000e+00 1870292837
-0.783763 2.174262 0.368886 0.000000000000000e+00 1870292837
-0.781436 2.174157 0.405997 0.000000000000000e+00 1851878480
-0.777979 2.176037 0.442815 0.000000000000000e+00 1851878480
-0.781560 2.165948 0.477786 0.000000000000000e+00 1851878480
-0.797569 2.134545 0.511033 0.000000000000000e+00 1851878480
-0.807899 2.112698 0.546722 0.000000000000000e+00 1851878480
-0.815359 2.095711 0.583354 0.000000000000000e+00 1851878480
-0.822559 2.079085 0.620784 0.000000000000000e+00 1851878480
-0.824434 2.071562 0.659204 0.000000000000000e+00 1851878480
-0.826305 2.064038 0.697701 0.000000000000000e+00 1851878480
-0.842714 2.031127 0.738274 0.000000000000000e+00 1851878480
-0.816111 2.128010 0.281622 0.000000000000000e+00 1851878480
-0.775096 2.183841 0.334192 0.000000000000000e+00 1870292837
-0.781492 2.168918 0.368006 0.000000000000000e+00 1870292837
-0.755589 2.209097 0.412357 0.000000000000000e+00 1870292837
-0.769179 2.181908 0.443786 0.000000000000000e+00 1851878480
-0.775659 2.166802 0.477917 0.000000000000000e+00 1851878480
-0.790195 2.137745 0.511302 0.000000000000000e+00 1851878480
-0.803422 2.110768 0.546486 0.000000000000000e+00 1851878480
-0.810344 2.094613 0.583137 0.000000000000000e+00 1851878480
-0.816798 2.079187 0.620547 0.000000000000000e+00 1851878480
-0.815022 2.078006 0.658820 0.000000000000000e+00 1851878480
-0.818211 2.068166 0.697168 0.000000000000000e+00 1851878480
-0.833645 2.036773 0.737455 0.000000000000000e+00 1851878480
-0.802887 2.140875 0.285359 0.000000000000000e+00 1851878480
-0.772274 2.179496 0.333457 0.000000000000000e+00 1870292837
-0.779159 2.163640 0.367139 0.000000000000000e+00 1870292837
-0.750847 2.208249 0.412354 0.000000000000000e+00 1870292837
-0.760559 2.187578 0.444725 0.000000000000000e+00 1851878480
-0.769759 2.167700 0.478053 0.000000000000000e+00 1851878480
-0.782441 2.141684 0.511641 0.000000000000000e+00 1851878480
-0.799011 2.108730 0.546242 0.000000000000000e+00 1851878480
-0.805416 2.093382 0.582915 0.000000000000000e+00 1851878480
-0.811121 2.079179 0.620310 0.000000000000000e+00 1851878480
-0.805739 2.084349 0.658442 0.000000000000000e+00 1851878480
-0.810219 2.072206 0.696642 0.000000000000000e+00 1851878480
-0.824828 2.042085 0.736665 0.000000000000000e+00 1851878480
-0.841987 2.007224 0.779074 0.000000000000000e+00 1851878480
-0.792408 2.149274 0.287915 0.000000000000000e+00 1851878480
-0.769422 2.175174 0.332726 0.000000000000000e+00 1870292837
-0.776803 2.158359 0.366270 0.000000000000000e+00 1870292837
-0.746692 2.206402 0.412172 0.000000000000000e+00 1870292837
-0.752393 2.192574 0.445559 0.000000000000000e+00 1851878480
-0.763807 2.168734 0.478204 0.000000000000000e+00 1851878480
-0.774757 2.145586 0.511976 0.000000000000000e+00 1851878480
-0.794671 2.106574 0.545990 0.000000000000000e+00 1851878480
-0.800447 2.092239 0.582698 0.000000000000000e+00 1851878480
-0.805298 2.079463 0.620078 0.000000000000000e+00 1851878480
-0.796581 2.090593 0.658069 0.000000000000000e+00 1851878480
-0.802303 2.076202 0.696123 0.000000000000000e+00 1851878480
-0.816126 2.047304 0.735886 0.000000000000000e+00 1851878480
-0.832319 2.013963 0.777939 0.000000000000000e+00 1851878480
-0.783094 2.155824 0.289980 0.000000000000000e+00 1851878480
-0.766560 2.170842 0.331991 0.000000000000000e+00 1870292837
-0.774435 2.153058 0.365396 0.000000000000000e+00 1870292837
-0.743029 2.203706 0.411837 0.000000000000000e+00 1870292837
-0.744620 2.196984 0.446304 0.000000000000000e+00 1851878480
-0.757893 2.169749 0.478352 0.000000000000000e+00 1851878480
-0.767146 2.149452 0.512307 0.000000000000000e+00 1851878480
-0.790285 2.104503 0.545743 0.000000000000000e+00 1851878480
-0.795339 2.091362 0.582492 0.000000000000000e+00 1851878480
-0.800542 2.077890 0.619819 0.000000000000000e+00 1851878480
-0.787550 2.096735 0.657702 0.000000000000000e+00 1851878480
-0.794417 2.080238 0.695606 0.000000000000000e+00 1851878480
-0.807531 2.052442 0.735119 0.000000000000000e+00 1851878480
-0.822930 2.020331 0.776845 0.000000000000000e+00 1851878480
-0.823054 2.081763 0.230509 0.000000000000000e+00 1851878480
-0.774395 2.161436 0.291791 0.000000000000000e+00 1851878480
-0.763677 2.166518 0.331257 0.000000000000000e+00 1870292837
-0.772062 2.147723 0.364514 0.000000000000000e+00 1870292837
-0.739374 2.200987 0.411497 0.000000000000000e+00 1870292837
-0.737069 2.201097 0.447002 0.000000000000000e+00 1851878480
-0.751960 2.170843 0.478508 0.000000000000000e+00 1851878480
-0.759851 2.152842 0.512593 0.000000000000000e+00 1851878480
-0.785852 2.102518 0.545502 0.000000000000000e+00 1851878480
-0.790549 2.089938 0.582263 0.000000000000000e+00 1851878480
-0.796027 2.075897 0.619554 0.000000000000000e+00 1851878480
-0.778628 2.102800 0.657341 0.000000000000000e+00 1851878480
-0.786532 2.084362 0.695090 0.000000000000000e+00 1851878480
-0.798977 2.057611 0.734356 0.000000000000000e+00 1851878480
-0.813702 2.026532 0.775774 0.000000000000000e+00 1851878480
-0.805192 2.102786 0.237027 0.000000000000000e+00 1851878480
-0.765918 2.166773 0.293525 0.000000000000000e+00 1851878480
-0.760691 2.162345 0.330556 0.000000000000000e+00 1870292837
-0.718242 2.233094 0.382208 0.000000000000000e+00 1870292837
-0.736016 2.197734 0.411061 0.000000000000000e+00 1870292837
-0.729795 2.204807 0.447638 0.000000000000000e+00 1851878480
-0.746658 2.170861 0.478531 0.000000000000000e+00 1851878480
-0.752772 2.155927 0.512848 0.000000000000000e+00 1851878480
-0.780687 2.101849 0.545351 0.000000000000000e+00 1851878480
-0.784811 2.090230 0.582107 0.000000000000000e+00 1851878480
-0.788871 2.078668 0.619364 0.000000000000000e+00 1851878480
-0.779843 2.090667 0.657183 0.000000000000000e+00 1851878480
-0.778666 2.088542 0.694577 0.000000000000000e+00 1851878480
-0.790496 2.062757 0.733600 0.000000000000000e+00 1851878480
-0.804580 2.032664 0.774717 0.000000000000000e+00 1851878480
-0.792607 2.114918 0.240956 0.000000000000000e+00 1851878480
-0.757593 2.171951 0.295210 0.000000000000000e+00 1851878480
-0.714697 2.234309 0.347547 0.000000000000000e+00 1870292837
-0.714106 2.231448 0.382065 0.000000000000000e+00 1870292837
-0.732651 2.194481 0.410624 0.000000000000000e+00 1870292837
-0.722684 2.208311 0.448241 0.000000000000000e+00 1851878480
-0.741984 2.169786 0.478419 0.000000000000000e+00 1851878480
-0.745748 2.158989 0.513102 0.000000000000000e+00 1851878480
-0.773820 2.104274 0.545414 0.000000000000000e+00 1851878480
-0.777767 2.092922 0.582053 0.000000000000000e+00 1851878480
-0.781766 2.081419 0.619176 0.000000000000000e+00 1851878480
-0.785854 2.069664 0.657118 0.000000000000000e+00 1851878480
-0.770975 2.092498 0.694076 0.000000000000000e+00 1851878480
-0.782003 2.068031 0.732841 0.000000000000000e+00 1851878480
-0.795570 2.038713 0.773675 0.000000000000000e+00 1851878480
-0.780235 2.126882 0.244824 0.000000000000000e+00 1851878480
-0.749522 2.176788 0.296800 0.000000000000000e+00 1851878480
-0.712636 2.228975 0.346559 0.000000000000000e+00 1870292837
-0.704783 2.239090 0.383819 0.000000000000000e+00 1870292837
-0.729361 2.191076 0.410158 0.000000000000000e+00 1870292837
-0.715716 2.211637 0.448815 0.000000000000000e+00 1851878480
-0.737434 2.168503 0.478280 0.000000000000000e+00 1851878480
-0.738773 2.162038 0.513354 0.000000000000000e+00 1851878480
-0.766886 2.106890 0.545490 0.000000000000000e+00 1851878480
-0.770773 2.095595 0.582000 0.000000000000000e+00 1851878480
-0.774712 2.084151 0.618989 0.000000000000000e+00 1851878480
-0.778738 2.072456 0.656794 0.000000000000000e+00 1851878480
-0.763592 2.095977 0.693596 0.000000000000000e+00 1851878480
-0.773573 2.073300 0.732089 0.000000000000000e+00 1851878480
-0.786550 2.044902 0.772629 0.000000000000000e+00 1851878480
-0.768923 2.137170 0.248197 0.000000000000000e+00 1851878480
-0.741716 2.181254 0.298287 0.000000000000000e+00 1851878480
-0.701546 2.239814 0.349321 0.000000000000000e+00 1870292837
-0.698936 2.240609 0.384317 0.000000000000000e+00 1870292837
-0.726188 2.187444 0.409651 0.000000000000000e+00 1870292837
-0.708943 2.214689 0.449347 0.000000000000000e+00 1851878480
-0.732879 2.167242 0.478144 0.000000000000000e+00 1851878480
-0.731759 2.165235 0.513619 0.000000000000000e+00 1851878480
-0.760000 2.109488 0.545565 0.000000000000000e+00 1851878480
-0.763829 2.098249 0.581946 0.000000000000000e+00 1851878480
-0.767709 2.086864 0.618805 0.000000000000000e+00 1851878480
-0.771673 2.075228 0.656473 0.000000000000000e+00 1851878480
-0.757416 2.097305 0.693200 0.000000000000000e+00 1851878480
-0.765221 2.078532 0.731345 0.000000000000000e+00 1851878480
-0.777665 2.050961 0.771601 0.000000000000000e+00 1851878480
-0.758250 2.146497 0.251282 0.000000000000000e+00 1851878480
-0.734120 2.185439 0.299695 0.000000000000000e+00 1851878480
-0.698855 2.235641 0.348597 0.000000000000000e+00 1870292837
-0.696671 2.235679 0.383495 0.000000000000000e+00 1870292837
-0.723006 2.183806 0.409141 0.000000000000000e+00 1870292837
-0.702337 2.217510 0.449841 0.000000000000000e+00 1851878480
-0.728167 2.166283 0.478043 0.000000000000000e+00 1851878480
-0.724869 2.168280 0.513870 0.000000000000000e+00 1851878480
-0.753162 2.112067 0.545639 0.000000000000000e+00 1851878480
-0.756934 2.100884 0.581894 0.000000000000000e+00 1851878480
-0.760754 2.089556 0.618622 0.000000000000000e+00 1851878480
-0.764659 2.077980 0.656155 0.000000000000000e+00 1851878480
-0.754203 2.093156 0.693007 0.000000000000000e+00 1851878480
-0.756991 2.083645 0.730615 0.000000000000000e+00 1851878480
-0.768890 2.056938 0.770588 0.000000000000000e+00 1851878480
-0.812722 1.969971 0.818750 0.000000000000000e+00 1851878480
-0.748312 2.154671 0.254025 0.000000000000000e+00 1851878480
-0.726721 2.189360 0.301029 0.000000000000000e+00 1851878480
-0.696344 2.231115 0.347789 0.000000000000000e+00 1870292837
-0.694603 2.230348 0.382591 0.000000000000000e+00 1870292837
-0.719853 2.180097 0.408618 0.000000000000000e+00 1870292837
-0.695857 2.220173 0.450311 0.000000000000000e+00 1851878480
-0.723510 2.165241 0.477931 0.000000000000000e+00 1851878480
-0.718037 2.171297 0.514117 0.000000000000000e+00 1851878480
-0.746373 2.114628 0.545713 0.000000000000000e+00 1851878480
-0.750088 2.103501 0.581842 0.000000000000000e+00 1851878480
-0.753850 2.092230 0.618440 0.000000000000000e+00 1851878480
-0.757696 2.080711 0.655840 0.000000000000000e+00 1851878480
-0.753496 2.084275 0.692984 0.000000000000000e+00 1851878480
-0.748873 2.088657 0.729896 0.000000000000000e+00 1851878480
-0.760289 2.062707 0.769600 0.000000000000000e+00 1851878480
-0.784430 2.012490 0.813278 0.000000000000000e+00 1851878480
-0.738796 2.162230 0.256582 0.000000000000000e+00 1851878480
-0.719508 2.193034 0.302293 0.000000000000000e+00 1851878480
-0.693825 2.226565 0.346974 0.000000000000000e+00 1870292837
-0.692564 2.224917 0.381665 0.000000000000000e+00 1870292837
-0.716803 2.176172 0.408055 0.000000000000000e+00 1870292837
-0.689592 2.222505 0.450729 0.000000000000000e+00 1851878480
-0.718675 2.164544 0.477860 0.000000000000000e+00 1851878480
-0.711342 2.174131 0.514347 0.000000000000000e+00 1851878480
-0.739630 2.117171 0.545786 0.000000000000000e+00 1851878480
-0.743288 2.106100 0.581790 0.000000000000000e+00 1851878480
-0.746993 2.094884 0.618260 0.000000000000000e+00 1851878480
-0.750780 2.083424 0.655528 0.000000000000000e+00 1851878480
-0.753285 2.074356 0.692998 0.000000000000000e+00 1851878480
-0.740915 2.093468 0.729195 0.000000000000000e+00 1851878480
-0.751857 2.068270 0.768638 0.000000000000000e+00 1851878480
-0.942174 1.787136 0.100240 0.000000000000000e+00 1701537140
-0.772222 2.024941 0.811300 0.000000000000000e+00 1851878480
-0.729804 2.168975 0.258897 0.000000000000000e+00 1851878480
-0.712460 2.196488 0.303495 0.000000000000000e+00 1851878480
-0.691292 2.222004 0.346156 0.000000000000000e+00 1870292837
-0.690540 2.219407 0.380722 0.000000000000000e+00 1870292837
-0.713744 2.172239 0.407489 0.000000000000000e+00 1870292837
-0.683422 2.224723 0.451129 0.000000000000000e+00 1851878480
-0.713876 2.163802 0.477783 0.000000000000000e+00 1851878480
-0.704920 2.176525 0.514534 0.000000000000000e+00 1851878480
-0.732932 2.119698 0.545858 0.000000000000000e+00 1851878480
-0.736535 2.108681 0.581738 0.000000000000000e+00 1851878480
-0.721212 2.133468 0.618687 0.000000000000000e+00 1851878480
-0.743912 2.086118 0.655218 0.000000000000000e+00 1851878480
-0.753064 2.064344 0.693011 0.000000000000000e+00 1851878480
-0.733131 2.098051 0.728514 0.000000000000000e+00 1851878480
-0.743630 2.073555 0.767707 0.000000000000000e+00 1851878480
-0.933651 1.790343 0.101807 0.000000000000000e+00 1701537140
-0.763786 2.030348 0.810141 0.000000000000000e+00 1851878480
-0.721245 2.175055 0.261012 0.000000000000000e+00 1851878480
-0.677655 2.251176 0.317972 0.000000000000000e+00 1870292837
-0.688771 2.217386 0.345324 0.000000000000000e+00 1870292837
-0.688503 2.213873 0.379773 0.000000000000000e+00 1870292837
-0.679287 2.227113 0.417289 0.000000000000000e+00 1851878480
-0.677475 2.226584 0.451473 0.000000000000000e+00 1851878480
-0.708983 2.163258 0.477729 0.000000000000000e+00 1851878480
-0.698547 2.178893 0.514719 0.000000000000000e+00 1851878480
-0.726280 2.122208 0.545929 0.000000000000000e+00 1851878480
-0.729828 2.111244 0.581687 0.000000000000000e+00 1851878480
-0.713824 2.137544 0.618541 0.000000000000000e+00 1851878480
-0.737093 2.088793 0.654912 0.000000000000000e+00 1851878480
-0.752832 2.054239 0.693026 0.000000000000000e+00 1851878480
-0.725482 2.102474 0.727847 0.000000000000000e+00 1851878480
-0.735603 2.078565 0.766807 0.000000000000000e+00 1851878480
-0.794820 2.033984 0.179213 0.000000000000000e+00 1851878480
-0.756672 2.033310 0.809270 0.000000000000000e+00 1851878480
-0.712985 2.180698 0.262995 0.000000000000000e+00 1851878480
-0.671210 2.254047 0.319001 0.000000000000000e+00 1870292837
-0.686239 2.212751 0.344486 0.000000000000000e+00 1870292837
-0.686400 2.208411 0.378838 0.000000000000000e+00 1870292837
-0.671951 2.231632 0.418204 0.000000000000000e+00 1851878480
-0.671567 2.228428 0.451814 0.000000000000000e+00 1851878480
-0.704011 2.162887 0.477695 0.000000000000000e+00 1851878480
-0.692223 2.181233 0.514900 0.000000000000000e+00 1851878480
-0.719673 2.124700 0.545999 0.000000000000000e+00 1851878480
-0.723167 2.113790 0.581636 0.000000000000000e+00 1851878480
-0.706515 2.141559 0.618396 0.000000000000000e+00 1851878480
-0.730321 2.091449 0.654608 0.000000000000000e+00 1851878480
-0.752589 2.044038 0.693040 0.000000000000000e+00 1851878480
-0.718076 2.106524 0.727209 0.000000000000000e+00 1851878480
-0.727781 2.083283 0.765939 0.000000000000000e+00 1851878480
-0.778664 2.053300 0.185765 0.000000000000000e+00 1851878480
-0.740072 2.054872 0.806286 0.000000000000000e+00 1851878480
-0.704943 2.186052 0.264888 0.000000000000000e+00 1851878480
-0.664815 2.256896 0.320019 0.000000000000000e+00 1870292837
-0.683674 2.208140 0.343652 0.000000000000000e+00 1870292837
-0.684283 2.202927 0.377898 0.000000000000000e+00 1870292837
-0.665246 2.235045 0.418922 0.000000000000000e+00 1851878480
-0.665784 2.230092 0.452126 0.000000000000000e+00 1851878480
-0.699029 2.162560 0.477666 0.000000000000000e+00 1851878480
-0.685936 2.183568 0.515081 0.000000000000000e+00 1851878480
-0.713111 2.127176 0.546069 0.000000000000000e+00 1851878480
-0.716551 2.116318 0.581586 0.000000000000000e+00 1851878480
-0.699273 2.145537 0.618252 0.000000000000000e+00 1851878480
-0.723594 2.094087 0.654307 0.000000000000000e+00 1851878480
-0.752336 2.033740 0.693056 0.000000000000000e+00 1851878480
-0.710753 2.110502 0.726580 0.000000000000000e+00 1851878480
-0.720180 2.087671 0.765106 0.000000000000000e+00 1851878480
-0.767330 2.063912 0.189559 0.000000000000000e+00 1851878480
-0.730301 2.063353 0.804807 0.000000000000000e+00 1851878480
-0.697334 2.190701 0.266571 0.000000000000000e+00 1851878480
-0.658469 2.259723 0.321027 0.000000000000000e+00 1870292837
-0.681059 2.203587 0.342830 0.000000000000000e+00 1870292837
-0.682144 2.197431 0.376954 0.000000000000000e+00 1870292837
-0.658745 2.238149 0.419584 0.000000000000000e+00 1851878480
-0.660046 2.231725 0.452431 0.000000000000000e+00 1851878480
-0.693961 2.162427 0.477659 0.000000000000000e+00 1851878480
-0.679681 2.185906 0.515261 0.000000000000000e+00 1851878480
-0.706593 2.129636 0.546137 0.000000000000000e+00 1851878480
-0.709980 2.118830 0.581535 0.000000000000000e+00 1851878480
-0.692096 2.149477 0.618110 0.000000000000000e+00 1851878480
-0.716914 2.096706 0.654009 0.000000000000000e+00 1851878480
-0.752073 2.023343 0.693072 0.000000000000000e+00 1851878480
-0.703639 2.114161 0.725974 0.000000000000000e+00 1851878480
-0.712718 2.091880 0.764294 0.000000000000000e+00 1851878480
-0.756822 2.073154 0.192910 0.000000000000000e+00 1851878480
-0.721924 2.069230 0.803632 0.000000000000000e+00 1851878480
-0.689840 2.195232 0.268215 0.000000000000000e+00 1851878480
-0.652172 2.262528 0.322025 0.000000000000000e+00 1870292837
-0.678425 2.199032 0.342007 0.000000000000000e+00 1870292837
-0.679993 2.191912 0.376004 0.000000000000000e+00 1870292837
-0.652431 2.240968 0.420192 0.000000000000000e+00 1851878480
-0.654340 2.233348 0.452734 0.000000000000000e+00 1851878480
-0.688928 2.162255 0.477647 0.000000000000000e+00 1851878480
-0.673474 2.188218 0.515438 0.000000000000000e+00 1851878480
-0.700118 2.132078 0.546205 0.000000000000000e+00 1851878480
-0.703453 2.121324 0.581486 0.000000000000000e+00 1851878480
-0.684985 2.153379 0.617970 0.000000000000000e+00 1851878480
-0.710281 2.099308 0.653713 0.000000000000000e+00 1851878480
-0.751798 2.012848 0.693089 0.000000000000000e+00 1851878480
-0.696604 2.117751 0.725378 0.000000000000000e+00 1851878480
-0.705434 2.095833 0.763510 0.000000000000000e+00 1851878480
-0.746934 2.081393 0.195935 0.000000000000000e+00 1851878480
-0.714073 2.074182 0.802569 0.000000000000000e+00 1851878480
-0.682488 2.199593 0.269803 0.000000000000000e+00 1851878480
-0.645925 2.265311 0.323013 0.000000000000000e+00 1870292837
-0.675781 2.194461 0.341178 0.000000000000000e+00 1870292837
-0.634455 2.270422 0.392109 0.000000000000000e+00 1870292837
-0.646232 2.243634 0.420771 0.000000000000000e+00 1851878480
-0.648642 2.235009 0.453040 0.000000000000000e+00 1851878480
-0.683905 2.162090 0.477634 0.000000000000000e+00 1851878480
-0.667311 2.190504 0.515613 0.000000000000000e+00 1851878480
-0.693686 2.134506 0.546272 0.000000000000000e+00 1851878480
-0.696969 2.123802 0.581436 0.000000000000000e+00 1851878480
-0.677947 2.157225 0.617831 0.000000000000000e+00 1851878480
-0.703691 2.101891 0.653420 0.000000000000000e+00 1851878480
-0.707844 2.089278 0.690119 0.000000000000000e+00 1851878480
-0.689684 2.121195 0.724795 0.000000000000000e+00 1851878480
-0.698244 2.099689 0.762740 0.000000000000000e+00 1851878480
-0.737542 2.088835 0.198701 0.000000000000000e+00 1851878480
-0.706520 2.078639 0.801568 0.000000000000000e+00 1851878480
-0.675209 2.203906 0.271371 0.000000000000000e+00 1851878480
-0.639803 2.267921 0.323951 0.000000000000000e+00 1870292837
-0.673112 2.189898 0.340350 0.000000000000000e+00 1870292837
-0.628899 2.272073 0.392601 0.000000000000000e+00 1870292837
-0.640141 2.246156 0.421323 0.000000000000000e+00 1851878480
-0.642976 2.236661 0.453344 0.000000000000000e+00 1851878480
-0.678911 2.161896 0.477617 0.000000000000000e+00 1851878480
-0.661188 2.192779 0.515787 0.000000000000000e+00 1851878480
-0.687295 2.136917 0.546339 0.000000000000000e+00 1851878480
-0.690528 2.126264 0.581387 0.000000000000000e+00 1851878480
-0.670971 2.161035 0.617693 0.000000000000000e+00 1851878480
-0.697145 2.104458 0.653130 0.000000000000000e+00 1851878480
-0.701264 2.091849 0.689705 0.000000000000000e+00 1851878480
-0.682856 2.124537 0.724222 0.000000000000000e+00 1851878480
-0.691207 2.103323 0.761994 0.000000000000000e+00 1851878480
-0.728578 2.095598 0.201244 0.000000000000000e+00 1851878480
-0.699163 2.082797 0.800608 0.000000000000000e+00 1851878480
-0.668354 2.207494 0.272727 0.000000000000000e+00 1851878480
-0.639033 2.260217 0.322228 0.000000000000000e+00 1870292837
-0.624851 2.274700 0.360060 0.000000000000000e+00 1870292837
-0.626380 2.267802 0.391890 0.000000000000000e+00 1870292837
-0.634111 2.248627 0.421863 0.000000000000000e+00 1851878480
-0.637342 2.238305 0.453645 0.000000000000000e+00 1851878480
-0.673966 2.161633 0.477591 0.000000000000000e+00 1851878480
-0.655103 2.195040 0.515958 0.000000000000000e+00 1851878480
-0.680950 2.139307 0.546404 0.000000000000000e+00 1851878480
-0.684129 2.128710 0.581338 0.000000000000000e+00 1851878480
-0.664079 2.164767 0.617556 0.000000000000000e+00 1851878480
-0.690642 2.107007 0.652842 0.000000000000000e+00 1851878480
-0.694727 2.094403 0.689295 0.000000000000000e+00 1851878480
-0.676104 2.127808 0.723657 0.000000000000000e+00 1851878480
-0.684234 2.106914 0.761257 0.000000000000000e+00 1851878480
-0.719924 2.101893 0.203632 0.000000000000000e+00 1851878480
-0.691962 2.086733 0.799679 0.000000000000000e+00 1851878480
-0.661560 2.211047 0.274066 0.000000000000000e+00 1851878480
-0.639283 2.250430 0.319968 0.000000000000000e+00 1870292837
-0.619996 2.275055 0.360344 0.000000000000000e+00 1870292837
-0.623867 2.263483 0.391168 0.000000000000000e+00 1870292837
-0.628179 2.250968 0.422379 0.000000000000000e+00 1851878480
-0.631730 2.239958 0.453946 0.000000000000000e+00 1851878480
-0.669107 2.161226 0.477546 0.000000000000000e+00 1851878480
-0.649057 2.197289 0.516129 0.000000000000000e+00 1851878480
-0.674841 2.141288 0.546441 0.000000000000000e+00 1851878480
-0.677772 2.131139 0.581289 0.000000000000000e+00 1851878480
-0.657246 2.168463 0.617421 0.000000000000000e+00 1851878480
-0.684197 2.109512 0.652557 0.000000000000000e+00 1851878480
-0.688234 2.096940 0.688888 0.000000000000000e+00 1851878480
-0.669438 2.130982 0.723103 0.000000000000000e+00 1851878480
-0.677360 2.110389 0.760536 0.000000000000000e+00 1851878480
-0.711433 2.107994 0.205950 0.000000000000000e+00 1851878480
-0.684875 2.090527 0.798772 0.000000000000000e+00 1851878480
-0.654825 2.214568 0.275391 0.000000000000000e+00 1851878480
-0.658276 2.203612 0.308183 0.000000000000000e+00 1851878480
-0.617826 2.270097 0.359406 0.000000000000000e+00 1870292837
-0.621373 2.259087 0.390429 0.000000000000000e+00 1870292837
-0.622319 2.253229 0.422878 0.000000000000000e+00 1851878480
-0.626135 2.241629 0.454248 0.000000000000000e+00 1851878480
-0.663156 2.163043 0.477772 0.000000000000000e+00 1851878480
-0.643039 2.199543 0.516299 0.000000000000000e+00 1851878480
-0.668767 2.143257 0.546477 0.000000000000000e+00 1851878480
-0.671456 2.133553 0.581241 0.000000000000000e+00 1851878480
-0.650470 2.172132 0.617287 0.000000000000000e+00 1851878480
-0.677806 2.111974 0.652275 0.000000000000000e+00 1851878480
-0.681783 2.099459 0.688485 0.000000000000000e+00 1851878480
-0.662835 2.134106 0.722555 0.000000000000000e+00 1851878480
-0.670568 2.113779 0.759826 0.000000000000000e+00 1851878480
-0.703028 2.114053 0.208248 0.000000000000000e+00 1851878480
-0.677886 2.094206 0.797884 0.000000000000000e+00 1851878480
-0.648217 2.217921 0.276662 0.000000000000000e+00 1851878480
-0.641453 2.227185 0.314508 0.000000000000000e+00 1851878480
-0.615687 2.265028 0.358441 0.000000000000000e+00 1870292837
-0.618893 2.254627 0.389677 0.000000000000000e+00 1870292837
-0.616510 2.255450 0.423368 0.000000000000000e+00 1851878480
-0.620567 2.243303 0.454549 0.000000000000000e+00 1851878480
-0.657005 2.165324 0.478055 0.000000000000000e+00 1851878480
-0.637057 2.201789 0.516468 0.000000000000000e+00 1851878480
-0.662729 2.145215 0.546513 0.000000000000000e+00 1851878480
-0.665181 2.135952 0.581193 0.000000000000000e+00 1851878480
-0.643766 2.175737 0.617153 0.000000000000000e+00 1851878480
-0.671456 2.114420 0.651995 0.000000000000000e+00 1851878480
-0.675374 2.101962 0.688085 0.000000000000000e+00 1851878480
-0.656286 2.137199 0.722013 0.000000000000000e+00 1851878480
-0.663831 2.117139 0.759124 0.000000000000000e+00 1851878480
-0.694778 2.119925 0.210479 0.000000000000000e+00 1851878480
-0.670980 2.097802 0.797010 0.000000000000000e+00 1851878480
-0.641683 2.221206 0.277909 0.000000000000000e+00 1851878480
-0.633217 2.233975 0.316509 0.000000000000000e+00 1851878480
-0.613558 2.259891 0.357460 0.000000000000000e+00 1870292837
-0.614869 2.253257 0.389547 0.000000000000000e+00 1851878480
-0.610751 2.257634 0.423849 0.000000000000000e+00 1851878480
-0.615027 2.244972 0.454848 0.000000000000000e+00 1851878480
-0.651106 2.167158 0.478282 0.000000000000000e+00 1851878480
-0.631124 2.204000 0.516634 0.000000000000000e+00 1851878480
-0.656727 2.147161 0.546549 0.000000000000000e+00 1851878480
-0.658947 2.138334 0.581146 0.000000000000000e+00 1851878480
-0.637120 2.179311 0.617022 0.000000000000000e+00 1851878480
-0.665148 2.116850 0.651718 0.000000000000000e+00 1851878480
-0.669008 2.104448 0.687690 0.000000000000000e+00 1851878480
-0.649788 2.140264 0.721477 0.000000000000000e+00 1851878480
-0.657149 2.120466 0.758429 0.000000000000000e+00 1851878480
-0.686712 2.125553 0.212625 0.000000000000000e+00 1851878480
-0.664121 2.101386 0.796144 0.000000000000000e+00 1851878480
-0.635413 2.224044 0.279023 0.000000000000000e+00 1851878480
-0.626892 2.237052 0.317551 0.000000000000000e+00 1851878480
-0.611418 2.254725 0.356471 0.000000000000000e+00 1870292837
-0.608741 2.256195 0.390287 0.000000000000000e+00 1851878480
-0.605053 2.259753 0.424316 0.000000000000000e+00 1851878480
-0.609515 2.246639 0.455145 0.000000000000000e+00 1851878480
-0.645257 2.168947 0.478502 0.000000000000000e+00 1851878480
-0.625227 2.206199 0.516798 0.000000000000000e+00 1851878480
-0.650759 2.149097 0.546584 0.000000000000000e+00 1851878480
-0.652751 2.140702 0.581098 0.000000000000000e+00 1851878480
-0.630528 2.182854 0.616891 0.000000000000000e+00 1851878480
-0.658880 2.119264 0.651443 0.000000000000000e+00 1851878480
-0.662682 2.106918 0.687297 0.000000000000000e+00 1851878480
-0.643346 2.143285 0.720948 0.000000000000000e+00 1851878480
-0.650535 2.123733 0.757745 0.000000000000000e+00 1851878480
-0.678941 2.130704 0.214615 0.000000000000000e+00 1851878480
-0.657344 2.104882 0.795294 0.000000000000000e+00 1851878480
-0.629254 2.226726 0.280088 0.000000000000000e+00 1851878480
-0.714130 1.979485 0.848427 0.000000000000000e+00 1851878480
-0.620636 2.240063 0.318572 0.000000000000000e+00 1851878480
-0.609267 2.249532 0.355474 0.000000000000000e+00 1870292837
-0.602680 2.259065 0.391010 0.000000000000000e+00 1851878480
-0.599406 2.261828 0.424774 0.000000000000000e+00 1851878480
-0.604032 2.248298 0.455439 0.000000000000000e+00 1851878480
-0.639439 2.170725 0.478720 0.000000000000000e+00 1851878480
-0.619361 2.208395 0.516962 0.000000000000000e+00 1851878480
-0.644825 2.151021 0.546618 0.000000000000000e+00 1851878480
-0.646596 2.143054 0.581051 0.000000000000000e+00 1851878480
-0.624025 2.186296 0.616761 0.000000000000000e+00 1851878480
-0.652651 2.121663 0.651170 0.000000000000000e+00 1851878480
-0.656396 2.109372 0.686909 0.000000000000000e+00 1851878480
-0.636970 2.146246 0.720425 0.000000000000000e+00 1851878480
-0.643982 2.126950 0.757069 0.000000000000000e+00 1851878480
-0.671593 2.135103 0.216364 0.000000000000000e+00 1851878480
-0.650615 2.108361 0.794450 0.000000000000000e+00 1851878480
-0.623168 2.229330 0.281126 0.000000000000000e+00 1851878480
-0.680355 2.040053 0.839656 0.000000000000000e+00 1851878480
-0.614433 2.243041 0.319580 0.000000000000000e+00 1851878480
-0.601473 2.255955 0.357134 0.000000000000000e+00 1851878480
-0.596722 2.261796 0.391702 0.000000000000000e+00 1851878480
-0.593800 2.263875 0.425225 0.000000000000000e+00 1851878480
-0.598580 2.249948 0.455730 0.000000000000000e+00 1851878480
-0.633654 2.172494 0.478936 0.000000000000000e+00 1851878480
-0.613525 2.210593 0.517125 0.000000000000000e+00 1851878480
-0.638924 2.152935 0.546652 0.000000000000000e+00 1851878480
-0.640479 2.145392 0.581005 0.000000000000000e+00 1851878480
-0.617596 2.189663 0.616631 0.000000000000000e+00 1851878480
-0.646462 2.124047 0.650900 0.000000000000000e+00 1851878480
-0.650150 2.111811 0.686523 0.000000000000000e+00 1851878480
-0.630651 2.149161 0.719909 0.000000000000000e+00 1851878480
-0.637487 2.130121 0.756402 0.000000000000000e+00 1851878480
-0.664698 2.138677 0.217848 0.000000000000000e+00 1851878480
-0.643958 2.111769 0.793620 0.000000000000000e+00 1851878480
-0.617126 2.231915 0.282154 0.000000000000000e+00 1851878480
-0.663103 2.065874 0.835632 0.000000000000000e+00 1851878480
-0.608292 2.245963 0.320569 0.000000000000000e+00 1851878480
-0.594613 2.260563 0.358374 0.000000000000000e+00 1851878480
-0.590834 2.264451 0.392376 0.000000000000000e+00 1851878480
-0.588240 2.265888 0.425668 0.000000000000000e+00 1851878480
-0.593168 2.251568 0.456016 0.000000000000000e+00 1851878480
-0.628016 2.174010 0.479120 0.000000000000000e+00 1851878480
-0.607752 2.212720 0.517281 0.000000000000000e+00 1851878480
-0.633057 2.154837 0.546685 0.000000000000000e+00 1851878480
-0.634400 2.147716 0.580958 0.000000000000000e+00 1851878480
-0.611248 2.192938 0.616501 0.000000000000000e+00 1851878480
-0.640312 2.126415 0.650632 0.000000000000000e+00 1851878480
-0.643943 2.114233 0.686141 0.000000000000000e+00 1851878480
-0.624393 2.152020 0.719400 0.000000000000000e+00 1851878480
-0.631053 2.133242 0.755743 0.000000000000000e+00 1851878480
-0.658191 2.141533 0.219103 0.000000000000000e+00 1851878480
-0.637358 2.115139 0.792800 0.000000000000000e+00 1851878480
-0.611155 2.234421 0.283154 0.000000000000000e+00 1851878480
-0.651718 2.079344 0.833297 0.000000000000000e+00 1851878480
-0.602235 2.248787 0.321529 0.000000000000000e+00 1851878480
-0.588353 2.264008 0.359344 0.000000000000000e+00 1851878480
-0.585079 2.266895 0.393004 0.000000000000000e+00 1851878480
-0.582713 2.267889 0.426107 0.000000000000000e+00 1851878480
-0.587783 2.253182 0.456299 0.000000000000000e+00 1851878480
-0.622520 2.175277 0.479272 0.000000000000000e+00 1851878480
-0.602032 2.214795 0.517432 0.000000000000000e+00 1851878480
-0.627223 2.156729 0.546718 0.000000000000000e+00 1851878480
-0.628359 2.150025 0.580912 0.000000000000000e+00 1851878480
-0.604941 2.196207 0.616372 0.000000000000000e+00 1851878480
-0.634199 2.128769 0.650367 0.000000000000000e+00 1851878480
-0.637776 2.116640 0.685763 0.000000000000000e+00 1851878480
-0.618209 2.154792 0.718900 0.000000000000000e+00 1851878480
-0.624682 2.136307 0.755094 0.000000000000000e+00 1851878480
-0.652024 2.143759 0.220157 0.000000000000000e+00 1851878480
-0.630818 2.118463 0.791990 0.000000000000000e+00 1851878480
-0.605413 2.236515 0.284033 0.000000000000000e+00 1851878480
-0.643059 2.087073 0.831747 0.000000000000000e+00 1851878480
-0.596232 2.251571 0.322475 0.000000000000000e+00 1851878480
-0.582453 2.266772 0.360155 0.000000000000000e+00 1851878480
-0.579421 2.269198 0.393602 0.000000000000000e+00 1851878480
-0.577229 2.269859 0.426539 0.000000000000000e+00 1851878480
-0.582427 2.254788 0.456580 0.000000000000000e+00 1851878480
-0.617050 2.176539 0.479423 0.000000000000000e+00 1851878480
-0.596362 2.216826 0.517578 0.000000000000000e+00 1851878480
-0.621422 2.158611 0.546750 0.000000000000000e+00 1851878480
-0.622355 2.152319 0.580866 0.000000000000000e+00 1851878480
-0.598702 2.199409 0.616245 0.000000000000000e+00 1851878480
-0.628125 2.131108 0.650103 0.000000000000000e+00 1851878480
-0.631647 2.119032 0.685387 0.000000000000000e+00 1851878480
-0.612073 2.157534 0.718405 0.000000000000000e+00 1851878480
-0.864383 1.694087 0.029748 0.000000000000000e+00 1701537140
-0.618377 2.139304 0.754454 0.000000000000000e+00 1851878480
-0.647709 2.142167 0.220019 0.000000000000000e+00 1851878480
-0.624347 2.121717 0.791192 0.000000000000000e+00 1851878480
-0.599718 2.238575 0.284898 0.000000000000000e+00 1851878480
-0.635728 2.092013 0.830581 0.000000000000000e+00 1851878480
-0.590318 2.254238 0.323387 0.000000000000000e+00 1851878480
-0.576633 2.269439 0.360941 0.000000000000000e+00 1851878480
-0.573872 2.271333 0.394163 0.000000000000000e+00 1851878480
-0.571803 2.271763 0.426956 0.000000000000000e+00 1851878480
-0.577111 2.256362 0.456855 0.000000000000000e+00 1851878480
-0.611605 2.177795 0.479573 0.000000000000000e+00 1851878480
-0.590724 2.218847 0.517724 0.000000000000000e+00 1851878480
-0.615653 2.160482 0.546782 0.000000000000000e+00 1851878480
-0.616388 2.154600 0.580821 0.000000000000000e+00 1851878480
-0.592502 2.202605 0.616118 0.000000000000000e+00 1851878480
-0.622088 2.133432 0.649842 0.000000000000000e+00 1851878480
-0.625557 2.121408 0.685015 0.000000000000000e+00 1851878480
-0.606030 2.160145 0.717921 0.000000000000000e+00 1851878480
-0.853802 1.702150 0.033019 0.000000000000000e+00 1701537140
-0.612139 2.142232 0.753825 0.000000000000000e+00 1851878480
-0.647466 2.131978 0.217210 0.000000000000000e+00 1851878480
-0.617930 2.124932 0.790405 0.000000000000000e+00 1851878480
-0.594058 2.240619 0.285754 0.000000000000000e+00 1851878480
-0.629261 2.095136 0.829664 0.000000000000000e+00 1851878480
-0.584487 2.256797 0.324267 0.000000000000000e+00 1851878480
-0.571021 2.271729 0.361638 0.000000000000000e+00 1851878480
-0.568364 2.273443 0.394716 0.000000000000000e+00 1851878480
-0.566409 2.273657 0.427371 0.000000000000000e+00 1851878480
-0.571833 2.257908 0.457124 0.000000000000000e+00 1851878480
-0.606187 2.179045 0.479720 0.000000000000000e+00 1851878480
-0.585114 2.220869 0.517868 0.000000000000000e+00 1851878480
-0.609916 2.162343 0.546813 0.000000000000000e+00 1851878480
-0.610459 2.156866 0.580775 0.000000000000000e+00 1851878480
-0.586367 2.205740 0.615993 0.000000000000000e+00 1851878480
-0.616089 2.135741 0.649584 0.000000000000000e+00 1851878480
-0.619504 2.123769 0.684647 0.000000000000000e+00 1851878480
-0.600043 2.162701 0.717443 0.000000000000000e+00 1851878480
-0.845316 1.705935 0.034832 0.000000000000000e+00 1701537140
-0.605964 2.145096 0.753206 0.000000000000000e+00 1851878480
-0.647344 2.121403 0.214282 0.000000000000000e+00 1851878480
-0.611577 2.128089 0.789628 0.000000000000000e+00 1851878480
-0.588485 2.242539 0.286570 0.000000000000000e+00 1851878480
-0.623176 2.097483 0.828858 0.000000000000000e+00 1851878480
-0.578705 2.259325 0.325135 0.000000000000000e+00 1851878480
-0.565450 2.273993 0.362325 0.000000000000000e+00 1851878480
-0.562961 2.275383 0.395233 0.000000000000000e+00 1851878480
-0.561045 2.275541 0.427781 0.000000000000000e+00 1851878480
-0.566581 2.259447 0.457390 0.000000000000000e+00 1851878480
-0.600793 2.180289 0.479866 0.000000000000000e+00 1851878480
-0.579535 2.222883 0.518012 0.000000000000000e+00 1851878480
-0.604211 2.164193 0.546844 0.000000000000000e+00 1851878480
-0.604564 2.159119 0.580730 0.000000000000000e+00 1851878480
-0.580304 2.208792 0.615867 0.000000000000000e+00 1851878480
-0.610126 2.138036 0.649327 0.000000000000000e+00 1851878480
-0.613488 2.126115 0.684281 0.000000000000000e+00 1851878480
-0.594095 2.165241 0.716970 0.000000000000000e+00 1851878480
-0.837166 1.709100 0.036427 0.000000000000000e+00 1701537140
-0.599838 2.147924 0.752593 0.000000000000000e+00 1851878480
-0.647224 2.110682 0.211311 0.000000000000000e+00 1851878480
-0.605286 2.131185 0.788863 0.000000000000000e+00 1851878480
-0.582963 2.244407 0.287368 0.000000000000000e+00 1851878480
-0.617257 2.099519 0.828098 0.000000000000000e+00 1851878480
-0.573049 2.261644 0.325946 0.000000000000000e+00 1851878480
-0.560011 2.276033 0.362958 0.000000000000000e+00 1851878480
-0.557592 2.277309 0.395744 0.000000000000000e+00 1851878480
-0.555728 2.277378 0.428182 0.000000000000000e+00 1851878480
-0.561356 2.260979 0.457654 0.000000000000000e+00 1851878480
-0.595423 2.181527 0.480011 0.000000000000000e+00 1851878480
-0.573997 2.224866 0.518153 0.000000000000000e+00 1851878480
-0.598536 2.166034 0.546874 0.000000000000000e+00 1851878480
-0.598705 2.161358 0.580686 0.000000000000000e+00 1851878480
-0.574285 2.211821 0.615743 0.000000000000000e+00 1851878480
-0.604199 2.140318 0.649073 0.000000000000000e+00 1851878480
-0.607509 2.128447 0.683919 0.000000000000000e+00 1851878480
-0.588244 2.167630 0.716509 0.000000000000000e+00 1851878480
-0.829081 1.712217 0.037997 0.000000000000000e+00 1701537140
-0.593795 2.150640 0.751994 0.000000000000000e+00 1851878480
-0.647175 2.099667 0.208249 0.000000000000000e+00 1851878480
-0.599055 2.134223 0.788110 0.000000000000000e+00 1851878480
-0.577471 2.246270 0.288159 0.000000000000000e+00 1851878480
-0.606898 2.111775 0.825986 0.000000000000000e+00 1851878480
-0.567431 2.263946 0.326749 0.000000000000000e+00 1851878480
-0.554621 2.278023 0.363577 0.000000000000000e+00 1851878480
-0.552261 2.279207 0.396247 0.000000000000000e+00 1851878480
-0.550458 2.279170 0.428572 0.000000000000000e+00 1851878480
-0.556183 2.262448 0.457908 0.000000000000000e+00 1851878480
-0.590078 2.182760 0.480154 0.000000000000000e+00 1851878480
-0.568490 2.226840 0.518292 0.000000000000000e+00 1851878480
-0.592892 2.167864 0.546904 0.000000000000000e+00 1851878480
-0.592882 2.163584 0.580641 0.000000000000000e+00 1851878480
-0.568651 2.214060 0.615604 0.000000000000000e+00 1851878480
-0.598307 2.142585 0.648820 0.000000000000000e+00 1851878480
-0.601566 2.130765 0.683560 0.000000000000000e+00 1851878480
-0.582455 2.169947 0.716055 0.000000000000000e+00 1851878480
-0.821140 1.715110 0.039484 0.000000000000000e+00 1701537140
-0.587810 2.153295 0.751404 0.000000000000000e+00 1851878480
-0.647213 2.088316 0.205084 0.000000000000000e+00 1851878480
-0.592882 2.137208 0.787367 0.000000000000000e+00 1851878480
-0.571973 2.248201 0.288966 0.000000000000000e+00 1851878480
-0.598522 2.119688 0.824461 0.000000000000000e+00 1851878480
-0.561860 2.266210 0.327539 0.000000000000000e+00 1851878480
-0.549267 2.279995 0.364189 0.000000000000000e+00 1851878480
-0.547005 2.280995 0.396726 0.000000000000000e+00 1851878480
-0.545218 2.280949 0.428959 0.000000000000000e+00 1851878480
-0.551035 2.263911 0.458159 0.000000000000000e+00 1851878480
-0.584758 2.183987 0.480295 0.000000000000000e+00 1851878480
-0.563014 2.228803 0.518430 0.000000000000000e+00 1851878480
-0.587279 2.169685 0.546934 0.000000000000000e+00 1851878480
-0.587121 2.165732 0.580594 0.000000000000000e+00 1851878480
-0.563354 2.215594 0.615453 0.000000000000000e+00 1851878480
-0.592450 2.144839 0.648570 0.000000000000000e+00 1851878480
-0.595658 2.133069 0.683204 0.000000000000000e+00 1851878480
-0.576708 2.172234 0.715606 0.000000000000000e+00 1851878480
-0.813447 1.717547 0.040809 0.000000000000000e+00 1701537140
-0.581878 2.155905 0.750821 0.000000000000000e+00 1851878480
-0.647370 2.076552 0.201793 0.000000000000000e+00 1851878480
-0.586774 2.140123 0.786636 0.000000000000000e+00 1851878480
-0.566535 2.250060 0.289748 0.000000000000000e+00 1851878480
-0.591292 2.125099 0.823275 0.000000000000000e+00 1851878480
-0.556386 2.268322 0.328286 0.000000000000000e+00 1851878480
-0.544005 2.281817 0.364763 0.000000000000000e+00 1851878480
-0.541779 2.282773 0.397200 0.000000000000000e+00 1851878480
-0.540008 2.282718 0.429342 0.000000000000000e+00 1851878480
-0.545913 2.265367 0.458408 0.000000000000000e+00 1851878480
-0.579461 2.185209 0.480435 0.000000000000000e+00 1851878480
-0.557650 2.230574 0.518549 0.000000000000000e+00 1851878480
-0.581696 2.171496 0.546963 0.000000000000000e+00 1851878480
-0.581530 2.167557 0.580533 0.000000000000000e+00 1851878480
-0.558084 2.217121 0.615302 0.000000000000000e+00 1851878480
-0.586629 2.147079 0.648322 0.000000000000000e+00 1851878480
-0.589786 2.135357 0.682851 0.000000000000000e+00 1851878480
-0.571027 2.174434 0.715164 0.000000000000000e+00 1851878480
-0.806143 1.719204 0.041864 0.000000000000000e+00 1701537140
-0.576014 2.158424 0.750250 0.000000000000000e+00 1851878480
-0.647677 2.064295 0.198351 0.000000000000000e+00 1851878480
-0.580735 2.142952 0.785919 0.000000000000000e+00 1851878480
-0.561109 2.251951 0.290535 0.000000000000000e+00 1851878480
-0.584575 2.129427 0.822239 0.000000000000000e+00 1851878480
-0.550946 2.270419 0.329026 0.000000000000000e+00 1851878480
-0.538781 2.283612 0.365329 0.000000000000000e+00 1851878480
-0.536582 2.284541 0.397670 0.000000000000000e+00 1851878480
-0.534859 2.284403 0.429708 0.000000000000000e+00 1851878480
-0.540825 2.266795 0.458651 0.000000000000000e+00 1851878480
-0.574189 2.186425 0.480573 0.000000000000000e+00 1851878480
-0.552392 2.232157 0.518650 0.000000000000000e+00 1851878480
-0.576142 2.173297 0.546991 0.000000000000000e+00 1851878480
-0.575969 2.169371 0.580472 0.000000000000000e+00 1851878480
-0.552839 2.218639 0.615153 0.000000000000000e+00 1851878480
-0.580841 2.149306 0.648076 0.000000000000000e+00 1851878480
-0.583949 2.137633 0.682501 0.000000000000000e+00 1851878480
-0.565393 2.176590 0.714729 0.000000000000000e+00 1851878480
-0.798994 1.720580 0.042818 0.000000000000000e+00 1701537140
-0.570188 2.160927 0.749684 0.000000000000000e+00 1851878480
-0.648247 2.051279 0.194677 0.000000000000000e+00 1851878480
-0.574737 2.145761 0.785209 0.000000000000000e+00 1851878480
-0.555680 2.253906 0.291336 0.000000000000000e+00 1851878480
-0.578197 2.133053 0.821302 0.000000000000000e+00 1851878480
-0.545539 2.272507 0.329759 0.000000000000000e+00 1851878480
-0.533587 2.285396 0.365889 0.000000000000000e+00 1851878480
-0.531447 2.286225 0.398121 0.000000000000000e+00 1851878480
-0.529738 2.286079 0.430071 0.000000000000000e+00 1851878480
-0.535780 2.268179 0.458887 0.000000000000000e+00 1851878480
-0.568940 2.187635 0.480710 0.000000000000000e+00 1851878480
-0.547161 2.233732 0.518749 0.000000000000000e+00 1851878480
-0.570619 2.175089 0.547019 0.000000000000000e+00 1851878480
-0.570438 2.171176 0.580412 0.000000000000000e+00 1851878480
-0.547622 2.220151 0.615004 0.000000000000000e+00 1851878480
-0.575089 2.151519 0.647833 0.000000000000000e+00 1851878480
-0.578147 2.139894 0.682154 0.000000000000000e+00 1851878480
-0.559804 2.178704 0.714298 0.000000000000000e+00 1851878480
-0.792367 1.720851 0.043393 0.000000000000000e+00 1701537140
-0.564418 2.163370 0.749126 0.000000000000000e+00 1851878480
-0.649110 2.037424 0.190746 0.000000000000000e+00 1851878480
-0.568811 2.148479 0.784514 0.000000000000000e+00 1851878480
-0.550278 2.255861 0.292133 0.000000000000000e+00 1851878480
-0.572034 2.136261 0.820426 0.000000000000000e+00 1851878480
-0.540216 2.274465 0.330456 0.000000000000000e+00 1851878480
-0.528448 2.287110 0.366430 0.000000000000000e+00 1851878480
-0.526347 2.287883 0.398564 0.000000000000000e+00 1851878480
-0.524644 2.287747 0.430431 0.000000000000000e+00 1851878480
-0.530757 2.269559 0.459121 0.000000000000000e+00 1851878480
-0.563714 2.188841 0.480845 0.000000000000000e+00 1851878480
-0.541956 2.235299 0.518847 0.000000000000000e+00 1851878480
-0.565124 2.176872 0.547047 0.000000000000000e+00 1851878480
-0.564935 2.172971 0.580351 0.000000000000000e+00 1851878480
-0.542429 2.221655 0.614857 0.000000000000000e+00 1851878480
-0.569369 2.153719 0.647591 0.000000000000000e+00 1851878480
-0.572379 2.142142 0.681810 0.000000000000000e+00 1851878480
-0.554250 2.180800 0.713872 0.000000000000000e+00 1851878480
-0.785768 1.721098 0.043954 0.000000000000000e+00 1701537140
-0.558688 2.165785 0.748575 0.000000000000000e+00 1851878480
-0.650463 2.022258 0.186412 0.000000000000000e+00 1851878480
-0.562943 2.151129 0.783829 0.000000000000000e+00 1851878480
-0.544918 2.257780 0.292915 0.000000000000000e+00 1851878480
-0.566029 2.139169 0.819594 0.000000000000000e+00 1851878480
-0.534927 2.276402 0.331145 0.000000000000000e+00 1851878480
-0.523356 2.288769 0.366956 0.000000000000000e+00 1851878480
-0.521273 2.289531 0.399003 0.000000000000000e+00 1851878480
-0.519590 2.289376 0.430782 0.000000000000000e+00 1851878480
-0.525758 2.270933 0.459352 0.000000000000000e+00 1851878480
-0.558511 2.190041 0.480979 0.000000000000000e+00 1851878480
-0.536778 2.236858 0.518945 0.000000000000000e+00 1851878480
-0.559657 2.178645 0.547074 0.000000000000000e+00 1851878480
-0.559461 2.174757 0.580292 0.000000000000000e+00 1851878480
-0.537261 2.223151 0.614710 0.000000000000000e+00 1851878480
-0.563683 2.155907 0.647351 0.000000000000000e+00 1851878480
-0.566644 2.144377 0.681469 0.000000000000000e+00 1851878480
-0.548731 2.182875 0.713450 0.000000000000000e+00 1851878480
-0.779640 1.720315 0.044163 0.000000000000000e+00 1701537140
-0.553010 2.168144 0.748031 0.000000000000000e+00 1851878480
-0.652509 2.005282 0.181524 0.000000000000000e+00 1851878480
-0.557120 2.153745 0.783153 0.000000000000000e+00 1851878480
-0.539546 2.259785 0.293718 0.000000000000000e+00 1851878480
-0.560121 2.141921 0.818787 0.000000000000000e+00 1851878480
-0.529669 2.278327 0.331827 0.000000000000000e+00 1851878480
-0.518291 2.290417 0.367477 0.000000000000000e+00 1851878480
-0.516231 2.291160 0.399436 0.000000000000000e+00 1851878480
-0.514584 2.290945 0.431121 0.000000000000000e+00 1851878480
-0.520798 2.272264 0.459576 0.000000000000000e+00 1851878480
-0.553330 2.191236 0.481111 0.000000000000000e+00 1851878480
-0.531625 2.238410 0.519041 0.000000000000000e+00 1851878480
-0.554219 2.180409 0.547101 0.000000000000000e+00 1851878480
-0.554016 2.176534 0.580232 0.000000000000000e+00 1851878480
-0.532119 2.224641 0.614565 0.000000000000000e+00 1851878480
-0.558029 2.158082 0.647113 0.000000000000000e+00 1851878480
-0.560943 2.146598 0.681131 0.000000000000000e+00 1851878480
-0.543255 2.184908 0.713033 0.000000000000000e+00 1851878480
-0.773549 1.719471 0.044346 0.000000000000000e+00 1701537140
-0.547367 2.170487 0.747493 0.000000000000000e+00 1851878480
-0.655448 1.985991 0.175927 0.000000000000000e+00 1851878480
-0.551360 2.156280 0.782490 0.000000000000000e+00 1851878480
-0.534259 2.261653 0.294478 0.000000000000000e+00 1851878480
-0.554280 2.144585 0.817997 0.000000000000000e+00 1851878480
-0.524465 2.280186 0.332488 0.000000000000000e+00 1851878480
-0.513255 2.292053 0.367992 0.000000000000000e+00 1851878480
-0.511243 2.292714 0.399851 0.000000000000000e+00 1851878480
-0.509605 2.292505 0.431457 0.000000000000000e+00 1851878480
-0.515868 2.273571 0.459795 0.000000000000000e+00 1851878480
-0.548173 2.192426 0.481241 0.000000000000000e+00 1851878480
-0.526498 2.239953 0.519136 0.000000000000000e+00 1851878480
-0.548809 2.182164 0.547127 0.000000000000000e+00 1851878480
-0.548599 2.178301 0.580173 0.000000000000000e+00 1851878480
-0.527002 2.226123 0.614420 0.000000000000000e+00 1851878480
-0.552407 2.160244 0.646877 0.000000000000000e+00 1851878480
-0.555274 2.148807 0.680796 0.000000000000000e+00 1851878480
-0.537778 2.187007 0.712615 0.000000000000000e+00 1851878480
-0.767603 1.718315 0.044419 0.000000000000000e+00 1701537140
-0.541763 2.172803 0.746961 0.000000000000000e+00 1851878480
-0.658622 1.965864 0.170077 0.000000000000000e+00 1851878480
-0.545642 2.158784 0.781834 0.000000000000000e+00 1851878480
-0.529000 2.263514 0.295232 0.000000000000000e+00 1851878480
-0.548545 2.147064 0.817236 0.000000000000000e+00 1851878480
-0.519305 2.282001 0.333135 0.000000000000000e+00 1851878480
-0.508280 2.293597 0.368484 0.000000000000000e+00 1851878480
-0.506283 2.294256 0.400262 0.000000000000000e+00 1851878480
-0.504650 2.294057 0.431790 0.000000000000000e+00 1851878480
-0.510961 2.274874 0.460012 0.000000000000000e+00 1851878480
-0.543037 2.193610 0.481371 0.000000000000000e+00 1851878480
-0.521396 2.241489 0.519230 0.000000000000000e+00 1851878480
-0.543428 2.183910 0.547153 0.000000000000000e+00 1851878480
-0.543210 2.180060 0.580114 0.000000000000000e+00 1851878480
-0.521958 2.227478 0.614274 0.000000000000000e+00 1851878480
-0.546818 2.162393 0.646643 0.000000000000000e+00 1851878480
-0.549638 2.151002 0.680463 0.000000000000000e+00 1851878480
-0.532340 2.189075 0.712202 0.000000000000000e+00 1851878480
