# .PCD v0.7 - Point Cloud Data file format
VERSION 0.7
FIELDS x y z rgb label
SIZE 4 4 4 4 4
TYPE F F F F U
COUNT 1 1 1 1 1
WIDTH 798
HEIGHT 1
VIEWPOINT 0 0 0 1 0 0 0
POINTS 798
DATA ascii
-0.001740 2.222269 0.685268 0.000000000000000e+00 1851878480
-0.014438 2.324606 0.258910 0.000000000000000e+00 1851878480
-0.000830 2.224383 0.715080 0.000000000000000e+00 1851878480
-0.013017 2.368523 0.302255 0.000000000000000e+00 1851878480
0.000074 2.190878 0.747529 0.000000000000000e+00 1851878480
-0.011467 2.432448 0.348251 0.000000000000000e+00 1851878480
0.000969 2.237150 0.773341 0.000000000000000e+00 1768191329
-0.011335 2.365227 0.357921 0.000000000000000e+00 1851878480
0.001661 2.382854 0.784618 0.000000000000000e+00 1851878480
-0.007176 2.340578 0.380290 0.000000000000000e+00 1851878480
-0.005810 2.435390 0.427492 0.000000000000000e+00 1851878480
-0.005435 2.350053 0.438168 0.000000000000000e+00 1851878480
-0.004761 2.311872 0.459731 0.000000000000000e+00 1851878480
-0.003870 2.324596 0.489498 0.000000000000000e+00 1851878480
-0.002948 2.358702 0.520763 0.000000000000000e+00 1851878480
-0.002176 2.337004 0.545894 0.000000000000000e+00 1851878480
-0.001365 2.330374 0.572622 0.000000000000000e+00 1851878480
-0.000517 2.389924 0.601954 0.000000000000000e+00 1851878480
0.000318 2.176850 0.625279 0.000000000000000e+00 1851878480
0.001128 2.301154 0.654637 0.000000000000000e+00 1851878480
-0.012672 2.232340 0.195957 0.000000000000000e+00 7103860
0.002105 2.217505 0.685314 0.000000000000000e+00 1851878480
-0.010829 2.324993 0.258928 0.000000000000000e+00 1851878480
0.002962 2.238461 0.714155 0.000000000000000e+00 1851878480
-0.009652 2.356568 0.298563 0.000000000000000e+00 1851878480
0.004031 2.179040 0.748366 0.000000000000000e+00 1851878480
-0.008321 2.416952 0.343892 0.000000000000000e+00 1851878480
0.004781 2.227799 0.774200 0.000000000000000e+00 1768191329
-0.007899 2.360947 0.356746 0.000000000000000e+00 1851878480
0.004910 2.402282 0.782033 0.000000000000000e+00 1851878480
-0.003635 2.342215 0.380551 0.000000000000000e+00 1851878480
-0.002608 2.418801 0.424054 0.000000000000000e+00 1851878480
-0.001989 2.320155 0.432768 0.000000000000000e+00 1851878480
-0.001136 2.329142 0.462268 0.000000000000000e+00 1851878480
-0.000301 2.345057 0.492041 0.000000000000000e+00 1851878480
0.000499 2.379970 0.522913 0.000000000000000e+00 1851878480
0.001333 2.343904 0.546356 0.000000000000000e+00 1851878480
0.002168 2.329875 0.572486 0.000000000000000e+00 1851878480
0.002818 2.394876 0.602031 0.000000000000000e+00 1851878480
0.004291 2.180648 0.625206 0.000000000000000e+00 1851878480
0.004750 2.296781 0.654575 0.000000000000000e+00 1851878480
-0.008867 2.219564 0.191344 0.000000000000000e+00 7103860
0.005858 2.238780 0.684477 0.000000000000000e+00 1851878480
-0.007139 2.339005 0.263383 0.000000000000000e+00 1851878480
0.006808 2.226781 0.714712 0.000000000000000e+00 1851878480
-0.006198 2.347600 0.295764 0.000000000000000e+00 1851878480
0.008132 2.155159 0.750174 0.000000000000000e+00 1851878480
-0.005065 2.404809 0.340451 0.000000000000000e+00 1851878480
0.008647 2.218825 0.775020 0.000000000000000e+00 1851878480
-0.004423 2.360375 0.356497 0.000000000000000e+00 1851878480
0.008343 2.381592 0.784579 0.000000000000000e+00 1768191329
-0.000104 2.350538 0.382319 0.000000000000000e+00 1851878480
0.000679 2.427171 0.425638 0.000000000000000e+00 1851878480
0.001587 2.329314 0.434280 0.000000000000000e+00 1851878480
0.002451 2.313860 0.459816 0.000000000000000e+00 1851878480
0.003216 2.339701 0.491239 0.000000000000000e+00 1851878480
0.003941 2.365462 0.521270 0.000000000000000e+00 1851878480
0.004805 2.349577 0.546718 0.000000000000000e+00 1851878480
0.005812 2.307163 0.571034 0.000000000000000e+00 1851878480
0.006143 2.396373 0.601984 0.000000000000000e+00 1851878480
0.008274 2.178985 0.625066 0.000000000000000e+00 1851878480
0.008412 2.290617 0.654533 0.000000000000000e+00 1851878480
-0.004957 2.213430 0.189061 0.000000000000000e+00 7103860
0.009754 2.224693 0.684841 0.000000000000000e+00 1851878480
-0.003585 2.336481 0.262448 0.000000000000000e+00 1851878480
0.010611 2.228755 0.714485 0.000000000000000e+00 1851878480
-0.002622 2.368021 0.301785 0.000000000000000e+00 1851878480
0.012006 2.172218 0.748681 0.000000000000000e+00 1851878480
-0.001693 2.419376 0.344354 0.000000000000000e+00 1851878480
0.012606 2.205786 0.776264 0.000000000000000e+00 1851878480
-0.000934 2.370925 0.359029 0.000000000000000e+00 1851878480
0.011822 2.368382 0.786168 0.000000000000000e+00 1768191329
0.003354 2.366462 0.385803 0.000000000000000e+00 1851878480
0.003908 2.437576 0.427632 0.000000000000000e+00 1851878480
0.005187 2.320003 0.432519 0.000000000000000e+00 1851878480
0.005988 2.326443 0.461635 0.000000000000000e+00 1851878480
0.006823 2.324488 0.489157 0.000000000000000e+00 1851878480
0.007407 2.360790 0.520669 0.000000000000000e+00 1851878480
0.008196 2.361797 0.547622 0.000000000000000e+00 1851878480
0.009351 2.315166 0.571400 0.000000000000000e+00 1851878480
0.009539 2.388399 0.601597 0.000000000000000e+00 1851878480
0.012382 2.165038 0.624771 0.000000000000000e+00 1851878480
0.011963 2.299212 0.654334 0.000000000000000e+00 1851878480
-0.001007 2.211641 0.188302 0.000000000000000e+00 7103860
0.013603 2.222863 0.684790 0.000000000000000e+00 1851878480
-0.000017 2.348590 0.266280 0.000000000000000e+00 1851878480
0.014320 2.237838 0.713854 0.000000000000000e+00 1851878480
0.000839 2.375768 0.304000 0.000000000000000e+00 1851878480
0.016228 2.151771 0.750211 0.000000000000000e+00 1851878480
0.001577 2.442118 0.350508 0.000000000000000e+00 1851878480
0.016476 2.205770 0.776153 0.000000000000000e+00 1851878480
0.002508 2.373367 0.359531 0.000000000000000e+00 1851878480
0.015129 2.373775 0.785383 0.000000000000000e+00 1768191329
0.006936 2.345657 0.380994 0.000000000000000e+00 1851878480
0.007119 2.441158 0.428251 0.000000000000000e+00 1851878480
0.008545 2.350966 0.437897 0.000000000000000e+00 1851878480
0.009548 2.326985 0.461606 0.000000000000000e+00 1851878480
0.010147 2.351683 0.492578 0.000000000000000e+00 1851878480
0.010658 2.381622 0.522778 0.000000000000000e+00 1851878480
0.011920 2.334199 0.545234 0.000000000000000e+00 1851878480
0.012707 2.335519 0.572501 0.000000000000000e+00 1851878480
0.012834 2.393360 0.601676 0.000000000000000e+00 1851878480
0.016323 2.171530 0.624734 0.000000000000000e+00 1851878480
0.015528 2.302813 0.654190 0.000000000000000e+00 1851878480
0.002929 2.221096 0.191498 0.000000000000000e+00 7103860
0.017393 2.226257 0.684563 0.000000000000000e+00 1851878480
0.003552 2.336503 0.262221 0.000000000000000e+00 1851878480
0.018306 2.223929 0.714539 0.000000000000000e+00 1851878480
0.004334 2.362155 0.299797 0.000000000000000e+00 1851878480
0.019998 2.169699 0.748654 0.000000000000000e+00 1851878480
0.004837 2.436851 0.348952 0.000000000000000e+00 1851878480
0.019977 2.229376 0.773593 0.000000000000000e+00 1851878480
0.005950 2.373196 0.359377 0.000000000000000e+00 1851878480
0.018303 2.385321 0.783816 0.000000000000000e+00 1851878480
0.010505 2.340296 0.379668 0.000000000000000e+00 1851878480
0.010404 2.435017 0.426908 0.000000000000000e+00 1851878480
0.012291 2.327038 0.433539 0.000000000000000e+00 1851878480
0.013133 2.324927 0.461178 0.000000000000000e+00 1851878480
0.013691 2.346599 0.491808 0.000000000000000e+00 1851878480
0.014166 2.372000 0.521649 0.000000000000000e+00 1851878480
0.015375 2.339574 0.545572 0.000000000000000e+00 1851878480
0.016355 2.326124 0.571836 0.000000000000000e+00 1851878480
0.016427 2.375941 0.600944 0.000000000000000e+00 1851878480
0.020241 2.176996 0.624686 0.000000000000000e+00 1851878480
0.018956 2.313708 0.653972 0.000000000000000e+00 1851878480
0.006906 2.212159 0.188216 0.000000000000000e+00 7103860
0.021313 2.220615 0.684642 0.000000000000000e+00 1851878480
0.007058 2.346797 0.265458 0.000000000000000e+00 1851878480
0.022068 2.227721 0.714214 0.000000000000000e+00 1851878480
0.007876 2.353981 0.297222 0.000000000000000e+00 1851878480
0.024196 2.157879 0.749491 0.000000000000000e+00 1851878480
0.008128 2.431627 0.347405 0.000000000000000e+00 1851878480
0.023777 2.229438 0.773480 0.000000000000000e+00 1851878480
0.009499 2.360280 0.356027 0.000000000000000e+00 1851878480
0.021993 2.366806 0.786083 0.000000000000000e+00 1851878480
0.013956 2.347374 0.381151 0.000000000000000e+00 1851878480
0.013517 2.445170 0.428851 0.000000000000000e+00 1851878480
0.016063 2.311885 0.430734 0.000000000000000e+00 1851878480
0.016734 2.322723 0.460725 0.000000000000000e+00 1851878480
0.017320 2.337811 0.490556 0.000000000000000e+00 1851878480
0.017699 2.364578 0.520753 0.000000000000000e+00 1851878480
0.018551 2.360103 0.547166 0.000000000000000e+00 1851878480
0.020097 2.314574 0.571040 0.000000000000000e+00 1851878480
0.019610 2.387727 0.601272 0.000000000000000e+00 1851878480
0.024280 2.174067 0.624531 0.000000000000000e+00 1851878480
0.022860 2.296049 0.654050 0.000000000000000e+00 1851878480
0.010872 2.211024 0.187677 0.000000000000000e+00 7103860
0.025091 2.223948 0.684421 0.000000000000000e+00 1851878480
0.010852 2.318912 0.256235 0.000000000000000e+00 1851878480
0.025572 2.243133 0.713229 0.000000000000000e+00 1851878480
0.011331 2.359541 0.298774 0.000000000000000e+00 1851878480
0.027936 2.171242 0.748306 0.000000000000000e+00 1851878480
0.011563 2.415963 0.342978 0.000000000000000e+00 1851878480
0.027714 2.223168 0.774026 0.000000000000000e+00 1851878480
0.012854 2.371397 0.358698 0.000000000000000e+00 1851878480
0.024985 2.384358 0.783757 0.000000000000000e+00 1851878480
0.017380 2.353472 0.382412 0.000000000000000e+00 1851878480
0.017133 2.419788 0.423621 0.000000000000000e+00 1851878480
0.019371 2.330378 0.433901 0.000000000000000e+00 1851878480
0.020354 2.320177 0.460219 0.000000000000000e+00 1851878480
0.020631 2.349744 0.491997 0.000000000000000e+00 1851878480
0.020928 2.375871 0.521849 0.000000000000000e+00 1851878480
0.021884 2.366098 0.547558 0.000000000000000e+00 1851878480
0.023493 2.323874 0.571487 0.000000000000000e+00 1851878480
0.023090 2.381693 0.600952 0.000000000000000e+00 1851878480
0.028355 2.170310 0.624365 0.000000000000000e+00 1851878480
0.026050 2.315712 0.653746 0.000000000000000e+00 1851878480
0.015024 2.194387 0.181672 0.000000000000000e+00 7103860
0.029309 2.207046 0.684877 0.000000000000000e+00 1851878480
0.014312 2.332295 0.260475 0.000000000000000e+00 1851878480
0.029793 2.223852 0.714220 0.000000000000000e+00 1851878480
0.014559 2.379986 0.304800 0.000000000000000e+00 1851878480
0.031780 2.176993 0.747736 0.000000000000000e+00 1851878480
0.014728 2.426977 0.345899 0.000000000000000e+00 1851878480
0.031427 2.227560 0.773468 0.000000000000000e+00 1851878480
0.016293 2.372010 0.358734 0.000000000000000e+00 1851878480
0.028200 2.389058 0.783070 0.000000000000000e+00 1851878480
0.021177 2.337065 0.378580 0.000000000000000e+00 1851878480
0.020028 2.440718 0.427738 0.000000000000000e+00 1851878480
0.023169 2.318145 0.431610 0.000000000000000e+00 1851878480
0.023973 2.318459 0.459838 0.000000000000000e+00 1851878480
0.024787 2.317995 0.487751 0.000000000000000e+00 1851878480
0.024390 2.373282 0.521467 0.000000000000000e+00 1851878480
0.025784 2.345082 0.545706 0.000000000000000e+00 1851878480
0.027200 2.317211 0.570982 0.000000000000000e+00 1851878480
0.026100 2.397127 0.601415 0.000000000000000e+00 1851878480
0.032426 2.167681 0.624214 0.000000000000000e+00 1851878480
0.030003 2.300153 0.653801 0.000000000000000e+00 1851878480
0.019111 2.189262 0.179717 0.000000000000000e+00 7103860
0.033087 2.211235 0.684628 0.000000000000000e+00 1851878480
0.018095 2.319240 0.256081 0.000000000000000e+00 1851878480
0.033482 2.229194 0.713811 0.000000000000000e+00 1851878480
0.018716 2.334843 0.291094 0.000000000000000e+00 1851878480
0.035636 2.180996 0.747309 0.000000000000000e+00 1851878480
0.018049 2.424730 0.345164 0.000000000000000e+00 1851878480
0.035527 2.217011 0.774460 0.000000000000000e+00 1851878480
0.019830 2.366779 0.357302 0.000000000000000e+00 1851878480
0.031595 2.386421 0.783320 0.000000000000000e+00 1851878480
0.024605 2.342718 0.379737 0.000000000000000e+00 1851878480
0.023595 2.425285 0.424510 0.000000000000000e+00 1851878480
0.026212 2.342555 0.435831 0.000000000000000e+00 1851878480
0.027147 2.336299 0.462469 0.000000000000000e+00 1851878480
0.027895 2.337932 0.490235 0.000000000000000e+00 1851878480
0.027850 2.371428 0.521161 0.000000000000000e+00 1851878480
0.029043 2.354379 0.546372 0.000000000000000e+00 1851878480
0.030868 2.313604 0.570658 0.000000000000000e+00 1851878480
0.029951 2.377514 0.600599 0.000000000000000e+00 1851878480
0.036497 2.165651 0.624071 0.000000000000000e+00 1851878480
0.033635 2.299397 0.653706 0.000000000000000e+00 1851878480
0.022984 2.198089 0.182677 0.000000000000000e+00 7103860
0.036914 2.212842 0.684467 0.000000000000000e+00 1851878480
0.021362 2.338621 0.262277 0.000000000000000e+00 1851878480
0.037245 2.230956 0.713607 0.000000000000000e+00 1851878480
0.021547 2.373512 0.302603 0.000000000000000e+00 1851878480
0.039833 2.172911 0.747851 0.000000000000000e+00 1851878480
0.021278 2.427819 0.345898 0.000000000000000e+00 1851878480
0.039804 2.202794 0.775830 0.000000000000000e+00 1851878480
0.023347 2.364163 0.356523 0.000000000000000e+00 1851878480
0.035496 2.368154 0.785558 0.000000000000000e+00 1851878480
0.027779 2.357404 0.382939 0.000000000000000e+00 1851878480
0.026667 2.433380 0.426034 0.000000000000000e+00 1851878480
0.030134 2.326975 0.432940 0.000000000000000e+00 1851878480
0.031381 2.309799 0.458268 0.000000000000000e+00 1851878480
0.031518 2.334362 0.489655 0.000000000000000e+00 1851878480
0.031356 2.368309 0.520720 0.000000000000000e+00 1851878480
0.032412 2.357826 0.546552 0.000000000000000e+00 1851878480
0.033652 2.341182 0.572203 0.000000000000000e+00 1851878480
0.033009 2.388618 0.600906 0.000000000000000e+00 1851878480
0.040906 2.152863 0.623785 0.000000000000000e+00 1851878480
0.037260 2.299032 0.653608 0.000000000000000e+00 1851878480
0.026682 2.212678 0.187667 0.000000000000000e+00 7103860
0.039871 2.241625 0.683406 0.000000000000000e+00 1851878480
0.025148 2.328236 0.258748 0.000000000000000e+00 1851878480
0.040411 2.250833 0.712380 0.000000000000000e+00 1851878480
0.025269 2.361310 0.298801 0.000000000000000e+00 1851878480
0.044522 2.151363 0.749469 0.000000000000000e+00 1851878480
0.024382 2.435526 0.347905 0.000000000000000e+00 1851878480
0.043091 2.220465 0.773905 0.000000000000000e+00 1851878480
0.026248 2.388276 0.362455 0.000000000000000e+00 1851878480
0.038371 2.382969 0.783592 0.000000000000000e+00 1851878480
0.031622 2.344404 0.379870 0.000000000000000e+00 1851878480
0.029931 2.432905 0.425825 0.000000000000000e+00 1851878480
0.033756 2.325188 0.432501 0.000000000000000e+00 1851878480
0.033903 2.347067 0.463895 0.000000000000000e+00 1851878480
0.034915 2.339031 0.490150 0.000000000000000e+00 1851878480
0.034955 2.362834 0.520025 0.000000000000000e+00 1851878480
0.035975 2.354477 0.546166 0.000000000000000e+00 1851878480
0.037381 2.334137 0.571674 0.000000000000000e+00 1851878480
0.036347 2.389137 0.600827 0.000000000000000e+00 1851878480
0.044282 2.173417 0.623943 0.000000000000000e+00 1851878480
0.041226 2.288730 0.653608 0.000000000000000e+00 1851878480
0.030640 2.212696 0.187516 0.000000000000000e+00 7103860
0.044842 2.207402 0.684435 0.000000000000000e+00 1851878480
0.028886 2.322521 0.256740 0.000000000000000e+00 1851878480
0.045201 2.221429 0.713943 0.000000000000000e+00 1851878480
0.028772 2.360816 0.298519 0.000000000000000e+00 1851878480
0.048944 2.140857 0.750204 0.000000000000000e+00 1851878480
0.027483 2.441588 0.349458 0.000000000000000e+00 1851878480
0.047015 2.217946 0.774070 0.000000000000000e+00 1851878480
0.030738 2.347313 0.352038 0.000000000000000e+00 1851878480
0.042269 2.368011 0.785410 0.000000000000000e+00 1851878480
0.035558 2.330983 0.376700 0.000000000000000e+00 1851878480
0.033224 2.431629 0.425452 0.000000000000000e+00 1851878480
0.037454 2.321364 0.431696 0.000000000000000e+00 1851878480
0.037677 2.338797 0.462501 0.000000000000000e+00 1851878480
0.038101 2.349278 0.491373 0.000000000000000e+00 1851878480
0.038278 2.366524 0.520310 0.000000000000000e+00 1851878480
0.039456 2.354092 0.546026 0.000000000000000e+00 1851878480
0.040768 2.338093 0.571805 0.000000000000000e+00 1851878480
0.039365 2.398548 0.601075 0.000000000000000e+00 1851878480
0.047420 2.197116 0.624148 0.000000000000000e+00 1851878480
0.044485 2.299232 0.653404 0.000000000000000e+00 1851878480
0.034535 2.215026 0.188178 0.000000000000000e+00 7103860
0.048694 2.208337 0.684300 0.000000000000000e+00 1851878480
0.032083 2.337674 0.261553 0.000000000000000e+00 1851878480
0.048799 2.227719 0.713488 0.000000000000000e+00 1851878480
0.031699 2.380793 0.304404 0.000000000000000e+00 1851878480
0.051619 2.176784 0.747235 0.000000000000000e+00 1851878480
0.031279 2.422421 0.344041 0.000000000000000e+00 1851878480
0.050541 2.225866 0.773159 0.000000000000000e+00 1851878480
0.033902 2.359428 0.354954 0.000000000000000e+00 1851878480
0.045428 2.373635 0.784617 0.000000000000000e+00 1851878480
0.038808 2.340540 0.378737 0.000000000000000e+00 1851878480
0.036174 2.440646 0.427162 0.000000000000000e+00 1851878480
0.040496 2.337064 0.434370 0.000000000000000e+00 1851878480
0.041750 2.323496 0.460019 0.000000000000000e+00 1851878480
0.042048 2.336761 0.489622 0.000000000000000e+00 1851878480
0.041454 2.373619 0.520961 0.000000000000000e+00 1851878480
0.042796 2.357572 0.546209 0.000000000000000e+00 1851878480
0.044557 2.330875 0.571264 0.000000000000000e+00 1851878480
0.043377 2.380884 0.600325 0.000000000000000e+00 1851878480
0.051788 2.185989 0.623885 0.000000000000000e+00 1851878480
0.047888 2.304556 0.653253 0.000000000000000e+00 1851878480
0.038853 2.202809 0.183701 0.000000000000000e+00 7103860
0.051459 2.235846 0.683291 0.000000000000000e+00 1851878480
0.035876 2.330394 0.259026 0.000000000000000e+00 1851878480
0.052497 2.230730 0.713220 0.000000000000000e+00 1851878480
0.035368 2.373240 0.301992 0.000000000000000e+00 1851878480
0.056027 2.166340 0.747969 0.000000000000000e+00 1851878480
0.034204 2.434115 0.347145 0.000000000000000e+00 1851878480
0.054904 2.213078 0.774386 0.000000000000000e+00 1851878480
0.037300 2.362150 0.355508 0.000000000000000e+00 1851878480
0.048036 2.391212 0.782310 0.000000000000000e+00 1851878480
0.042533 2.335503 0.377463 0.000000000000000e+00 1851878480
0.040139 2.420896 0.423043 0.000000000000000e+00 1851878480
0.044706 2.319424 0.431100 0.000000000000000e+00 1851878480
0.045402 2.321588 0.459602 0.000000000000000e+00 1851878480
0.045857 2.329713 0.488583 0.000000000000000e+00 1851878480
0.045048 2.369157 0.520372 0.000000000000000e+00 1851878480
0.046044 2.362832 0.546541 0.000000000000000e+00 1851878480
0.047769 2.338749 0.571633 0.000000000000000e+00 1851878480
0.045646 2.407488 0.601211 0.000000000000000e+00 1851878480
0.056364 2.171568 0.623577 0.000000000000000e+00 1851878480
0.051710 2.299441 0.653204 0.000000000000000e+00 1851878480
0.042739 2.205969 0.184648 0.000000000000000e+00 7103860
0.055791 2.223765 0.683587 0.000000000000000e+00 1851878480
0.039627 2.325696 0.257341 0.000000000000000e+00 1851878480
0.056847 2.218645 0.713803 0.000000000000000e+00 1851878480
0.039557 2.351976 0.295440 0.000000000000000e+00 1851878480
0.059857 2.170157 0.747567 0.000000000000000e+00 1851878480
0.037662 2.428617 0.345498 0.000000000000000e+00 1851878480
0.057829 2.233459 0.772195 0.000000000000000e+00 1851878480
0.040499 2.369990 0.357348 0.000000000000000e+00 1851878480
0.052005 2.377171 0.784015 0.000000000000000e+00 1851878480
0.046089 2.335536 0.377337 0.000000000000000e+00 1851878480
0.042934 2.433257 0.425429 0.000000000000000e+00 1851878480
0.048297 2.319558 0.430996 0.000000000000000e+00 1851878480
0.049049 2.320110 0.459251 0.000000000000000e+00 1851878480
0.048848 2.343076 0.490214 0.000000000000000e+00 1851878480
0.048506 2.368533 0.520195 0.000000000000000e+00 1851878480
0.049906 2.353252 0.545631 0.000000000000000e+00 1851878480
0.051719 2.328884 0.570930 0.000000000000000e+00 1851878480
0.050180 2.379965 0.600093 0.000000000000000e+00 1851878480
0.059469 2.191451 0.623737 0.000000000000000e+00 1851878480
0.054696 2.313165 0.652975 0.000000000000000e+00 1851878480
0.046353 2.216143 0.188071 0.000000000000000e+00 7103860
0.059869 2.218699 0.683653 0.000000000000000e+00 1851878480
0.042957 2.333237 0.259658 0.000000000000000e+00 1851878480
0.060043 2.232467 0.712929 0.000000000000000e+00 1851878480
0.043063 2.352395 0.295422 0.000000000000000e+00 1851878480
0.064235 2.162098 0.748112 0.000000000000000e+00 1851878480
0.040948 2.428508 0.345337 0.000000000000000e+00 1851878480
0.061885 2.228114 0.772658 0.000000000000000e+00 1851878480
0.043860 2.372457 0.357835 0.000000000000000e+00 1851878480
0.054773 2.389180 0.782420 0.000000000000000e+00 1851878480
0.049351 2.342481 0.378778 0.000000000000000e+00 1851878480
0.047179 2.410385 0.420670 0.000000000000000e+00 1851878480
0.051135 2.336823 0.433951 0.000000000000000e+00 1851878480
0.052909 2.314055 0.458189 0.000000000000000e+00 1851878480
0.052728 2.335033 0.489042 0.000000000000000e+00 1851878480
0.051733 2.373047 0.520568 0.000000000000000e+00 1851878480
0.053193 2.357300 0.545861 0.000000000000000e+00 1851878480
0.055211 2.329992 0.570890 0.000000000000000e+00 1851878480
0.053938 2.372172 0.599704 0.000000000000000e+00 1851878480
0.064347 2.172307 0.623362 0.000000000000000e+00 1851878480
0.059530 2.287583 0.653120 0.000000000000000e+00 1851878480
0.050374 2.214386 0.187276 0.000000000000000e+00 7103860
0.063773 2.217742 0.683585 0.000000000000000e+00 1851878480
0.046828 2.326085 0.257162 0.000000000000000e+00 1851878480
0.064309 2.223435 0.713342 0.000000000000000e+00 1851878480
0.047205 2.337116 0.290664 0.000000000000000e+00 1851878480
0.067994 2.167151 0.747616 0.000000000000000e+00 1851878480
0.044560 2.420554 0.343004 0.000000000000000e+00 1851878480
0.065914 2.223948 0.773001 0.000000000000000e+00 1851878480
0.046803 2.384564 0.360749 0.000000000000000e+00 1851878480
0.058305 2.385243 0.782847 0.000000000000000e+00 1851878480
0.052929 2.341590 0.378439 0.000000000000000e+00 1851878480
0.049029 2.442216 0.427005 0.000000000000000e+00 1851878480
0.056639 2.295156 0.426377 0.000000000000000e+00 1851878480
0.056964 2.304726 0.456619 0.000000000000000e+00 1851878480
0.056178 2.336918 0.489169 0.000000000000000e+00 1851878480
0.055523 2.365515 0.519647 0.000000000000000e+00 1851878480
0.056780 2.354837 0.545546 0.000000000000000e+00 1851878480
0.058395 2.337124 0.571216 0.000000000000000e+00 1851878480
0.056806 2.382833 0.600003 0.000000000000000e+00 1851878480
0.067681 2.185411 0.623432 0.000000000000000e+00 1851878480
0.062484 2.301040 0.652897 0.000000000000000e+00 1851878480
0.055095 2.196310 0.180707 0.000000000000000e+00 7103860
0.067381 2.222552 0.683329 0.000000000000000e+00 1851878480
0.050251 2.330411 0.258422 0.000000000000000e+00 1851878480
0.068213 2.222201 0.713318 0.000000000000000e+00 1851878480
0.049518 2.365893 0.299202 0.000000000000000e+00 1851878480
0.072061 2.165964 0.747617 0.000000000000000e+00 1851878480
0.047219 2.435203 0.346923 0.000000000000000e+00 1851878480
0.069338 2.231319 0.772159 0.000000000000000e+00 1851878480
0.050788 2.371885 0.357418 0.000000000000000e+00 1851878480
0.062219 2.374835 0.784095 0.000000000000000e+00 1768191329
0.055617 2.359094 0.382281 0.000000000000000e+00 1851878480
0.052853 2.430182 0.424440 0.000000000000000e+00 1851878480
0.059227 2.316839 0.430120 0.000000000000000e+00 1851878480
0.059463 2.327206 0.459973 0.000000000000000e+00 1851878480
0.058576 2.359089 0.491959 0.000000000000000e+00 1851878480
0.058910 2.366612 0.519652 0.000000000000000e+00 1851878480
0.061025 2.340145 0.544202 0.000000000000000e+00 1851878480
0.062787 2.320779 0.570117 0.000000000000000e+00 1851878480
0.059342 2.398480 0.600490 0.000000000000000e+00 1851878480
0.072827 2.163832 0.623020 0.000000000000000e+00 1851878480
0.065958 2.303619 0.652777 0.000000000000000e+00 1851878480
0.058640 2.206660 0.184184 0.000000000000000e+00 7103860
0.070006 2.244476 0.682519 0.000000000000000e+00 1851878480
0.053960 2.327937 0.257451 0.000000000000000e+00 1851878480
0.071345 2.234828 0.712519 0.000000000000000e+00 1851878480
0.053349 2.358420 0.296795 0.000000000000000e+00 1851878480
0.076365 2.160766 0.747938 0.000000000000000e+00 1851878480
0.051133 2.421500 0.342992 0.000000000000000e+00 1851878480
0.073744 2.220907 0.773147 0.000000000000000e+00 1851878480
0.054310 2.370441 0.356914 0.000000000000000e+00 1851878480
0.065746 2.372149 0.784366 0.000000000000000e+00 1768191329
0.059936 2.343090 0.378502 0.000000000000000e+00 1851878480
0.056678 2.419552 0.422155 0.000000000000000e+00 1851878480
0.063275 2.308568 0.428507 0.000000000000000e+00 1851878480
0.063491 2.318722 0.458531 0.000000000000000e+00 1851878480
0.063872 2.325521 0.487431 0.000000000000000e+00 1851878480
0.061762 2.377350 0.520696 0.000000000000000e+00 1851878480
0.062818 2.371142 0.546699 0.000000000000000e+00 1851878480
0.066422 2.319668 0.569942 0.000000000000000e+00 1851878480
0.062718 2.397709 0.600365 0.000000000000000e+00 1851878480
0.076366 2.172487 0.623031 0.000000000000000e+00 1851878480
0.069572 2.303541 0.652683 0.000000000000000e+00 1851878480
0.063123 2.196362 0.180353 0.000000000000000e+00 7103860
0.074742 2.228266 0.682951 0.000000000000000e+00 1851878480
0.057531 2.328642 0.257519 0.000000000000000e+00 7103860
0.075338 2.231691 0.712604 0.000000000000000e+00 1851878480
0.057144 2.352616 0.294887 0.000000000000000e+00 1851878480
0.080655 2.156338 0.748200 0.000000000000000e+00 1851878480
0.054057 2.429099 0.344957 0.000000000000000e+00 1851878480
0.078224 2.210340 0.774152 0.000000000000000e+00 1851878480
0.058208 2.361886 0.354614 0.000000000000000e+00 1851878480
0.068800 2.377481 0.783626 0.000000000000000e+00 1851878480
0.063098 2.349977 0.379928 0.000000000000000e+00 1851878480
0.060494 2.410276 0.420142 0.000000000000000e+00 1851878480
0.065542 2.332924 0.432732 0.000000000000000e+00 1851878480
0.066600 2.327366 0.459743 0.000000000000000e+00 1851878480
0.066327 2.345006 0.489870 0.000000000000000e+00 1851878480
0.066525 2.354068 0.518072 0.000000000000000e+00 1851878480
0.066665 2.363972 0.545987 0.000000000000000e+00 1851878480
0.069609 2.326232 0.570233 0.000000000000000e+00 1851878480
0.066153 2.396055 0.600207 0.000000000000000e+00 1851878480
0.079875 2.180801 0.623038 0.000000000000000e+00 1851878480
0.073421 2.299671 0.652624 0.000000000000000e+00 1851878480
0.066771 2.203517 0.182695 0.000000000000000e+00 7103860
0.079209 2.218019 0.683188 0.000000000000000e+00 1851878480
0.060956 2.332073 0.258479 0.000000000000000e+00 7103860
0.078920 2.235473 0.712304 0.000000000000000e+00 1851878480
0.059767 2.369684 0.299891 0.000000000000000e+00 1851878480
0.083906 2.168845 0.747120 0.000000000000000e+00 1851878480
0.057012 2.435283 0.346530 0.000000000000000e+00 1851878480
0.080928 2.228676 0.772190 0.000000000000000e+00 1768191329
0.062028 2.355737 0.352918 0.000000000000000e+00 1851878480
0.072234 2.376407 0.783697 0.000000000000000e+00 1851878480
0.066668 2.349099 0.379585 0.000000000000000e+00 1851878480
0.063285 2.419492 0.421886 0.000000000000000e+00 1851878480
0.069659 2.323561 0.430921 0.000000000000000e+00 1851878480
0.069728 2.334820 0.460772 0.000000000000000e+00 1851878480
0.070447 2.335012 0.488433 0.000000000000000e+00 1851878480
0.068958 2.371269 0.519814 0.000000000000000e+00 1851878480
0.071143 2.347290 0.544471 0.000000000000000e+00 1851878480
0.072803 2.332092 0.570483 0.000000000000000e+00 1851878480
0.069397 2.397624 0.600170 0.000000000000000e+00 1851878480
0.084748 2.166897 0.622732 0.000000000000000e+00 1851878480
0.076758 2.304140 0.652490 0.000000000000000e+00 1851878480
0.070693 2.204884 0.182986 0.000000000000000e+00 7103860
0.082504 2.226823 0.682809 0.000000000000000e+00 1851878480
0.065106 2.322031 0.255014 0.000000000000000e+00 7103860
0.082389 2.240664 0.711927 0.000000000000000e+00 1851878480
0.064013 2.355877 0.295557 0.000000000000000e+00 1851878480
0.087667 2.172512 0.746744 0.000000000000000e+00 1851878480
0.062304 2.399530 0.336471 0.000000000000000e+00 1851878480
0.084009 2.239735 0.770979 0.000000000000000e+00 1768191329
0.064463 2.374446 0.357494 0.000000000000000e+00 1851878480
0.075135 2.383378 0.782754 0.000000000000000e+00 1851878480
0.069935 2.353320 0.380402 0.000000000000000e+00 1851878480
0.067080 2.411519 0.420133 0.000000000000000e+00 1851878480
0.072357 2.337906 0.433356 0.000000000000000e+00 1851878480
0.074519 2.315125 0.457582 0.000000000000000e+00 1851878480
0.072466 2.359070 0.491477 0.000000000000000e+00 1851878480
0.072866 2.363853 0.518898 0.000000000000000e+00 1851878480
0.074840 2.344266 0.544104 0.000000000000000e+00 1851878480
0.077367 2.316456 0.569421 0.000000000000000e+00 1851878480
0.073257 2.389718 0.599775 0.000000000000000e+00 1851878480
0.087996 2.178668 0.622790 0.000000000000000e+00 1851878480
0.080229 2.306246 0.652378 0.000000000000000e+00 1851878480
0.075860 2.184547 0.175583 0.000000000000000e+00 7103860
0.086816 2.219869 0.682940 0.000000000000000e+00 1851878480
0.068610 2.324135 0.255532 0.000000000000000e+00 7103860
0.088143 2.212023 0.713437 0.000000000000000e+00 1851878480
0.066008 2.381683 0.303206 0.000000000000000e+00 1851878480
0.091991 2.167739 0.747037 0.000000000000000e+00 1851878480
0.064066 2.426614 0.343837 0.000000000000000e+00 1851878480
0.088413 2.230872 0.771814 0.000000000000000e+00 1768191329
0.069992 2.340015 0.348648 0.000000000000000e+00 1851878480
0.079464 2.369449 0.784453 0.000000000000000e+00 1851878480
0.073596 2.350994 0.379725 0.000000000000000e+00 1851878480
0.069017 2.433055 0.424386 0.000000000000000e+00 1851878480
0.077815 2.308697 0.427981 0.000000000000000e+00 1851878480
0.078051 2.316382 0.457645 0.000000000000000e+00 1851878480
0.077440 2.336556 0.488389 0.000000000000000e+00 1851878480
0.076790 2.356887 0.518029 0.000000000000000e+00 1851878480
0.077770 2.352837 0.544717 0.000000000000000e+00 1851878480
0.079640 2.335721 0.570491 0.000000000000000e+00 1851878480
0.076970 2.384665 0.599488 0.000000000000000e+00 1851878480
0.091743 2.182283 0.622734 0.000000000000000e+00 1851878480
0.084144 2.301869 0.652326 0.000000000000000e+00 1851878480
0.078787 2.203151 0.181974 0.000000000000000e+00 7103860
0.090360 2.224384 0.682703 0.000000000000000e+00 1851878480
0.071989 2.328101 0.256660 0.000000000000000e+00 7103860
0.090617 2.231724 0.712254 0.000000000000000e+00 1851878480
0.070889 2.358477 0.296018 0.000000000000000e+00 1851878480
0.095454 2.175328 0.746355 0.000000000000000e+00 1851878480
0.067249 2.428420 0.344189 0.000000000000000e+00 1851878480
0.092207 2.231155 0.771712 0.000000000000000e+00 1768191329
0.071732 2.368680 0.355740 0.000000000000000e+00 1851878480
0.081174 2.392418 0.781494 0.000000000000000e+00 1768191329
0.076418 2.361408 0.381953 0.000000000000000e+00 1851878480
0.073115 2.420748 0.421746 0.000000000000000e+00 1851878480
0.080429 2.323702 0.430533 0.000000000000000e+00 1851878480
0.081074 2.324913 0.458839 0.000000000000000e+00 1851878480
0.080666 2.341152 0.488870 0.000000000000000e+00 1851878480
0.079630 2.365993 0.518898 0.000000000000000e+00 1851878480
0.079811 2.373239 0.546332 0.000000000000000e+00 1851878480
0.084126 2.322397 0.569568 0.000000000000000e+00 1851878480
0.079987 2.389721 0.599583 0.000000000000000e+00 1851878480
0.094746 2.195852 0.622823 0.000000000000000e+00 1851878480
0.088257 2.295160 0.652293 0.000000000000000e+00 1851878480
0.083186 2.196938 0.179565 0.000000000000000e+00 7103860
0.094101 2.225872 0.682565 0.000000000000000e+00 1851878480
0.074771 2.340949 0.260705 0.000000000000000e+00 7103860
0.094609 2.229458 0.712297 0.000000000000000e+00 1851878480
0.074730 2.353438 0.294325 0.000000000000000e+00 1851878480
0.101409 2.149132 0.748343 0.000000000000000e+00 1851878480
0.071329 2.416474 0.340721 0.000000000000000e+00 1851878480
0.096114 2.229941 0.771766 0.000000000000000e+00 1851878480
0.075074 2.370630 0.356081 0.000000000000000e+00 1851878480
0.085041 2.385326 0.782333 0.000000000000000e+00 1768191329
0.081437 2.339620 0.376831 0.000000000000000e+00 1851878480
0.075684 2.431117 0.423726 0.000000000000000e+00 1851878480
0.083568 2.330103 0.431543 0.000000000000000e+00 1851878480
0.084710 2.324229 0.458599 0.000000000000000e+00 1851878480
0.084563 2.336138 0.488083 0.000000000000000e+00 1851878480
0.083932 2.354401 0.517526 0.000000000000000e+00 1851878480
0.085407 2.343870 0.543735 0.000000000000000e+00 1851878480
0.087330 2.327388 0.569766 0.000000000000000e+00 1851878480
0.083981 2.381362 0.599170 0.000000000000000e+00 1851878480
0.100089 2.177439 0.622450 0.000000000000000e+00 1851878480
0.092224 2.290926 0.652239 0.000000000000000e+00 1851878480
0.087165 2.197587 0.179587 0.000000000000000e+00 7103860
0.098066 2.224347 0.682524 0.000000000000000e+00 1851878480
0.079031 2.330791 0.257185 0.000000000000000e+00 7103860
0.099122 2.220674 0.712702 0.000000000000000e+00 1851878480
0.078285 2.353059 0.294040 0.000000000000000e+00 1851878480
0.105188 2.152843 0.747969 0.000000000000000e+00 1851878480
0.074597 2.417373 0.340817 0.000000000000000e+00 1851878480
0.100992 2.216505 0.773072 0.000000000000000e+00 1851878480
0.078947 2.364793 0.354450 0.000000000000000e+00 1851878480
0.088637 2.382207 0.782672 0.000000000000000e+00 1768191329
0.084634 2.344554 0.377804 0.000000000000000e+00 1851878480
0.079330 2.426075 0.422562 0.000000000000000e+00 1851878480
0.087922 2.319691 0.429531 0.000000000000000e+00 1851878480
0.087965 2.328717 0.459164 0.000000000000000e+00 1851878480
0.088195 2.335060 0.487814 0.000000000000000e+00 1851878480
0.086853 2.361853 0.518216 0.000000000000000e+00 1851878480
0.087704 2.359724 0.544967 0.000000000000000e+00 1851878480
0.090453 2.333049 0.570006 0.000000000000000e+00 1851878480
0.086304 2.395080 0.599596 0.000000000000000e+00 1851878480
0.104415 2.173390 0.622284 0.000000000000000e+00 1851878480
0.095139 2.300306 0.652067 0.000000000000000e+00 1851878480
0.090980 2.200557 0.180428 0.000000000000000e+00 7103860
0.101509 2.229503 0.682270 0.000000000000000e+00 1851878480
0.083528 2.318177 0.252852 0.000000000000000e+00 7103860
0.101415 2.240153 0.711540 0.000000000000000e+00 1851878480
0.079882 2.380191 0.302095 0.000000000000000e+00 1851878480
0.108968 2.156293 0.747618 0.000000000000000e+00 1851878480
0.077654 2.421157 0.341713 0.000000000000000e+00 1851878480
0.104804 2.217122 0.772941 0.000000000000000e+00 1851878480
0.082772 2.360118 0.353109 0.000000000000000e+00 1851878480
0.092810 2.372324 0.783865 0.000000000000000e+00 1851878480
0.088141 2.345053 0.377764 0.000000000000000e+00 1851878480
0.082814 2.423565 0.421912 0.000000000000000e+00 1851878480
0.091893 2.315057 0.428554 0.000000000000000e+00 1851878480
0.091030 2.335289 0.460054 0.000000000000000e+00 1851878480
0.091370 2.339890 0.488325 0.000000000000000e+00 1851878480
0.090149 2.364018 0.518333 0.000000000000000e+00 1851878480
0.091937 2.350197 0.544047 0.000000000000000e+00 1851878480
0.095133 2.318992 0.569034 0.000000000000000e+00 1851878480
0.089118 2.401736 0.599755 0.000000000000000e+00 1851878480
0.108182 2.176505 0.622223 0.000000000000000e+00 1851878480
0.099449 2.292073 0.652048 0.000000000000000e+00 1851878480
0.094503 2.207297 0.182606 0.000000000000000e+00 7103860
0.105580 2.226737 0.682271 0.000000000000000e+00 1851878480
0.087370 2.315533 0.251793 0.000000000000000e+00 7103860
0.105202 2.240352 0.711449 0.000000000000000e+00 1851878480
0.084491 2.364620 0.297200 0.000000000000000e+00 1851878480
0.113369 2.152143 0.747868 0.000000000000000e+00 1851878480
0.080796 2.423522 0.342213 0.000000000000000e+00 1851878480
0.108156 2.223159 0.772258 0.000000000000000e+00 1851878480
0.085611 2.368893 0.355172 0.000000000000000e+00 1851878480
0.096655 2.367000 0.784484 0.000000000000000e+00 1851878480
0.092697 2.332325 0.374697 0.000000000000000e+00 1851878480
0.087183 2.410205 0.419044 0.000000000000000e+00 1851878480
0.095098 2.320299 0.429352 0.000000000000000e+00 1851878480
0.095888 2.319327 0.457427 0.000000000000000e+00 1851878480
0.095299 2.335158 0.487571 0.000000000000000e+00 1851878480
0.094065 2.358534 0.517619 0.000000000000000e+00 1851878480
0.095141 2.353777 0.544238 0.000000000000000e+00 1851878480
0.097550 2.333034 0.569791 0.000000000000000e+00 1851878480
0.095201 2.369090 0.598411 0.000000000000000e+00 1851878480
0.112877 2.168467 0.621999 0.000000000000000e+00 1851878480
0.103742 2.284639 0.652022 0.000000000000000e+00 1851878480
0.099340 2.196262 0.178467 0.000000000000000e+00 7103860
0.111436 2.203413 0.682927 0.000000000000000e+00 1851878480
0.091754 2.306073 0.248486 0.000000000000000e+00 7103860
0.109873 2.230343 0.711925 0.000000000000000e+00 1851878480
0.087433 2.371825 0.299211 0.000000000000000e+00 1851878480
0.115059 2.179418 0.745646 0.000000000000000e+00 1851878480
0.084964 2.412599 0.339013 0.000000000000000e+00 1851878480
0.112894 2.212998 0.773232 0.000000000000000e+00 1851878480
0.089320 2.365952 0.354266 0.000000000000000e+00 1851878480
0.098056 2.389734 0.781570 0.000000000000000e+00 1851878480
0.093980 2.360270 0.380931 0.000000000000000e+00 1851878480
0.088807 2.430892 0.423131 0.000000000000000e+00 1851878480
0.098840 2.318763 0.428929 0.000000000000000e+00 1851878480
0.100897 2.302739 0.454698 0.000000000000000e+00 1851878480
0.099629 2.326065 0.486238 0.000000000000000e+00 1851878480
0.097931 2.354044 0.517011 0.000000000000000e+00 1851878480
0.097942 2.361803 0.544809 0.000000000000000e+00 1851878480
0.102879 2.312512 0.568417 0.000000000000000e+00 1851878480
0.097711 2.379714 0.598722 0.000000000000000e+00 1851878480
0.115236 2.187622 0.622178 0.000000000000000e+00 1851878480
0.107132 2.287952 0.651905 0.000000000000000e+00 1851878480
0.102085 2.212512 0.184019 0.000000000000000e+00 7103860
0.113252 2.227103 0.682088 0.000000000000000e+00 1851878480
0.093763 2.327073 0.255209 0.000000000000000e+00 7103860
0.113844 2.228854 0.711930 0.000000000000000e+00 1851878480
0.091960 2.358829 0.295086 0.000000000000000e+00 1851878480
0.119944 2.169444 0.746358 0.000000000000000e+00 1851878480
0.088217 2.413782 0.339178 0.000000000000000e+00 1851878480
0.115806 2.223664 0.772080 0.000000000000000e+00 1851878480
0.093930 2.352235 0.350625 0.000000000000000e+00 1851878480
0.101876 2.384501 0.782182 0.000000000000000e+00 1851878480
0.099722 2.334074 0.374776 0.000000000000000e+00 1851878480
0.091948 2.432524 0.423324 0.000000000000000e+00 1851878480
0.100473 2.341674 0.432911 0.000000000000000e+00 1851878480
0.104303 2.305695 0.455018 0.000000000000000e+00 1851878480
0.101695 2.343374 0.488401 0.000000000000000e+00 1851878480
0.100299 2.366815 0.518281 0.000000000000000e+00 1851878480
0.101818 2.357248 0.544309 0.000000000000000e+00 1851878480
0.105881 2.319350 0.568731 0.000000000000000e+00 1851878480
0.100000 2.392089 0.599101 0.000000000000000e+00 1851878480
0.121007 2.167953 0.621780 0.000000000000000e+00 1851878480
0.110683 2.289315 0.651806 0.000000000000000e+00 1851878480
0.106242 2.210412 0.183048 0.000000000000000e+00 7103860
0.118175 2.215497 0.682371 0.000000000000000e+00 1851878480
0.095851 2.345580 0.261114 0.000000000000000e+00 7103860
0.119494 2.209354 0.712930 0.000000000000000e+00 1851878480
0.094916 2.365585 0.296956 0.000000000000000e+00 1851878480
0.123921 2.169890 0.746252 0.000000000000000e+00 1851878480
0.090567 2.425614 0.342309 0.000000000000000e+00 1851878480
0.120078 2.219157 0.772480 0.000000000000000e+00 1851878480
0.095963 2.369894 0.354938 0.000000000000000e+00 1851878480
0.107213 2.363543 0.784776 0.000000000000000e+00 1851878480
0.102170 2.346913 0.377553 0.000000000000000e+00 1851878480
0.096584 2.417299 0.420065 0.000000000000000e+00 1851878480
0.106293 2.316412 0.428209 0.000000000000000e+00 1851878480
0.106672 2.319947 0.457105 0.000000000000000e+00 1851878480
0.104925 2.346748 0.488718 0.000000000000000e+00 1851878480
0.104119 2.362886 0.517734 0.000000000000000e+00 1851878480
0.105914 2.350612 0.543630 0.000000000000000e+00 1851878480
0.109564 2.318413 0.568564 0.000000000000000e+00 1851878480
0.104203 2.383159 0.598663 0.000000000000000e+00 1851878480
0.123737 2.181981 0.621886 0.000000000000000e+00 1851878480
0.113036 2.303284 0.651603 0.000000000000000e+00 1851878480
0.111208 2.199038 0.178772 0.000000000000000e+00 7103860
0.121128 2.225369 0.681975 0.000000000000000e+00 1851878480
0.101304 2.323718 0.253707 0.000000000000000e+00 7103860
0.120500 2.239679 0.711182 0.000000000000000e+00 1851878480
0.099601 2.351956 0.292629 0.000000000000000e+00 1851878480
0.126968 2.179993 0.745389 0.000000000000000e+00 1851878480
0.096038 2.400908 0.335255 0.000000000000000e+00 1851878480
0.123896 2.219645 0.772372 0.000000000000000e+00 1851878480
0.097725 2.389408 0.359726 0.000000000000000e+00 1851878480
0.109280 2.377488 0.782976 0.000000000000000e+00 1851878480
0.106695 2.336239 0.374943 0.000000000000000e+00 1851878480
0.100823 2.407401 0.417893 0.000000000000000e+00 1851878480
0.108444 2.332350 0.430935 0.000000000000000e+00 1851878480
0.109372 2.329744 0.458497 0.000000000000000e+00 1851878480
0.109858 2.331815 0.486606 0.000000000000000e+00 1851878480
0.108357 2.354819 0.516733 0.000000000000000e+00 1851878480
0.109769 2.346958 0.543204 0.000000000000000e+00 1851878480
0.111316 2.337710 0.569651 0.000000000000000e+00 1851878480
0.106460 2.395014 0.599025 0.000000000000000e+00 1851878480
0.128479 2.174382 0.621668 0.000000000000000e+00 1851878480
0.118679 2.282656 0.651687 0.000000000000000e+00 1851878480
0.117501 2.173491 0.169443 0.000000000000000e+00 7103860
0.125835 2.216775 0.682163 0.000000000000000e+00 1851878480
0.103365 2.341392 0.259337 0.000000000000000e+00 7103860
0.127571 2.206667 0.712928 0.000000000000000e+00 1851878480
0.103021 2.353362 0.292868 0.000000000000000e+00 1851878480
0.133839 2.150961 0.747601 0.000000000000000e+00 1851878480
0.097301 2.424428 0.341644 0.000000000000000e+00 1851878480
0.125832 2.238974 0.770343 0.000000000000000e+00 1851878480
0.104411 2.353557 0.350453 0.000000000000000e+00 1851878480
0.112451 2.379618 0.782666 0.000000000000000e+00 1851878480
0.109669 2.342666 0.376250 0.000000000000000e+00 1851878480
0.102701 2.422929 0.420927 0.000000000000000e+00 1851878480
0.112634 2.326032 0.429644 0.000000000000000e+00 1851878480
0.111953 2.340171 0.459989 0.000000000000000e+00 1851878480
0.111971 2.346885 0.488475 0.000000000000000e+00 1851878480
0.109968 2.374169 0.518724 0.000000000000000e+00 1851878480
0.113289 2.346969 0.543090 0.000000000000000e+00 1851878480
0.115756 2.328650 0.568982 0.000000000000000e+00 1851878480
0.110830 2.384904 0.598540 0.000000000000000e+00 1851878480
0.134492 2.154559 0.621264 0.000000000000000e+00 1851878480
0.121086 2.295500 0.651496 0.000000000000000e+00 1851878480
0.120102 2.189975 0.175071 0.000000000000000e+00 7103860
0.129485 2.219173 0.682006 0.000000000000000e+00 1851878480
0.109675 2.311889 0.249393 0.000000000000000e+00 7103860
0.131405 2.207491 0.712809 0.000000000000000e+00 1851878480
0.105892 2.360610 0.294883 0.000000000000000e+00 1851878480
0.137680 2.153310 0.747349 0.000000000000000e+00 1851878480
0.100434 2.426425 0.342030 0.000000000000000e+00 1851878480
0.131110 2.224701 0.771745 0.000000000000000e+00 1851878480
0.106767 2.366065 0.353459 0.000000000000000e+00 1851878480
0.115969 2.378279 0.782794 0.000000000000000e+00 1851878480
0.113618 2.338734 0.375180 0.000000000000000e+00 1851878480
0.105386 2.429308 0.422087 0.000000000000000e+00 1851878480
0.117512 2.313186 0.427170 0.000000000000000e+00 1851878480
0.116285 2.332390 0.458628 0.000000000000000e+00 1851878480
0.115950 2.342423 0.487750 0.000000000000000e+00 1851878480
0.113693 2.371388 0.518300 0.000000000000000e+00 1851878480
0.116285 2.352165 0.543420 0.000000000000000e+00 1851878480
0.121494 2.307407 0.567553 0.000000000000000e+00 1851878480
0.115016 2.377208 0.598147 0.000000000000000e+00 1851878480
0.136066 2.179027 0.621533 0.000000000000000e+00 1851878480
0.124833 2.294668 0.651418 0.000000000000000e+00 1851878480
0.122837 2.203988 0.179822 0.000000000000000e+00 7103860
0.132560 2.226977 0.681680 0.000000000000000e+00 1851878480
0.112902 2.316646 0.250753 0.000000000000000e+00 7103860
0.133322 2.226603 0.711686 0.000000000000000e+00 1851878480
0.109720 2.357449 0.293727 0.000000000000000e+00 1851878480
0.139437 2.175340 0.745556 0.000000000000000e+00 1851878480
0.104993 2.413560 0.338264 0.000000000000000e+00 1851878480
0.135690 2.217851 0.772390 0.000000000000000e+00 1851878480
0.111036 2.358139 0.351269 0.000000000000000e+00 1851878480
0.121266 2.360324 0.785014 0.000000000000000e+00 1851878480
0.117438 2.336343 0.374461 0.000000000000000e+00 1851878480
0.108137 2.434667 0.423038 0.000000000000000e+00 1851878480
0.119595 2.328520 0.429788 0.000000000000000e+00 1851878480
0.119258 2.338342 0.459418 0.000000000000000e+00 1851878480
0.118392 2.353144 0.489043 0.000000000000000e+00 1851878480
0.118454 2.358801 0.516801 0.000000000000000e+00 1851878480
0.120563 2.344803 0.542675 0.000000000000000e+00 1851878480
0.125405 2.304836 0.567283 0.000000000000000e+00 1851878480
0.118856 2.373258 0.597899 0.000000000000000e+00 1851878480
0.140576 2.174433 0.621360 0.000000000000000e+00 1851878480
0.129095 2.289067 0.651379 0.000000000000000e+00 1851878480
0.129680 2.175177 0.169304 0.000000000000000e+00 7103860
0.135860 2.232261 0.681435 0.000000000000000e+00 1851878480
0.115184 2.330710 0.255189 0.000000000000000e+00 7103860
0.136799 2.230174 0.711420 0.000000000000000e+00 1851878480
0.113523 2.354751 0.292709 0.000000000000000e+00 1851878480
0.142288 2.186066 0.744653 0.000000000000000e+00 1851878480
0.109127 2.405774 0.335912 0.000000000000000e+00 1851878480
0.138867 2.224289 0.771683 0.000000000000000e+00 1851878480
0.113618 2.367529 0.353482 0.000000000000000e+00 1851878480
0.122722 2.378482 0.782694 0.000000000000000e+00 1851878480
0.119108 2.354796 0.378528 0.000000000000000e+00 1851878480
0.112279 2.426442 0.421200 0.000000000000000e+00 1851878480
0.125301 2.308519 0.426013 0.000000000000000e+00 1851878480
0.123344 2.333446 0.458505 0.000000000000000e+00 1851878480
0.124001 2.333475 0.486290 0.000000000000000e+00 1851878480
0.121917 2.359114 0.516712 0.000000000000000e+00 1851878480
0.121834 2.365869 0.544367 0.000000000000000e+00 1851878480
0.128016 2.314471 0.567774 0.000000000000000e+00 1851878480
0.121245 2.382926 0.598180 0.000000000000000e+00 1851878480
0.143856 2.181386 0.621366 0.000000000000000e+00 1851878480
0.130882 2.306378 0.651158 0.000000000000000e+00 1851878480
0.130862 2.204213 0.179409 0.000000000000000e+00 7103860
0.141174 2.218999 0.681772 0.000000000000000e+00 1851878480
0.118896 2.329869 0.254698 0.000000000000000e+00 7103860
0.141350 2.223881 0.711697 0.000000000000000e+00 1851878480
0.116890 2.356514 0.293048 0.000000000000000e+00 1851878480
0.147454 2.175435 0.745425 0.000000000000000e+00 1851878480
0.110460 2.425722 0.341308 0.000000000000000e+00 1851878480
0.144536 2.208138 0.773280 0.000000000000000e+00 1851878480
0.118198 2.357055 0.350638 0.000000000000000e+00 1851878480
0.128509 2.357171 0.785339 0.000000000000000e+00 1851878480
0.123599 2.345855 0.376301 0.000000000000000e+00 1851878480
0.115438 2.427828 0.421333 0.000000000000000e+00 1851878480
0.127477 2.322292 0.428350 0.000000000000000e+00 1851878480
0.129728 2.307727 0.454318 0.000000000000000e+00 1851878480
0.125444 2.353015 0.488759 0.000000000000000e+00 1851878480
0.124455 2.367841 0.517545 0.000000000000000e+00 1851878480
0.126268 2.357164 0.543505 0.000000000000000e+00 1851878480
0.130728 2.322688 0.568177 0.000000000000000e+00 1851878480
0.124382 2.385376 0.598181 0.000000000000000e+00 1851878480
0.147894 2.181231 0.621263 0.000000000000000e+00 1851878480
0.134060 2.310435 0.651044 0.000000000000000e+00 1851878480
0.136315 2.190518 0.174269 0.000000000000000e+00 7103860
