# .PCD v0.7 - Point Cloud Data file format
VERSION 0.7
FIELDS x y z intensity
SIZE 4 4 4 4
TYPE F F F F
COUNT 1 1 1 1
WIDTH 1475
HEIGHT 1
VIEWPOINT 0 0 0 1 0 0 0
POINTS 1475
DATA ascii
-0.226016 2.2126369 0.70076197 0
-0.221633 2.2278891 0.81147301 0
-0.236955 1.811453 0.94796699 0
-0.265306 1.09093 1.128409 0
-0.222854 2.2845869 0.259664 0
-0.21607 2.3527441 0.373656 0
-0.213653 2.327893 0.480975 0
-0.214305 2.2334681 0.589324 0
-0.21152399 2.214108 0.700261 0
-0.207185 2.2299099 0.81090599 0
-0.221071 1.818311 0.94700801 0
-0.246957 1.105675 1.126546 0
-0.208358 2.2893419 0.259633 0
-0.201941 2.3543329 0.37332299 0
-0.19946501 2.329581 0.48059201 0
-0.199854 2.2351451 0.58887899 0
-0.197053 2.215385 0.69976699 0
-0.19275901 2.2317629 0.81035 0
-0.20524999 1.824716 0.94608301 0
-0.228726 1.119761 1.124748 0
-0.193775 2.2969711 0.25983399 0
-0.187829 2.3558149 0.37298501 0
-0.185294 2.3311999 0.48020899 0
-0.18483301 2.251827 0.58860499 0
-0.18259799 2.216531 0.69927698 0
-0.177819 2.2477551 0.80929899 0
-0.189487 1.830695 0.94519001 0
-0.21059901 1.133431 1.122995 0
-0.17934 2.302012 0.259826 0
-0.173733 2.3571999 0.37264001 0
-0.17114 2.3327191 0.47982299 0
-0.17045601 2.2534709 0.588166 0
-0.168157 2.217557 0.69879299 0
-0.163963 2.2351379 0.80926102 0
-0.173769 1.836498 0.944314 0
-0.192626 1.145013 1.121423 0
-0.16504499 2.3041129 0.25957799 0
-0.159655 2.358465 0.37228999 0
-0.157004 2.3341031 0.479435 0
-0.15609799 2.254977 0.58772802 0
-0.153733 2.2184451 0.698313 0
-0.14959399 2.2365639 0.80873299 0
-0.158104 1.841884 0.94346899 0
-0.17476 1.155589 1.119944 0
-0.150793 2.3052809 0.25925401 0
-0.14558899 2.359596 0.371932 0
-0.142882 2.33534 0.47904199 0
-0.141756 2.256295 0.58728999 0
-0.13931701 2.2192149 0.69783801 0
-0.13523801 2.2379069 0.80821198 0
-0.142479 1.847057 0.94264299 0
-0.15698899 1.164959 1.118573 0
-0.136563 2.30604 0.25889599 0
-0.131538 2.360517 0.37156099 0
-0.128773 2.3364511 0.47864601 0
-0.127432 2.257308 0.586851 0
-0.12491 2.219924 0.697366 0
-0.120894 2.2391789 0.80769801 0
-0.12689599 1.851791 0.94184899 0
-0.13932 1.172542 1.117357 0
-0.122345 2.3065741 0.25851899 0
-0.117499 2.361289 0.37118301 0
-0.114677 2.3374021 0.478246 0
-0.113122 2.2580791 0.58641201 0
-0.110512 2.2205329 0.69690001 0
-0.106561 2.24037 0.80719101 0
-0.111349 1.856374 0.94107002 0
-0.121761 1.177184 1.11639 0
-0.108137 2.306905 0.25812399 0
-0.103469 2.3619521 0.37079799 0
-0.100592 2.338217 0.47784299 0
-0.098821998 2.2586789 0.58597302 0
-0.096120998 2.2210641 0.696437 0
-0.092145003 2.246294 0.80652398 0
-0.095835 1.860723 0.94031203 0
-0.104231 1.181824 1.115431 0
-0.093937002 2.3070691 0.25771499 0
-0.089446999 2.3625009 0.37040699 0
-0.086515002 2.3389339 0.47743699 0
-0.084530003 2.2591679 0.58553398 0
-0.081735998 2.2215371 0.69597799 0
-0.077923998 2.2426491 0.80619401 0
-0.080349997 1.864976 0.939565 0
-0.086732 1.186419 1.114484 0
-0.079741001 2.307106 0.257294 0
-0.075432003 2.362947 0.37000999 0
-0.072444998 2.3395591 0.477029 0
-0.070243001 2.259582 0.58509701 0
-0.067354999 2.221976 0.69552302 0
-0.063617997 2.2437661 0.80570197 0
-0.064894997 1.869063 0.93883401 0
-0.069261998 1.191067 1.113542 0
-0.065549999 2.3070281 0.256863 0
-0.061423998 2.3633101 0.36960801 0
-0.058384001 2.3400919 0.47661901 0
-0.055962998 2.2599361 0.58466101 0
-0.052981999 2.2223799 0.69507098 0
-0.049323 2.244782 0.80521798 0
-0.049469002 1.872929 0.93812299 0
-0.051823001 1.195792 1.112601 0
-0.051359002 2.3068769 0.25642499 0
-0.047417 2.3636129 0.369203 0
-0.044325002 2.340524 0.476206 0
-0.041684002 2.260251 0.58422703 0
-0.038609002 2.222713 0.69462299 0
-0.035034001 2.2456789 0.80474299 0
-0.034068 1.876484 0.93743497 0
-0.03441 1.200531 1.111668 0
-0.037167002 2.3066759 0.25598201 0
-0.033413999 2.363843 0.36879301 0
-0.030270999 2.340878 0.47579199 0
-0.027407 2.260498 0.583794 0
-0.02424 2.222918 0.69418001 0
-0.020750999 2.2464521 0.80427599 0
-0.018688999 1.879814 0.93676698 0
-0.017026 1.2052259 1.110746 0
-0.022976 2.306433 0.25553501 0
-0.019412 2.363976 0.36837801 0
-0.016218999 2.34115 0.47537601 0
-0.013134 2.260679 0.583363 0
-0.009873 2.2230029 0.69374102 0
-0.0064739999 2.2469251 0.80382299 0
-0.003331 1.882633 0.93613303 0
0.000329 1.2098041 1.1098419 0
-0.0087829996 2.3061321 0.25508201 0
-0.0054120002 2.3639951 0.36795601 0
-0.002169 2.341325 0.47495699 0
0.0011390001 2.260819 0.582932 0
0.004493 2.2230151 0.69330603 0
0.0077999998 2.2471721 0.80338198 0
0.012012 1.884699 0.93554902 0
0.017667999 1.2106889 1.109244 0
0.0054120002 2.305804 0.25462499 0
0.0085890004 2.363903 0.36752799 0
0.011881 2.341392 0.474536 0
0.015412 2.260855 0.58250302 0
0.018860999 2.222894 0.69287503 0
0.022074999 2.2472031 0.802953 0
0.027345 1.886309 0.93499702 0
0.035002001 1.211537 1.108657 0
0.019609001 2.3054421 0.25416401 0
0.02259 2.3637011 0.367093 0
0.02593 2.3413811 0.47411299 0
0.029684 2.2608459 0.582075 0
0.033229999 2.22262 0.69244897 0
0.036350999 2.2469621 0.80253601 0
0.042672001 1.887535 0.93447298 0
0.052331999 1.212384 1.108078 0
0.033806998 2.3050289 0.253699 0
0.036591999 2.363415 0.366653 0
0.039979 2.3412991 0.47368801 0
0.043956 2.260783 0.58164901 0
0.047600001 2.2222731 0.69202697 0
0.050629001 2.246578 0.80212897 0
0.057996999 1.888136 0.93399 0
0.069654003 1.213258 1.1075031 0
0.048011001 2.304585 0.25322899 0
0.0506 2.3630221 0.36620599 0
0.054032002 2.341116 0.473261 0
0.058233 2.2605929 0.581222 0
0.061976001 2.221854 0.69160801 0
0.064914003 2.2461009 0.80172801 0
0.073328003 1.888417 0.93352997 0
0.086974002 1.214195 1.106931 0
0.062219001 2.3040979 0.25275499 0
0.064613 2.362561 0.36575601 0
0.068089001 2.3408411 0.47283101 0
0.072512999 2.2603641 0.58079702 0
0.076357998 2.2213559 0.69119298 0
0.079204001 2.2455361 0.80133498 0
0.088660002 1.888504 0.93308699 0
0.10429 1.215189 1.106362 0
0.076433003 2.3035331 0.25227299 0
0.07863 2.362031 0.36530101 0
0.082151003 2.340482 0.472399 0
0.086796001 2.2600801 0.580374 0
0.090744004 2.220845 0.69078201 0
0.093376003 2.251272 0.80073398 0
0.103998 1.888405 0.93265998 0
0.121599 1.216266 1.105793 0
0.090653002 2.302892 0.251784 0
0.092653997 2.3614471 0.364842 0
0.096216999 2.340044 0.471964 0
0.101085 2.2597251 0.57995099 0
0.105135 2.220295 0.690373 0
0.107801 2.244359 0.80056 0
0.119343 1.888056 0.932253 0
0.138901 1.217463 1.1052229 0
0.104882 2.3021419 0.25128499 0
0.106685 2.3607471 0.36437699 0
0.110292 2.3394899 0.47152701 0
0.115381 2.2592421 0.57952899 0
0.119534 2.2196851 0.68996799 0
0.122109 2.2437241 0.80018097 0
0.134699 1.887489 0.93186301 0
0.15627199 1.215938 1.1048779 0
0.119121 2.30123 0.25077099 0
0.120726 2.3599391 0.36390501 0
0.124375 2.338804 0.47108501 0
0.129687 2.2585571 0.57910502 0
0.13394099 2.218981 0.68956703 0
0.136425 2.243005 0.79980701 0
0.150068 1.886696 0.93149102 0
0.17371599 1.2123899 1.104701 0
0.13337199 2.300096 0.25023699 0
0.134775 2.358995 0.36342499 0
0.138466 2.3380091 0.47064099 0
0.144006 2.257586 0.57867998 0
0.14835601 2.2181661 0.68916899 0
0.150748 2.2422121 0.79944098 0
0.16545001 1.885635 0.93114001 0
0.19117901 1.208901 1.104527 0
0.147642 2.2987161 0.249681 0
0.14884 2.3579121 0.36293599 0
0.15256999 2.3370941 0.47019199 0
0.158345 2.256346 0.57825297 0
0.16278499 2.2172201 0.68877602 0
0.16508301 2.241343 0.79908001 0
0.180856 1.884239 0.930812 0
0.20866799 1.205457 1.1043561 0
0.16194201 2.296798 0.249079 0
0.16292 2.3566461 0.362436 0
0.166687 2.336041 0.46974 0
0.172702 2.254905 0.57782501 0
0.177228 2.2161379 0.68838698 0
0.178928 2.2537191 0.79828602 0
0.19628499 1.882529 0.93050802 0
0.226238 1.200552 1.104308 0
0.176314 2.2933791 0.24835099 0
0.177017 2.3552229 0.36192599 0
0.180819 2.334856 0.46928301 0
0.187075 2.253346 0.57739699 0
0.191686 2.214921 0.68800199 0
0.19379701 2.2391629 0.79838502 0
0.211742 1.8804981 0.93022698 0
0.24387001 1.194957 1.104321 0
0.190975 2.2833991 0.247071 0
0.191131 2.3536971 0.36140901 0
0.194965 2.3335929 0.468824 0
0.20200799 2.2389021 0.57679498 0
0.20616101 2.2135601 0.687621 0
0.208176 2.2379169 0.79804802 0
0.22723401 1.878029 0.92997497 0
0.26153401 1.18951 1.104329 0
0.205816 2.270752 0.245565 0
0.205263 2.352047 0.36088499 0
0.209125 2.3322711 0.46836299 0
0.216438 2.237524 0.57637203 0
0.22065499 2.2120509 0.687244 0
0.222573 2.236517 0.79772002 0
0.24276499 1.875129 0.92975199 0
0.27922201 1.18433 1.104322 0
0.220465 2.2639489 0.244546 0
0.219412 2.3503151 0.36035499 0
0.22330099 2.3308671 0.46790001 0
0.23088101 2.23613 0.57595003 0
0.235174 2.210304 0.68687201 0
0.23699 2.234972 0.7974 0
0.25833699 1.871855 0.929555 0
0.29701501 1.177806 1.1044281 0
0.23492301 2.2619431 0.243927 0
0.23357899 2.3485351 0.35982201 0
0.23749299 2.3293979 0.467435 0
0.245343 2.2346251 0.57552803 0
0.249725 2.2082181 0.68650597 0
0.25142699 2.23331 0.79708803 0
0.273954 1.868202 0.92938399 0
0.314868 1.171 1.104564 0
0.249268 2.262336 0.243508 0
0.247761 2.3467059 0.359285 0
0.251699 2.3278661 0.46696901 0
0.25981399 2.2331581 0.575109 0
0.264314 2.205725 0.68614602 0
0.265883 2.231518 0.79678398 0
0.28962201 1.864064 0.92924601 0
0.332775 1.164005 1.10472 0
0.263569 2.2636099 0.24316201 0
0.26196399 2.344826 0.35874501 0
0.265926 2.3262639 0.46650001 0
0.27429801 2.2317381 0.57469201 0
0.278961 2.2026131 0.68579501 0
0.280368 2.2295451 0.796489 0
0.30534601 1.859537 0.929133 0
0.350788 1.156083 1.104956 0
0.27787599 2.264739 0.24280301 0
0.27618799 2.3428631 0.358199 0
0.28017399 2.324542 0.466028 0
0.28876799 2.230777 0.57428199 0
0.293643 2.1993289 0.68544698 0
0.29487699 2.2274621 0.796202 0
0.32111999 1.854733 0.92904103 0
0.36913699 1.143705 1.105552 0
0.293432 2.2455981 0.240733 0
0.290436 2.340801 0.357647 0
0.294449 2.322648 0.46554899 0
0.30312401 2.231777 0.57390302 0
0.30827001 2.197278 0.68509102 0
0.30941099 2.22526 0.79592103 0
0.33695099 1.849597 0.92897201 0
0.38757399 1.1312259 1.106161 0
0.30961701 2.2186389 0.23799901 0
0.30470899 2.338613 0.357086 0
0.30875099 2.320591 0.465065 0
0.317442 2.233361 0.57353401 0
0.32281101 2.1967871 0.68472302 0
0.32397601 2.222888 0.79565001 0
0.35284701 1.8440419 0.928931 0
0.40609801 1.118649 1.106783 0
0.32585001 2.193464 0.23540901 0
0.31900999 2.336308 0.356518 0
0.323084 2.3183589 0.46457499 0
0.331352 2.2407341 0.57325 0
0.337304 2.1970911 0.68435198 0
0.33857 2.2203829 0.79538703 0
0.368808 1.838142 0.928913 0
0.42490599 1.1033 1.10763 0
0.342035 2.1712129 0.23306 0
0.33333901 2.3338809 0.35594201 0
0.33744901 2.315958 0.46407899 0
0.344982 2.251441 0.573017 0
0.35147899 2.2018161 0.68394399 0
0.35319501 2.217746 0.79513198 0
0.384835 1.831917 0.92891902 0
0.444186 1.082997 1.108874 0
0.358248 2.1504731 0.23083401 0
0.3477 2.331286 0.35535401 0
0.35184899 2.3133371 0.46357399 0
0.35847899 2.2630889 0.57280201 0
0.36517999 2.2124181 0.68348801 0
0.367856 2.2149031 0.79488599 0
0.40093201 1.825345 0.92894697 0
0.463608 1.062495 1.110139 0
0.37455001 2.130337 0.228654 0
0.36210299 2.3284669 0.35475299 0
0.36628899 2.310513 0.463063 0
0.37187099 2.2753069 0.57259899 0
0.37870899 2.224503 0.68302399 0
0.38257799 2.2116389 0.79465801 0
0.41711199 1.818336 0.92900503 0
0.48318201 1.0417891 1.111424 0
0.39109701 2.1087501 0.226345 0
0.37654701 2.325418 0.35413599 0
0.380759 2.307611 0.46254799 0
0.386417 2.272568 0.57217997 0
0.39213201 2.237066 0.68256098 0
0.39737901 2.2077341 0.79445302 0
0.433393 1.8107311 0.92909998 0
0.51046097 0.93106002 1.119807 0
0.40794501 2.0852139 0.223865 0
0.39103299 2.322185 0.35350701 0
0.395257 2.304678 0.462033 0
0.40158901 2.262732 0.571657 0
0.40633801 2.239646 0.68218702 0
0.41240999 2.2015071 0.79432601 0
0.449781 1.802497 0.92923403 0
0.53617603 0.84606498 1.126158 0
0.425125 2.0595751 0.221201 0
0.405561 2.3187771 0.35286701 0
0.40979099 2.301616 0.461514 0
0.416181 2.2602701 0.571244 0
0.42163101 2.229845 0.68192101 0
0.42695001 2.2013099 0.79400998 0
0.46626601 1.793838 0.92939597 0
0.54203898 0.98707801 1.114728 0
0.442563 2.0328779 0.218439 0
0.42013401 2.3151901 0.35221499 0
0.42436099 2.2984459 0.46099001 0
0.43079501 2.2578039 0.57083201 0
0.43703201 2.219595 0.68166 0
0.44201699 2.1954839 0.79387599 0
0.482896 1.784263 0.92961299 0
0.55717403 1.01954 1.111854 0
0.46077201 1.999675 0.21511699 0
0.434753 2.311413 0.35155001 0
0.438972 2.2951341 0.46046099 0
0.44543299 2.2553351 0.57042199 0
0.45250699 2.2093029 0.6814 0
0.45715699 2.189347 0.79375601 0
0.49982601 1.772252 0.929968 0
0.56858897 1.088738 1.106105 0
0.44941601 2.3074939 0.350876 0
0.45361999 2.2917061 0.45992801 0
0.46009299 2.252861 0.57001299 0
0.46804699 2.1990499 0.68114197 0
0.472341 2.1831999 0.793639 0
0.51708102 1.757751 0.93046498 0
0.60758197 0.875826 1.12252 0
0.46412599 2.3034379 0.350191 0
0.468312 2.2881539 0.45939001 0
0.474778 2.2503841 0.56960601 0
0.48366001 2.1887989 0.68088502 0
0.48755899 2.177197 0.79351997 0
0.53461897 1.741442 0.93106502 0
0.47888499 2.299233 0.34949699 0
0.48304901 2.2844491 0.458846 0
0.48948801 2.2479031 0.56919998 0
0.49934801 2.1785071 0.68063003 0
0.50280398 2.171371 0.79339898 0
0.55238801 1.723969 0.931732 0
0.52698302 1.95061 0.208923 0
0.493698 2.294847 0.34878999 0
0.497832 2.2806201 0.458298 0
0.50422198 2.2454171 0.56879503 0
0.51511699 2.168124 0.68037701 0
0.51808703 2.1656051 0.79327899 0
0.57034999 1.7057739 0.93244201 0
0.54243201 1.950593 0.208416 0
0.50857002 2.2902391 0.34806901 0
0.51266199 2.2766531 0.457744 0
0.51898098 2.242928 0.56839103 0
0.530931 2.157995 0.68012398 0
0.53342098 2.159781 0.79316401 0
0.58849299 1.6870461 0.93318599 0
0.55789202 1.950575 0.207908 0
0.52350301 2.2854259 0.34733301 0
0.52754098 2.2725489 0.457185 0
0.53392202 2.239038 0.567967 0
0.54648399 2.150821 0.67984802 0
0.54882097 2.153769 0.79305798 0
0.60693097 1.666811 0.93401498 0
0.57336098 1.950559 0.207398 0
0.538499 2.280411 0.34658399 0
0.54246998 2.268312 0.45662099 0
0.54895997 2.2346029 0.567536 0
0.56182897 2.1459129 0.67955703 0
0.56430203 2.1474631 0.79296499 0
0.62592602 1.642959 0.935045 0
0.58872598 1.951519 0.206971 0
0.55356002 2.2751579 0.34581801 0
0.55745399 2.2638979 0.45605099 0
0.56403399 2.2301559 0.56710601 0
0.577227 2.1408739 0.67926902 0
0.57985997 2.1408999 0.79288298 0
0.64543402 1.616112 0.936243 0
0.59872401 1.997378 0.21041401 0
0.568703 2.2696021 0.34503299 0
0.57249302 2.259352 0.45547399 0
0.57914901 2.225697 0.56667697 0
0.59267098 2.1358099 0.67898399 0
0.59550101 2.1340959 0.79281098 0
0.6649 1.591047 0.93734598 0
0.61040598 2.027319 0.21249001 0
0.58396399 2.2634549 0.344208 0
0.58758599 2.254688 0.45489401 0
0.59430301 2.2212279 0.56624901 0
0.60816002 2.1307311 0.67870098 0
0.61122 2.1270831 0.79274899 0
0.68490899 1.5629801 0.93861598 0
0.62197101 2.0568221 0.214533 0
0.59941298 2.2562001 0.34331301 0
0.60272902 2.2499361 0.45430899 0
0.60949701 2.216747 0.56582099 0
0.62369198 2.1256371 0.67842001 0
0.62701201 2.1199279 0.79269499 0
0.70623302 1.526152 0.94036603 0
0.63301498 2.089051 0.21681701 0
0.61462098 2.2512369 0.34255999 0
0.61791599 2.245158 0.453724 0
0.62474602 2.2121511 0.56539297 0
0.63926899 2.120528 0.678141 0
0.64287603 2.1126411 0.79264802 0
0.73244601 1.454096 0.94404 0
0.71759999 1.5406719 0.038867999 0
0.64323598 2.126106 0.219523 0
0.62618297 2.274107 0.34356201 0
0.63314497 2.2403691 0.45313799 0
0.64015502 2.2066481 0.56495202 0
0.65496802 2.1148331 0.67786902 0
0.65881199 2.105237 0.79260701 0
0.71807402 1.662284 0.051695 0
0.65582001 2.144062 0.22058 0
0.655981 2.161526 0.33601099 0
0.64840698 2.2356479 0.45255399 0
0.65561199 2.2011271 0.564511 0
0.67073399 2.108988 0.67760003 0
0.67481899 2.0977409 0.79257298 0
0.72474998 1.733454 0.058966 0
0.67132199 2.1401651 0.219742 0
0.66772801 2.184195 0.33699501 0
0.66369599 2.2310071 0.451974 0
0.67111498 2.19559 0.564071 0
0.68654901 2.103122 0.67733401 0
0.69090199 2.0900941 0.79254597 0
0.74055201 1.736761 0.058734 0
0.68716103 2.13416 0.21871801 0
0.67927003 2.207433 0.33801901 0
0.67906803 2.2260849 0.45138201 0
0.68666899 2.1900351 0.563631 0
0.70241898 2.097235 0.67707002 0
0.70709598 2.0821099 0.79253298 0
0.75637698 1.739864 0.058476999 0
0.703197 2.127135 0.217602 0
0.69068998 2.2306149 0.339044 0
0.69458997 2.2204249 0.45076099 0
0.70227402 2.1844621 0.56319201 0
0.71833998 2.091327 0.676808 0
0.72343701 2.0735481 0.79254001 0
0.772259 1.742543 0.058169998 0
0.71933001 2.119833 0.21646 0
0.70868897 2.2084329 0.33718899 0
0.71030003 2.2138269 0.450102 0
0.71792799 2.1788709 0.56275398 0
0.73431498 2.085398 0.676548 0
0.73997998 2.064074 0.792579 0
0.78825599 1.744441 0.057774998 0
0.73559099 2.112078 0.21527401 0
0.71987498 2.232368 0.338265 0
0.72618502 2.206424 0.44940999 0
0.73406702 2.1704049 0.56226897 0
0.75034201 2.079448 0.67629099 0
0.75673699 2.0536721 0.79264897 0
0.804443 1.745122 0.057241999 0
0.75205898 2.1033721 0.214003 0
0.74956501 2.135344 0.33163601 0
0.74225402 2.1982141 0.44868499 0
0.750808 2.1584771 0.561728 0
0.766424 2.073477 0.676036 0
0.77367699 2.042604 0.79274201 0
0.82081199 1.744709 0.056584999 0
0.76875597 2.093643 0.212639 0
0.761141 2.1574659 0.33259299 0
0.75856501 2.1888859 0.44791499 0
0.76764899 2.1464779 0.56118602 0
0.78255999 2.0674839 0.67578298 0
0.79074699 2.0312309 0.79284698 0
0.83731002 1.7435941 0.055847 0
0.785712 2.082761 0.21117 0
0.77255702 2.179822 0.33356899 0
0.77516598 2.1782 0.44708899 0
0.78458899 2.134409 0.560642 0
0.798751 2.0614691 0.67553198 0
0.80784303 2.0202179 0.79294401 0
0.85387301 1.7422121 0.055075001 0
0.80284297 2.0712979 0.209647 0
0.783957 2.2015071 0.33450601 0
0.79193598 2.1669559 0.44623899 0
0.80162799 2.1222689 0.56009799 0
0.81523198 2.0539939 0.67529398 0
0.824983 2.009429 0.79303801 0
0.87059999 1.7399991 0.054207999 0
0.82109201 2.053632 0.20757499 0
0.80780703 2.147702 0.33060601 0
0.809089 2.153945 0.44531599 0
0.81877202 2.1100559 0.55955201 0
0.83178699 2.0464571 0.67505801 0
0.84474999 1.983544 0.79359198 0
0.887609 1.7362961 0.053169999 0
0.84018898 2.0316961 0.20512301 0
0.82618999 2.128195 0.328899 0
0.82699198 2.137084 0.44423601 0
0.83279502 2.116673 0.55932403 0
0.84590602 2.053534 0.67472702 0
0.86402899 1.961521 0.79403001 0
0.90487099 1.731353 0.051989999 0
0.86040699 2.0041389 0.20217 0
0.84502703 2.1068511 0.327068 0
0.84566498 2.116467 0.443001 0
0.85118002 2.0980239 0.558671 0
0.86231297 2.0473051 0.67448699 0
0.90016502 1.843814 0.79736 0
0.92230898 1.725679 0.050724 0
0.90180802 1.856842 0.18866199 0
0.86411202 2.0849421 0.32519701 0
0.864833 2.093869 0.44168201 0
0.87124199 2.0706339 0.557868 0
0.884229 2.010303 0.67445099 0
0.94013399 1.71813 0.049242999 0
0.91828197 1.854463 0.18790101 0
0.88377601 2.060657 0.32316899 0
0.88439101 2.0699661 0.44030601 0
0.89178997 2.041579 0.55703503 0
0.90768802 1.966104 0.67446202 0
0.93482602 1.851881 0.18712001 0
0.90431398 2.032491 0.32088399 0
0.90471202 2.0427899 0.43879399 0
0.91306299 2.0096409 0.55615002 0
0.93332303 1.911629 0.67453599 0
0.95226502 1.844622 0.18592399 0
0.92572099 2.0006571 0.31835699 0
0.92606199 2.0110641 0.43709099 0
0.93594199 1.970217 0.555134 0
0.96596199 1.821506 0.67483598 0
0.96872002 1.855321 0.30847099 0
0.94845301 1.974973 0.43520501 0
0.96066999 1.922429 0.55396998 0
-0.61772603 2.270293 0.362829 0
-0.57592499 2.269902 0.363291 0
-0.81055403 2.145067 0.50094599 0
-0.45267901 2.3095651 0.36789799 0
-0.78227901 2.137464 0.50015497 0
-0.37185401 2.3291969 0.370408 0
-0.76290703 2.125607 0.49915099 0
-0.84828597 2.0722971 0.64686501 0
-0.30899501 2.3404601 0.37203899 0
-0.66262299 2.154135 0.50019097 0
-0.80566299 2.071831 0.645549 0
-0.254125 2.348141 0.37328801 0
-0.315813 2.307086 0.50755697 0
-0.68068999 2.113111 0.64421201 0
-0.203051 2.3542659 0.37436599 0
-0.26322001 2.3138161 0.50752801 0
-0.37880701 2.2450731 0.642887 0
-0.47870401 2.183861 0.78405797 0
-0.65507901 2.11625 0.203474 0
-0.15520599 2.359076 0.37529901 0
-0.212366 2.319994 0.50747597 0
-0.36403999 2.232425 0.641693 0
-0.356047 2.2262149 0.779863 0
-0.65203202 2.096591 0.201781 0
-0.111536 2.3620541 0.37603399 0
-0.163102 2.325681 0.50740302 0
-0.34843501 2.2202599 0.64050299 0
-0.29279301 2.2387199 0.77724898 0
-0.64894301 2.076911 0.200084 0
-0.070862003 2.3637619 0.376632 0
-0.118469 2.329288 0.50722897 0
-0.325791 2.211803 0.639319 0
-0.23714 2.247685 0.77485102 0
-0.64604002 2.057092 0.198364 0
-0.031953 2.364804 0.37715301 0
-0.077435002 2.331301 0.50697702 0
-0.28926 2.2107179 0.638152 0
-0.16562399 2.2653379 0.77206701 0
-0.253014 2.240396 0.227678 0
0.0051179999 2.3651221 0.37759301 0
-0.038176998 2.3326349 0.50669301 0
-0.236192 2.218559 0.63701099 0
-0.140729 2.2588329 0.77048802 0
-0.14484701 2.277204 0.234492 0
0.040371999 2.3647079 0.377951 0
-0.00081599999 2.3332081 0.50637197 0
-0.151829 2.2433469 0.63592702 0
-0.080073997 2.2715001 0.76801801 0
-0.095838003 2.2835219 0.236625 0
0.074242003 2.3637741 0.37824899 0
0.034451999 2.332896 0.50600898 0
-0.110208 2.2458861 0.63481897 0
-0.054604001 2.2657039 0.76644701 0
-0.054322999 2.2861631 0.238178 0
0.106989 2.362438 0.37850001 0
0.068267003 2.3320119 0.50561899 0
-0.071047999 2.2473559 0.63372302 0
-0.003521 2.2738769 0.76424903 0
-0.013898 2.2884779 0.239663 0
0.138392 2.3605721 0.37869 0
0.101088 2.3307941 0.50521398 0
-0.033225998 2.2483411 0.63263798 0
0.022492999 2.268744 0.76268399 0
0.025477 2.290477 0.241082 0
0.16834401 2.3581021 0.37881401 0
0.13265701 2.329088 0.504785 0
0.003305 2.248853 0.63156497 0
0.072384 2.2768359 0.76054502 0
0.064074002 2.2922969 0.242457 0
0.19707499 2.3551371 0.37888199 0
0.162561 2.3266549 0.50432098 0
0.038415 2.248806 0.63050097 0
0.104168 2.2752609 0.75886101 0
0.100607 2.2932241 0.243681 0
0.22505 2.3519211 0.37891799 0
0.1912 2.3236949 0.50383103 0
0.072511002 2.2484069 0.62944698 0
0.143254 2.2779329 0.757011 0
0.13402499 2.292655 0.244666 0
0.25248101 2.348561 0.37893501 0
0.21911199 2.3204939 0.50332999 0
0.105688 2.2477 0.62840301 0
0.16139799 2.269125 0.75567299 0
0.16708 2.2920871 0.245636 0
0.27930099 2.345017 0.37892801 0
0.246788 2.3173211 0.502832 0
0.137569 2.2464671 0.62736702 0
0.18436299 2.2631171 0.75422698 0
-0.173088 2.0511169 0.900289 0
0.18755899 2.2846739 0.245574 0
0.30543399 2.3412349 0.37889299 0
0.27420399 2.3141539 0.50233603 0
0.167707 2.244432 0.62633598 0
0.21393301 2.2609739 0.75263202 0
0.011241 2.135767 0.89027399 0
0.200727 2.2732401 0.24490701 0
0.33085299 2.3371921 0.37882501 0
0.301063 2.310827 0.50183302 0
0.196245 2.2416601 0.62531 0
0.242553 2.25846 0.751068 0
0.057666 2.1426871 0.88723397 0
0.218591 2.2645111 0.244635 0
0.35534099 2.3327589 0.378714 0
0.32689601 2.3070619 0.50130802 0
0.20129099 2.2255731 0.62420702 0
0.27022099 2.2555611 0.74953598 0
0.099197999 2.147083 0.88445199 0
0.25465801 2.266263 0.245901 0
0.37896001 2.3279591 0.378562 0
0.35052499 2.3021719 0.50072497 0
0.229287 2.222719 0.62319303 0
0.29699999 2.2523041 0.74803197 0
0.13728499 2.1497409 0.881854 0
0.28675199 2.2659531 0.246848 0
0.40177399 2.3228199 0.378371 0
0.36864701 2.294215 0.49997899 0
0.256558 2.2196031 0.62218499 0
0.32302099 2.248754 0.74655402 0
0.173043 2.151273 0.87938303 0
0.295544 2.2523291 0.245828 0
0.42390499 2.317404 0.37814799 0
0.38366199 2.2845261 0.49914101 0
0.28232801 2.2157609 0.62117898 0
0.34832299 2.244926 0.74510002 0
0.206732 2.1518061 0.87702501 0
0.30428499 2.238683 0.244801 0
0.445472 2.311774 0.37789899 0
0.39850399 2.2747941 0.498301 0
0.392259 2.261704 0.62057197 0
0.37263599 2.240654 0.74367601 0
0.23839501 2.1513441 0.87477601 0
0.313449 2.2252879 0.243807 0
0.466602 2.3059931 0.37763101 0
0.413241 2.2650509 0.49746001 0
0.407574 2.2522781 0.61955202 0
0.395412 2.2355959 0.742293 0
0.26861 2.150202 0.87260801 0
0.32315001 2.212218 0.242856 0
0.487288 2.300056 0.37734401 0
0.42786199 2.2552941 0.49661699 0
0.42753699 2.2456911 0.61856002 0
0.41145501 2.2266159 0.74106401 0
0.29756901 2.1484821 0.870511 0
0.33355099 2.1995759 0.241964 0
0.50752002 2.2939501 0.37703601 0
0.442296 2.2454779 0.495772 0
0.450831 2.241205 0.61759102 0
0.430718 2.219646 0.73976898 0
0.325351 2.1462171 0.86847901 0
0.344935 2.187541 0.241156 0
0.52729702 2.2876699 0.37670699 0
0.45676601 2.235734 0.49493 0
0.47396901 2.2367489 0.616629 0
0.449458 2.2124469 0.73849201 0
0.35200599 2.1434231 0.86650997 0
0.35720101 2.1760631 0.24042299 0
0.54660797 2.281204 0.37635499 0
0.47118801 2.2260129 0.49408901 0
0.49695399 2.2323239 0.61567301 0
0.468068 2.2052569 0.73722202 0
0.377857 2.140286 0.86458802 0
0.36993101 2.1649001 0.239731 0
0.56535399 2.2744861 0.37597501 0
0.485751 2.2164299 0.49325499 0
0.51978803 2.227926 0.61472303 0
0.48671901 2.1981781 0.73595601 0
0.40305299 2.136888 0.86270499 0
0.38192499 2.153321 0.238974 0
0.58313203 2.267262 0.375541 0
0.50021201 2.206836 0.49241999 0
0.54025698 2.222188 0.61376601 0
0.50543201 2.191222 0.734694 0
0.42738301 2.13309 0.86087102 0
0.394393 2.142067 0.238258 0
0.62463701 2.2747951 0.37656599 0
0.517869 2.19928 0.49169701 0
0.56024498 2.2162549 0.61281103 0
0.52425802 2.184428 0.73343498 0
0.45101199 2.128988 0.85907799 0
0.40682399 2.13082 0.23753899 0
0.61854798 2.252969 0.37467799 0
0.53951102 2.194289 0.49111301 0
0.58012998 2.2103541 0.611862 0
0.54322201 2.1778059 0.73217797 0
0.47426099 2.1247699 0.85731 0
0.42047 2.1203649 0.236928 0
0.60678601 2.227468 0.372426 0
0.56102198 2.189327 0.49053201 0
0.54121101 2.1674349 0.610502 0
0.56225401 2.171315 0.73092598 0
0.496849 2.120255 0.85557997 0
0.43499401 2.1105039 0.236397 0
0.59552699 2.202116 0.37018999 0
0.58230102 2.184329 0.48995 0
0.560803 2.161294 0.60954702 0
0.58111799 2.164808 0.72968203 0
0.518758 2.115427 0.85388899 0
0.45127201 2.1018031 0.23602501 0
0.585015 2.1770749 0.367984 0
0.60182297 2.1783199 0.48931301 0
0.58029503 2.155184 0.60859698 0
0.59962898 2.1581621 0.72845 0
0.53960901 2.110029 0.85225499 0
0.472534 2.0963449 0.23610801 0
0.70806003 2.2372839 0.374185 0
0.62124503 2.1723421 0.48867801 0
0.59968901 2.1491051 0.60765201 0
0.61770803 2.151325 0.72723198 0
0.55883002 2.1036811 0.850703 0
0.64665699 2.189065 0.25010601 0
0.714643 2.223495 0.37307999 0
0.640571 2.1663949 0.48804501 0
0.61898601 2.143055 0.60671198 0
0.63548899 2.1443739 0.72602397 0
0.576276 2.096266 0.84924197 0
0.66757101 2.1842489 0.25023499 0
0.70301902 2.197896 0.37081 0
0.65979499 2.1604791 0.48741499 0
0.638183 2.137037 0.60577601 0
0.65302402 2.137346 0.72482699 0
0.59215403 2.0878999 0.84785903 0
0.68542498 2.1775479 0.25008899 0
0.69148803 2.172184 0.36853001 0
0.67892599 2.1545911 0.48678601 0
0.657287 2.131047 0.60484499 0
0.67042601 2.130306 0.72363597 0
0.60765201 2.0793419 0.84649903 0
0.70261699 2.170495 0.249887 0
0.68054402 2.146687 0.36627099 0
0.69717598 2.1482151 0.48613101 0
0.676153 2.12499 0.603917 0
0.68763798 2.1232171 0.72245401 0
0.62298298 2.0707331 0.84514999 0
-0.57083797 1.264134 1.055712 0
0.719455 2.1632841 0.24965601 0
0.67261702 2.1230161 0.364191 0
0.71493298 2.1415961 0.48546299 0
0.69493097 2.1189649 0.60299402 0
0.70450199 2.1159711 0.72128201 0
0.63832003 2.062186 0.84380603 0
-0.21121299 1.481741 1.028285 0
0.73565203 2.1557209 0.24936999 0
0.79605401 2.1865931 0.37066701 0
0.767497 2.1582911 0.486094 0
0.71361703 2.112967 0.60207498 0
0.72089201 2.1084781 0.72012401 0
0.65364897 2.0536909 0.842466 0
-0.120106 1.520782 1.021013 0
0.751109 2.147732 0.249017 0
0.78507102 2.1611619 0.36840701 0
0.79266399 2.1569631 0.485724 0
0.73221499 2.106998 0.60115999 0
0.73671597 2.100672 0.71898103 0
0.668944 2.0452311 0.84113199 0
-0.058522999 1.540433 1.0159661 0
0.76585901 2.139328 0.248601 0
0.80653697 2.1574321 0.36827099 0
0.81076998 2.1510079 0.48509601 0
0.75072497 2.1010571 0.60025001 0
0.75211602 2.0926411 0.71784902 0
0.68373501 2.036485 0.83982497 0
0.0044519999 1.561489 1.010828 0
0.78004801 2.1306031 0.248135 0
0.81743801 2.146651 0.36744201 0
0.82205898 2.1404991 0.48421299 0
0.76914501 2.095145 0.59934402 0
0.76735002 2.084558 0.71672398 0
0.69802898 2.0274539 0.83854502 0
0.050932001 1.571641 1.006932 0
0.79361999 2.1215041 0.247611 0
0.82759601 2.1353819 0.36656299 0
0.83245498 2.129401 0.48329699 0
0.78748202 2.0892601 0.59844202 0
0.78260797 2.0765481 0.71560299 0
0.712125 2.018332 0.83727801 0
0.098327003 1.5827481 1.002979 0
0.80712903 2.112406 0.24708299 0
0.83749998 2.1239519 0.365666 0
0.84237802 2.117995 0.48236299 0
0.81362402 2.08886 0.59762901 0
0.79809499 2.0687561 0.714481 0
0.72604501 2.0091341 0.83602297 0
0.146516 1.594741 0.99897599 0
0.81963998 2.102664 0.24646001 0
0.84730202 2.1124649 0.36476099 0
0.852005 2.106395 0.48141599 0
0.84754401 2.0940289 0.59690899 0
0.81387597 2.061229 0.71335799 0
0.73966599 1.999771 0.834786 0
0.181422 1.597738 0.99597102 0
0.83025903 2.091644 0.245655 0
0.85707003 2.100965 0.36385301 0
0.86152703 2.0947299 0.48046601 0
0.85674101 2.082104 0.595927 0
0.82978702 2.053858 0.712237 0
0.75301701 1.990262 0.83356398 0
0.21617401 1.600849 0.99298501 0
0.83993798 2.0799849 0.244758 0
0.86679399 2.0894439 0.36294001 0
0.87097597 2.0830231 0.47951099 0
0.865385 2.069793 0.59493899 0
0.84555602 2.0464511 0.71112198 0
0.76618397 1.980661 0.83235401 0
0.24900299 1.602814 0.99014997 0
0.84932399 2.0681291 0.24383099 0
0.87634701 2.077812 0.36201501 0
0.88038498 2.071295 0.47855499 0
0.87386 2.057364 0.59394801 0
0.85617697 2.0354421 0.71009701 0
0.77899402 1.970844 0.831164 0
0.28200299 1.605108 0.98730999 0
0.85858899 2.0561969 0.24289 0
0.885638 2.0660059 0.36107001 0
0.88967299 2.059489 0.47759399 0
0.88224399 2.044868 0.59295702 0
0.86552602 2.023541 0.709095 0
0.79158598 1.960909 0.82998699 0
0.30791199 1.602501 0.98500103 0
0.86748701 2.0440049 0.241909 0
0.89464301 2.053997 0.36010301 0
0.89872301 2.0475171 0.47662199 0
0.89056897 2.032325 0.59196401 0
0.87433201 2.011251 0.708103 0
0.80405998 1.950918 0.82881802 0
0.33248201 1.599064 0.98279798 0
0.87589598 2.0314641 0.240877 0
0.90336198 2.041785 0.35911399 0
0.90748203 2.035336 0.47563699 0
0.898839 2.019737 0.59097099 0
0.882245 1.998314 0.70712602 0
0.81624597 1.940749 0.82766598 0
0.356686 1.595493 0.98062801 0
0.88393098 2.0186491 0.239805 0
0.91186601 2.029418 0.35810801 0
0.91595602 2.022948 0.474639 0
0.90695602 2.0070341 0.589975 0
0.88960302 1.984961 0.706159 0
0.82801002 1.9303 0.82653499 0
0.37535501 1.587984 0.97887099 0
0.89164299 2.0055931 0.23869701 0
0.92022097 2.016938 0.35709 0
0.924245 2.010422 0.47363201 0
0.91484898 1.994159 0.58897603 0
0.89672601 1.971422 0.70519602 0
0.83902401 1.919323 0.825441 0
0.393673 1.580295 0.97714603 0
0.89871001 1.992054 0.23751999 0
0.92843002 2.004348 0.356058 0
0.93240201 1.997794 0.47261801 0
0.92246902 1.981073 0.58797199 0
0.90367401 1.957736 0.70423698 0
0.84974098 1.908144 0.82436299 0
0.41191399 1.572626 0.97543103 0
0.90327102 1.976658 0.23608699 0
0.93638998 1.991568 0.35500601 0
0.940404 1.985044 0.471596 0
0.929829 1.967782 0.58696502 0
0.910577 1.943997 0.70327699 0
0.86053199 1.897034 0.82328498 0
0.43010399 1.564994 0.97372502 0
0.90747702 1.96096 0.234611 0
0.942496 1.977405 0.353818 0
0.94825798 1.9721791 0.470566 0
0.93697399 1.954319 0.585953 0
0.917283 1.930095 0.70232201 0
0.871113 1.885785 0.822218 0
0.44901499 1.557984 0.97197098 0
0.816939 1.874718 0.223542 0
0.94731301 1.962252 0.352532 0
0.955724 1.9590091 0.46951801 0
0.94396198 1.9407181 0.584939 0
0.92377198 1.916002 0.70136899 0
0.87727898 1.871208 0.82134902 0
0.46646601 1.549946 0.97032899 0
0.84328902 1.8750629 0.22425599 0
0.87778503 1.891215 0.34584001 0
0.96121001 1.944333 0.46838099 0
0.95082498 1.927002 0.58392102 0
0.92998099 1.901673 0.70042002 0
0.88233203 1.855755 0.82053 0
0.56000102 1.600035 0.963121 0
0.86861199 1.874794 0.224878 0
0.90074098 1.889341 0.345837 0
0.96612602 1.929191 0.46721601 0
0.95756 1.913167 0.58289999 0
0.935938 1.887123 0.69947499 0
0.88703501 1.839994 0.819727 0
0.57659602 1.591841 0.96155697 0
0.75613701 1.780259 0.089033 0
0.89210498 1.873289 0.225324 0
0.92275798 1.886883 0.34577501 0
0.902336 1.8615839 0.46301401 0
0.96411699 1.899173 0.58187503 0
0.94151998 1.872255 0.69853503 0
0.89155298 1.824046 0.81893301 0
0.592287 1.583009 0.96006298 0
-0.44714701 0.76678002 1.195411 0
0.791982 1.787621 0.091464996 0
0.91438001 1.87099 0.225656 0
0.944381 1.884244 0.34569201 0
0.92426699 1.859098 0.46257401 0
0.969697 1.884402 0.58083397 0
0.94681197 1.857127 0.69759798 0
0.89596403 1.807969 0.81814402 0
0.60738301 1.573769 0.95861799 0
-0.406147 0.77272201 1.19115 0
0.82200301 1.790776 0.093148001 0
0.936019 1.868325 0.22593001 0
0.95587498 1.8739229 0.34486499 0
0.94580603 1.856429 0.46212399 0
0.97434503 1.868873 0.57977599 0
0.95181102 1.841733 0.69666499 0
0.90020502 1.79171 0.81736398 0
0.621849 1.5640841 0.957223 0
-0.073710002 1.0076441 1.156999 0
0.84951401 1.792192 0.094513997 0
0.95240003 1.861717 0.225667 0
0.964836 1.86166 0.34384799 0
0.95623499 1.845241 0.46117899 0
0.88738102 1.781858 0.577263 0
0.95656598 1.826106 0.69573402 0
0.90414602 1.775165 0.81659698 0
0.63586903 1.55409 0.95586401 0
0.016523 1.054433 1.1477031 0
0.87507302 1.792272 0.095633999 0
0.96054101 1.848773 0.224546 0
0.97138101 1.847512 0.34264699 0
0.96495301 1.832727 0.46015701 0
0.90943199 1.779454 0.576455 0
0.96114802 1.8103009 0.69480503 0
0.90787399 1.758401 0.81584001 0
0.649414 1.543759 0.95454401 0
0.071369998 1.073878 1.142042 0
0.89809501 1.790525 0.096427001 0
0.96866298 1.835801 0.223418 0
0.94821799 1.810024 0.339196 0
0.97134 1.818369 0.459025 0
0.93071502 1.776561 0.57564098 0
0.96558797 1.794332 0.69387603 0
0.91143101 1.741441 0.81509 0
0.66232502 1.532953 0.95327401 0
0.127159 1.094496 1.136291 0
0.91962498 1.787737 0.097028002 0
0.97130299 1.818501 0.221707 0
0.95414102 1.7951829 0.337926 0
0.94945401 1.781589 0.45658299 0
0.95021498 1.772367 0.57480401 0
0.96992803 1.778235 0.69294798 0
0.91487497 1.7243299 0.81434602 0
0.67473698 1.521773 0.95204401 0
0.170727 1.105719 1.131798 0
0.94055498 1.784593 0.097557999 0
0.80358398 1.666217 0.20191801 0
0.96007699 1.780315 0.336651 0
0.803949 1.645988 0.44835201 0
0.95679301 1.757941 0.573753 0
0.97408801 1.761942 0.69202 0
0.91816998 1.707038 0.81360799 0
0.68625802 1.509894 0.95088297 0
0.208619 1.112666 1.127893 0
0.95293301 1.774765 0.096929997 0
0.914029 1.733852 0.211588 0
0.96578401 1.7652299 0.335354 0
0.80423099 1.625754 0.44685799 0
0.96395302 1.743953 0.57270998 0
0.97761399 1.745084 0.69109899 0
0.92132598 1.68957 0.812877 0
0.69699901 1.497395 0.949781 0
0.24237201 1.116505 1.124418 0
0.95893902 1.759872 0.095430002 0
0.93794101 1.733097 0.212093 0
0.96992701 1.748847 0.33392999 0
0.80446899 1.605388 0.44535401 0
0.96976697 1.728851 0.57164198 0
0.980721 1.727824 0.69018197 0
0.92428201 1.671872 0.81215501 0
0.707003 1.484297 0.94873703 0
0.275121 1.1197439 1.121051 0
0.96486002 1.744874 0.093909003 0
0.958372 1.729674 0.21223301 0
0.96517497 1.725212 0.33180699 0
0.804645 1.584875 0.44383901 0
0.97145599 1.710351 0.57049799 0
0.98373997 1.710428 0.689264 0
0.92706603 1.653965 0.81143898 0
0.71629798 1.470613 0.94774699 0
0.306757 1.12228 1.117803 0
0.96976203 1.7290159 0.092239 0
0.96945298 1.71877 0.211372 0
0.95537198 1.697322 0.32927501 0
0.80475098 1.564208 0.442312 0
0.96777099 1.6873699 0.56925201 0
0.98668998 1.69291 0.68834502 0
0.92967302 1.635843 0.81073201 0
0.72485501 1.456309 0.946814 0
0.33770701 1.1244529 1.1146311 0
0.971645 1.710649 0.09014 0
0.94486099 1.678739 0.206633 0
0.89878899 1.6309071 0.32304299 0
0.80477202 1.543365 0.440772 0
0.94945401 1.652189 0.56772703 0
0.74100101 1.46973 0.69029498 0
0.93206698 1.617467 0.81003302 0
0.73277199 1.441451 0.94593102 0
0.36368999 1.122676 1.111974 0
0.97075403 1.68993 0.087641001 0
0.96091098 1.671762 0.20629001 0
0.92360502 1.6309201 0.32318801 0
0.90986198 1.6092989 0.44435501 0
0.94638598 1.62937 0.56647199 0
0.76070398 1.464744 0.68912703 0
0.93419099 1.598789 0.80934602 0
0.73985702 1.4258699 0.94511002 0
0.38688701 1.1187069 1.109607 0
0.96817398 1.6677099 0.084887996 0
0.96628797 1.656022 0.204781 0
0.94682199 1.629757 0.32321799 0
0.93438798 1.609171 0.44404301 0
0.93806601 1.602035 0.565108 0
0.78066099 1.460065 0.68796003 0
0.93616903 1.5799069 0.80866402 0
0.74636 1.409763 0.94433397 0
0.409944 1.11474 1.107259 0
0.949453 1.631978 0.079850003 0
0.80387598 1.500644 0.184772 0
0.955854 1.616891 0.32212099 0
0.95497602 1.6058919 0.44354501 0
0.95055503 1.591984 0.56413698 0
0.80077499 1.455615 0.68679798 0
0.93773299 1.560591 0.80799901 0
0.75218099 1.3930351 0.94361103 0
0.42994601 1.108296 1.105229 0
0.94945401 1.6115741 0.077412002 0
0.80362397 1.4792399 0.182533 0
0.94964403 1.591216 0.319796 0
0.94789702 1.579421 0.441672 0
0.95406401 1.574371 0.56299001 0
0.82057202 1.450996 0.68564397 0
0.93767703 1.539809 0.807401 0
0.75743502 1.375774 0.94292998 0
0.44892699 1.101066 1.103309 0
0.94945401 1.591067 0.074957997 0
0.80332398 1.4576859 0.18027399 0
0.958821 1.578373 0.31869799 0
0.803716 1.436596 0.43288001 0
0.83461499 1.4521821 0.55938101 0
0.840729 1.446779 0.68449199 0
0.937208 1.518569 0.80681998 0
0.76211399 1.357962 0.942294 0
0.46783 1.093847 1.101403 0
0.94945401 1.570459 0.072486997 0
0.918253 1.533664 0.19088399 0
0.95882201 1.557722 0.31685099 0
0.80334699 1.41478 0.43126601 0
0.85062599 1.4444849 0.558442 0
0.86084503 1.442629 0.68334597 0
0.93640202 1.496927 0.80625099 0
0.76636302 1.33972 0.94169098 0
0.48646501 1.086476 1.099528 0
0.94945502 1.549741 0.069998004 0
0.94280201 1.533667 0.191449 0
0.95030701 1.52968 0.31429401 0
0.91454399 1.488544 0.43534601 0
0.89751297 1.463407 0.55814302 0
0.88073897 1.438385 0.68220699 0
0.93495297 1.474611 0.80570698 0
0.770073 1.320937 0.94112998 0
0.57862097 1.143201 1.090116 0
0.949453 1.528916 0.067492001 0
0.96073002 1.5281399 0.19127899 0
0.95506799 1.512864 0.31281099 0
0.93927801 1.488742 0.435049 0
0.92005301 1.461635 0.55735803 0
0.90067202 1.434273 0.68107402 0
0.93292701 1.451666 0.80518502 0
0.773269 1.30163 0.94060701 0
0.58583999 1.126362 1.089422 0
0.96585703 1.522096 0.067332998 0
0.95124298 1.499032 0.188003 0
0.92014599 1.461637 0.308034 0
0.95868403 1.484465 0.43448499 0
0.94172698 1.459235 0.55656099 0
0.920524 1.4301879 0.67994702 0
0.93046999 1.42821 0.80467898 0
0.77600598 1.281836 0.94011998 0
0.59211898 1.10865 1.088829 0
0.96936798 1.50418 0.065311 0
0.96474999 1.4896801 0.187323 0
0.93478 1.453091 0.30733901 0
0.93947601 1.44655 0.43190801 0
0.949453 1.444732 0.555471 0
0.93979502 1.425691 0.67883003 0
0.92774898 1.4043829 0.80418199 0
0.778301 1.2615629 0.93966699 0
0.597996 1.090525 1.088282 0
0.97124499 1.484768 0.063037999 0
0.83745098 1.357355 0.17051201 0
0.94445503 1.4402421 0.30623001 0
0.95897102 1.4423341 0.431346 0
0.94945401 1.423389 0.55421001 0
0.95881498 1.421065 0.67772102 0
0.92489898 1.380298 0.803689 0
0.78015798 1.2408071 0.93924803 0
0.60369599 1.072181 1.087759 0
0.97121602 1.463593 0.060470998 0
0.85772699 1.353266 0.170532 0
0.95242202 1.425879 0.30497399 0
0.97019798 1.430904 0.43035001 0
0.96387702 1.414724 0.553262 0
0.97579998 1.414719 0.67663503 0
0.92204702 1.3560669 0.80319399 0
0.78163302 1.219609 0.93885797 0
0.60931098 1.053697 1.08725 0
0.96387798 1.435867 0.056813002 0
0.87826198 1.34951 0.17059 0
0.95789301 1.4092751 0.30350199 0
0.86686999 1.317572 0.423226 0
0.97001398 1.398708 0.55212998 0
0.98608398 1.402447 0.67561102 0
0.91929901 1.331784 0.80269301 0
0.78280002 1.198032 0.938492 0
0.61480999 1.035046 1.0867569 0
0.95027697 1.402388 0.052204002 0
0.918468 1.363355 0.172942 0
0.96341902 1.392661 0.30202699 0
0.90479898 1.329433 0.42362201 0
0.97155899 1.378517 0.55089098 0
0.98218399 1.377396 0.67470598 0
0.91671801 1.307501 0.80218297 0
0.78365499 1.1760581 0.938151 0
0.62015003 1.0161771 1.0862859 0
0.94209403 1.362677 0.17338701 0
0.96674901 1.374019 0.30035701 0
0.92905301 1.329273 0.423296 0
0.962448 1.3486021 0.54939902 0
0.97792 1.351856 0.67379701 0
0.91443098 1.283337 0.80166 0
0.78385502 1.153374 0.93785799 0
0.625323 0.997087 1.085838 0
0.94945401 1.347489 0.171933 0
0.95759797 1.3440239 0.29760101 0
0.94945401 1.325768 0.42276999 0
0.88092703 1.2526751 0.54619497 0
0.97318798 1.325724 0.67288703 0
0.91248798 1.259342 0.80112201 0
0.78482699 1.131273 0.93751299 0
0.63033801 0.977777 1.08541 0
0.96855599 1.3429019 0.171858 0
0.94641602 1.311963 0.29464701 0
0.95904398 1.312513 0.42165399 0
0.90457702 1.251871 0.54543298 0
0.96829098 1.299268 0.67197102 0
0.91082698 1.235461 0.80057102 0
0.78460801 1.107958 0.93725401 0
0.635216 0.95826399 1.085003 0
0.97129399 1.323488 0.169848 0
0.88529497 1.2340029 0.287314 0
0.97051698 1.30097 0.42063999 0
0.928056 1.251047 0.54467499 0
0.964589 1.273738 0.67104 0
0.90939599 1.211651 0.80000901 0
0.78404701 1.084195 0.93702197 0
0.63997197 0.93855798 1.084613 0
0.84487998 1.185549 0.15243199 0
0.97002101 1.2893879 0.292696 0
0.96438801 1.273193 0.41863999 0
0.95087802 1.249753 0.54390901 0
0.96177799 1.248872 0.67009598 0
0.90804499 1.187773 0.79944301 0
0.78304601 1.059884 0.936822 0
0.64466 0.91870701 1.084235 0
0.869277 1.185216 0.152913 0
0.96426201 1.261862 0.290169 0
0.90461701 1.195439 0.41360101 0
0.972606 1.2475719 0.54312301 0
0.95933598 1.224193 0.66914499 0
0.90675497 1.163811 0.79887199 0
0.78185999 1.0352581 0.936638 0
0.64921099 0.89864302 1.083877 0
0.89308703 1.184487 0.153336 0
0.89818102 1.177995 0.28227299 0
0.92839497 1.194904 0.41324601 0
0.97870201 1.230873 0.54195201 0
0.95691901 1.199387 0.66818702 0
0.905388 1.139637 0.79830301 0
0.78055501 1.010376 0.93646502 0
0.65323597 0.87799901 1.083578 0
0.91602701 1.183082 0.15366399 0
0.92180002 1.177263 0.28229699 0
0.95165402 1.194018 0.412871 0
0.97073799 1.200866 0.54042 0
0.954521 1.174441 0.66722399 0
0.90371001 1.115019 0.79774499 0
0.77909303 0.985192 0.93630397 0
0.65587997 0.85593998 1.083427 0
0.92649502 1.170089 0.15248699 0
0.94445801 1.175765 0.28224501 0
0.97294599 1.191407 0.41239199 0
0.96715498 1.174791 0.53898799 0
0.95218199 1.149392 0.66625601 0
0.90525901 1.093327 0.79706103 0
0.77748501 0.959714 0.93615597 0
0.659338 0.83455098 1.083198 0
0.91657197 1.137813 0.14881299 0
0.95254999 1.160587 0.28088799 0
0.96973902 1.165617 0.41049701 0
0.96411598 1.149066 0.53755999 0
0.94985503 1.124199 0.665281 0
0.905752 1.070507 0.79641598 0
0.77578002 0.93398702 0.93601602 0
0.66043299 0.81077999 1.083217 0
0.91151297 1.109917 0.145706 0
0.94327098 1.128804 0.27794901 0
0.962816 1.1361049 0.408371 0
0.961514 1.123593 0.536134 0
0.947613 1.098928 0.66430002 0
0.906259 1.0475709 0.79576999 0
0.773938 0.907969 0.93588799 0
0.66104901 0.78641301 1.083292 0
0.938519 1.101125 0.27539799 0
0.958628 1.109012 0.40638801 0
0.95931202 1.0983419 0.53470898 0
0.94540399 1.0735281 0.66331398 0
0.906771 1.02451 0.79512298 0
0.77204198 0.88173503 0.93576598 0
0.66125399 0.76150501 1.083415 0
0.934591 1.074051 0.272903 0
0.95516002 1.0824341 0.404434 0
0.95751798 1.073326 0.53328502 0
0.94392902 1.048681 0.66231698 0
0.90730602 1.001338 0.79447401 0
0.770091 0.855281 0.93564999 0
0.64462298 0.71991098 1.085278 0
0.93145198 1.047565 0.27046201 0
0.952613 1.056578 0.40252 0
0.95598799 1.048416 0.53185999 0
0.94503498 1.026212 0.66130298 0
0.90785998 0.97805601 0.79382199 0
0.76800799 0.82853401 0.93554503 0
0.646097 0.69586998 1.085282 0
0.92900503 1.021577 0.268067 0
0.95052397 1.031001 0.400621 0
0.954615 1.023499 0.53042901 0
0.94522798 1.002713 0.66028899 0
0.90841597 0.954638 0.79316998 0
0.76593602 0.80162197 0.93544102 0
0.647677 0.67179602 1.085282 0
0.92665499 0.99551499 0.265663 0
0.94856101 1.005383 0.39871499 0
0.95291501 0.99810201 0.52898002 0
0.94543898 0.97909302 0.65926999 0
0.90897 0.931081 0.79251701 0
0.76376998 0.77444297 0.93534601 0
0.64926201 0.64759302 1.085287 0
0.92414498 0.96912599 0.263226 0
0.9465 0.979505 0.39678901 0
0.952039 0.97336298 0.52754498 0
0.94570798 0.95538998 0.65824598 0
0.90952998 0.90739298 0.79186201 0
0.76152802 0.74701101 0.93525797 0
0.65091401 0.623321 1.085291 0
0.92197001 0.94289702 0.260802 0
0.944318 0.953336 0.394842 0
0.95218301 0.94949001 0.52613002 0
0.94597203 0.93154103 0.65721703 0
0.910092 0.88356698 0.79120499 0
0.759247 0.71936101 0.935175 0
0.65256703 0.59891301 1.085302 0
0.92055303 0.91725498 0.258432 0
0.94167101 0.92653 0.39285201 0
0.952034 0.925179 0.52469802 0
0.946253 0.90756702 0.656183 0
0.910649 0.85959399 0.79054803 0
0.709001 0.64281499 0.93844998 0
0.65416902 0.574314 1.085323 0
0.91980702 0.89212501 0.256109 0
0.941356 0.90189898 0.39099401 0
0.95179302 0.900626 0.52325499 0
0.94654799 0.883461 0.65514398 0
0.91121298 0.83548599 0.78988898 0
0.71213698 0.62003797 0.93799001 0
0.65570003 0.54950202 1.085358 0
0.91944301 0.86722702 0.25380599 0
0.94211698 0.878214 0.38918999 0
0.95153898 0.875911 0.52180302 0
0.94683498 0.85920602 0.6541 0
0.91177702 0.81123698 0.78922898 0
0.71530098 0.597175 0.93752998 0
0.65912002 0.52649802 1.085204 0
0.91912299 0.842215 0.25149 0
0.942321 0.85381401 0.387339 0
0.95128202 0.85103703 0.52034098 0
0.94711298 0.83478999 0.65305102 0
0.912328 0.78682399 0.78856802 0
0.718494 0.57421499 0.93707103 0
0.658746 0.499432 1.085449 0
0.91873801 0.81698102 0.24915101 0
0.94239599 0.82913202 0.38546699 0
0.951024 0.82600403 0.51887 0
0.94740099 0.81023401 0.65199703 0
0.91288 0.76226199 0.78790599 0
0.72171497 0.55115998 0.93661302 0
0.65991902 0.473809 1.0855401 0
0.91832602 0.79155999 0.24679101 0
0.94240302 0.80422598 0.383578 0
0.95076299 0.80081201 0.517389 0
0.94768798 0.78552502 0.65093797 0
0.91344601 0.73756599 0.787242 0
0.72500998 0.52805603 0.93615299 0
0.66095299 0.44788599 1.085652 0
0.91786402 0.76592499 0.24440999 0
0.94238102 0.77913398 0.381675 0
0.95050699 0.775464 0.515899 0
0.94796199 0.76064998 0.64987302 0
0.914002 0.71270603 0.78657597 0
0.728293 0.50481498 0.93569601 0
0.66184598 0.421657 1.085785 0
0.91741103 0.740134 0.242011 0
0.94231999 0.75384301 0.37975499 0
0.95024502 0.74994898 0.51440001 0
0.94824201 0.73562402 0.64880401 0
0.91457301 0.68770897 0.785909 0
0.73161501 0.48148701 0.93523902 0
0.662678 0.395201 1.085932 0
0.91692799 0.71414697 0.239592 0
0.94223303 0.72836399 0.37781999 0
0.949983 0.724271 0.51289099 0
0.94852298 0.71044201 0.64772803 0
0.91517299 0.66258699 0.78523999 0
0.73492098 0.458013 0.93478698 0
0.66348898 0.36855999 1.086087 0
0.91637802 0.68792498 0.237148 0
0.94212198 0.70270002 0.37586999 0
0.94972402 0.69843298 0.51137203 0
0.94880003 0.68510097 0.64664799 0
0.91570699 0.63724101 0.78457099 0
0.73783499 0.43399301 0.93436402 0
0.66429901 0.341755 1.086249 0
0.91580498 0.66150302 0.23468301 0
0.941989 0.676844 0.373905 0
0.949462 0.67242199 0.50984299 0
0.949076 0.65959299 0.64556098 0
0.91379303 0.609097 0.78398699 0
0.740399 0.409453 0.93396801 0
0.66510099 0.314767 1.086418 0
0.915209 0.63488299 0.232197 0
0.94184601 0.65080899 0.371925 0
0.94919699 0.646236 0.508304 0
0.94931602 0.63388199 0.64446902 0
0.91355801 0.58257699 0.783342 0
0.74266702 0.38444701 0.93359601 0
0.66590798 0.28761601 1.086594 0
0.91456997 0.60803902 0.229688 0
0.94169003 0.62458903 0.36993 0
0.94893402 0.61988097 0.50675499 0
0.94953001 0.60797799 0.64337099 0
0.91332603 0.55588299 0.782695 0
0.74471802 0.359056 0.93324202 0
0.66669798 0.260272 1.086779 0
0.91391498 0.58099997 0.227158 0
0.94151801 0.59818 0.367919 0
0.94867003 0.59335101 0.50519598 0
0.949736 0.58189499 0.642268 0
0.91315198 0.52907699 0.78204399 0
0.74675697 0.333496 0.93289101 0
0.667431 0.23268899 1.086977 0
0.91324401 0.55376202 0.22460601 0
0.941338 0.57158899 0.36589301 0
0.94840503 0.56664401 0.50362599 0
0.89893401 0.49960601 0.64115202 0
0.91351599 0.50268698 0.78137201 0
0.74858397 0.30754501 0.932558 0
0.66809303 0.20485 1.087189 0
0.91251898 0.526281 0.222029 0
0.94115001 0.54481101 0.36385199 0
0.94814199 0.53975999 0.50204599 0
0.90069997 0.474563 0.64002299 0
0.91390097 0.476145 0.780698 0
0.75041997 0.281441 0.93222702 0
0.66865402 0.176717 1.087419 0
0.91178602 0.49860701 0.219432 0
0.94095802 0.51785302 0.36179599 0
0.94787902 0.51269901 0.50045502 0
0.90169901 0.44851699 0.638888 0
0.914298 0.44944599 0.78002203 0
0.75213999 0.25504899 0.93190598 0
0.669101 0.148274 1.0876679 0
0.91102397 0.470709 0.216811 0
0.940768 0.49071199 0.359725 0
0.88585198 0.41655499 0.496649 0
