# .PCD v0.7 - Point Cloud Data file format
VERSION 0.7
FIELDS x y z rgb label
SIZE 4 4 4 4 4
TYPE F F F F U
COUNT 1 1 1 1 1
WIDTH 790
HEIGHT 1
VIEWPOINT 0 0 0 1 0 0 0
POINTS 790
DATA ascii
-0.833597 1.851757 0.848624 0.000000000000000e+00 1851878480
-0.847730 1.845485 0.117674 0.000000000000000e+00 1701537140
-0.780363 2.227592 0.270492 0.000000000000000e+00 1851878480
-0.773408 2.242864 0.384005 0.000000000000000e+00 1870292837
-0.763835 2.274580 0.496989 0.000000000000000e+00 1851878480
-0.796214 2.045455 0.607312 0.000000000000000e+00 1851878480
-0.777516 2.133566 0.722244 0.000000000000000e+00 1851878480
-0.813658 1.877445 0.846879 0.000000000000000e+00 1851878480
-0.830473 1.853217 0.118095 0.000000000000000e+00 1701537140
-0.767607 2.214855 0.269108 0.000000000000000e+00 1851878480
-0.761956 2.222311 0.382444 0.000000000000000e+00 1870292837
-0.752144 2.256178 0.495929 0.000000000000000e+00 1851878480
-0.778838 2.058667 0.606831 0.000000000000000e+00 1851878480
-0.762042 2.136604 0.721577 0.000000000000000e+00 1851878480
-0.794402 1.899871 0.845277 0.000000000000000e+00 1851878480
-0.817682 1.833135 0.115683 0.000000000000000e+00 1701537140
-0.749436 2.236128 0.270371 0.000000000000000e+00 1851878480
-0.749475 2.207619 0.381199 0.000000000000000e+00 1870292837
-0.734335 2.276481 0.496059 0.000000000000000e+00 1851878480
-0.764805 2.050867 0.606205 0.000000000000000e+00 1851878480
-0.745062 2.149658 0.720750 0.000000000000000e+00 1851878480
-0.779338 1.895835 0.844739 0.000000000000000e+00 1851878480
-0.798092 1.856159 0.117658 0.000000000000000e+00 1701537140
-0.733719 2.242431 0.270469 0.000000000000000e+00 1851878480
-0.738690 2.181354 0.379322 0.000000000000000e+00 1870292837
-0.724284 2.246789 0.494649 0.000000000000000e+00 1851878480
-0.753009 2.028075 0.605471 0.000000000000000e+00 1851878480
-0.729796 2.151945 0.720105 0.000000000000000e+00 1851878480
-0.753714 1.962311 0.841409 0.000000000000000e+00 1851878480
-0.786721 1.826172 0.114230 0.000000000000000e+00 1701537140
-0.717962 2.249343 0.270615 0.000000000000000e+00 1851878480
-0.703333 2.317693 0.386308 0.000000000000000e+00 1870292837
-0.708718 2.252901 0.494346 0.000000000000000e+00 1851878480
-0.736201 2.038201 0.604977 0.000000000000000e+00 1851878480
-0.711208 2.176951 0.719099 0.000000000000000e+00 1851878480
-0.736101 1.977004 0.840148 0.000000000000000e+00 1851878480
-0.770138 1.830028 0.114249 0.000000000000000e+00 1701537140
-0.702817 2.252503 0.270469 0.000000000000000e+00 1851878480
-0.691514 2.299850 0.384897 0.000000000000000e+00 1870292837
-0.690178 2.279697 0.494689 0.000000000000000e+00 1851878480
-0.721563 2.033925 0.604381 0.000000000000000e+00 1851878480
-0.699952 2.152338 0.718894 0.000000000000000e+00 1851878480
-0.716799 2.004189 0.838405 0.000000000000000e+00 1851878480
-0.753521 1.834385 0.114317 0.000000000000000e+00 1701537140
-0.686843 2.261620 0.270788 0.000000000000000e+00 1851878480
-0.681195 2.270928 0.382876 0.000000000000000e+00 1870292837
-0.676517 2.273668 0.494014 0.000000000000000e+00 1851878480
-0.703774 2.051723 0.603954 0.000000000000000e+00 1851878480
-0.683241 2.165351 0.718091 0.000000000000000e+00 1851878480
-0.699927 2.015371 0.837301 0.000000000000000e+00 1851878480
-0.737319 1.836111 0.114116 0.000000000000000e+00 1701537140
-0.668520 2.287764 0.272443 0.000000000000000e+00 1851878480
-0.666946 2.268704 0.382315 0.000000000000000e+00 1870292837
-0.661120 2.279834 0.493721 0.000000000000000e+00 1851878480
-0.687711 2.057980 0.603445 0.000000000000000e+00 1851878480
-0.665935 2.183329 0.717217 0.000000000000000e+00 1851878480
-0.680079 2.048783 0.835335 0.000000000000000e+00 1851878480
-0.721888 1.832488 0.113366 0.000000000000000e+00 1701537140
-0.656559 2.269320 0.270603 0.000000000000000e+00 1851878480
-0.657637 2.230635 0.379784 0.000000000000000e+00 1870292837
-0.642954 2.306586 0.494078 0.000000000000000e+00 1851878480
-0.670597 2.072339 0.603004 0.000000000000000e+00 1851878480
-0.649326 2.197051 0.716417 0.000000000000000e+00 1851878480
-0.663607 2.058678 0.834300 0.000000000000000e+00 1851878480
-0.712011 1.788144 0.108447 0.000000000000000e+00 1701537140
-0.639864 2.285007 0.271440 0.000000000000000e+00 1851878480
-0.646569 2.203969 0.377874 0.000000000000000e+00 1870292837
-0.633107 2.272526 0.492524 0.000000000000000e+00 1851878480
-0.655415 2.072918 0.602458 0.000000000000000e+00 1851878480
-0.633304 2.207056 0.715682 0.000000000000000e+00 1851878480
-0.645900 2.078539 0.832885 0.000000000000000e+00 1851878480
-0.745139 1.419790 0.070345 0.000000000000000e+00 1701537140
-0.623544 2.298687 0.272121 0.000000000000000e+00 1851878480
-0.615069 2.331240 0.384442 0.000000000000000e+00 1870292837
-0.614940 2.300548 0.492929 0.000000000000000e+00 1851878480
-0.638908 2.083822 0.601998 0.000000000000000e+00 1851878480
-0.620223 2.194840 0.715293 0.000000000000000e+00 1851878480
-0.630539 2.081138 0.832148 0.000000000000000e+00 1851878480
-0.713773 1.528532 0.081070 0.000000000000000e+00 1701537140
-0.611639 2.279020 0.270180 0.000000000000000e+00 1851878480
-0.601098 2.328443 0.383854 0.000000000000000e+00 1870292837
-0.600373 2.301825 0.492491 0.000000000000000e+00 1851878480
-0.622302 2.096123 0.601555 0.000000000000000e+00 1851878480
-0.602496 2.218990 0.714352 0.000000000000000e+00 1851878480
-0.616790 2.071076 0.831906 0.000000000000000e+00 1851878480
-0.596910 2.280821 0.269925 0.000000000000000e+00 1851878480
-0.585302 2.340122 0.384067 0.000000000000000e+00 1851878480
-0.584892 2.310577 0.492294 0.000000000000000e+00 1851878480
-0.609422 2.079029 0.600873 0.000000000000000e+00 1851878480
-0.587425 2.222827 0.713726 0.000000000000000e+00 1851878480
-0.599119 2.092726 0.830445 0.000000000000000e+00 1851878480
-0.583020 2.276011 0.269149 0.000000000000000e+00 1851878480
-0.568842 2.357917 0.384621 0.000000000000000e+00 1851878480
-0.570989 2.306906 0.491703 0.000000000000000e+00 1851878480
-0.596577 2.060899 0.600182 0.000000000000000e+00 1851878480
-0.572732 2.223821 0.713148 0.000000000000000e+00 1851878480
-0.581090 2.118594 0.828833 0.000000000000000e+00 1851878480
-0.663857 1.381754 0.989614 0.000000000000000e+00 1851878480
-0.568760 2.274108 0.268601 0.000000000000000e+00 1851878480
-0.557585 2.333140 0.382817 0.000000000000000e+00 1851878480
-0.553928 2.329749 0.491962 0.000000000000000e+00 1851878480
-0.577768 2.092552 0.599912 0.000000000000000e+00 1851878480
-0.556834 2.235246 0.712418 0.000000000000000e+00 1851878480
-0.567078 2.111269 0.828500 0.000000000000000e+00 1851878480
-0.640415 1.437025 0.985447 0.000000000000000e+00 1851878480
-0.554087 2.275707 0.268329 0.000000000000000e+00 1851878480
-0.539414 2.366534 0.384241 0.000000000000000e+00 1851878480
-0.537645 2.347152 0.492052 0.000000000000000e+00 1851878480
-0.562346 2.096449 0.599413 0.000000000000000e+00 1851878480
-0.542943 2.229737 0.711943 0.000000000000000e+00 1851878480
-0.551986 2.113206 0.827817 0.000000000000000e+00 1851878480
-0.620159 1.466976 0.982863 0.000000000000000e+00 1851878480
-0.540708 2.266150 0.267174 0.000000000000000e+00 1851878480
-0.525638 2.363046 0.383619 0.000000000000000e+00 1851878480
-0.525873 2.325482 0.490886 0.000000000000000e+00 1851878480
-0.546434 2.105047 0.598958 0.000000000000000e+00 1851878480
-0.527479 2.238219 0.711267 0.000000000000000e+00 1851878480
-0.533114 2.149730 0.825827 0.000000000000000e+00 1851878480
-0.598386 1.512597 0.979328 0.000000000000000e+00 1851878480
-0.528687 2.243943 0.265014 0.000000000000000e+00 1851878480
-0.510523 2.371602 0.383667 0.000000000000000e+00 1851878480
-0.511377 2.327586 0.490487 0.000000000000000e+00 1851878480
-0.530889 2.110835 0.598482 0.000000000000000e+00 1851878480
-0.514035 2.228513 0.710859 0.000000000000000e+00 1851878480
-0.519769 2.136708 0.825724 0.000000000000000e+00 1851878480
-0.578917 1.539213 0.976979 0.000000000000000e+00 1851878480
-0.511292 2.270284 0.266699 0.000000000000000e+00 1851878480
-0.496744 2.368259 0.383054 0.000000000000000e+00 1851878480
-0.496672 2.331862 0.490160 0.000000000000000e+00 1851878480
-0.514807 2.122137 0.598060 0.000000000000000e+00 1851878480
-0.496574 2.256712 0.709907 0.000000000000000e+00 1851878480
-0.502919 2.156768 0.824375 0.000000000000000e+00 1851878480
-0.565850 1.505326 0.978350 0.000000000000000e+00 1851878480
-0.497357 2.265294 0.265901 0.000000000000000e+00 1851878480
-0.484185 2.353110 0.381779 0.000000000000000e+00 1851878480
-0.482026 2.335903 0.489828 0.000000000000000e+00 1851878480
-0.499230 2.129275 0.597604 0.000000000000000e+00 1851878480
-0.482947 2.248951 0.709479 0.000000000000000e+00 1851878480
-0.489438 2.144701 0.824244 0.000000000000000e+00 1851878480
-0.555313 1.444168 0.981386 0.000000000000000e+00 1851878480
-0.482303 2.271107 0.265959 0.000000000000000e+00 1851878480
-0.468445 2.368602 0.382219 0.000000000000000e+00 1851878480
-0.467487 2.339239 0.489474 0.000000000000000e+00 1851878480
-0.483300 2.140510 0.597190 0.000000000000000e+00 1851878480
-0.466155 2.272928 0.708602 0.000000000000000e+00 1851878480
-0.472181 2.170623 0.822690 0.000000000000000e+00 1851878480
-0.543464 1.392872 0.983812 0.000000000000000e+00 1851878480
-0.469096 2.258665 0.264566 0.000000000000000e+00 1851878480
-0.451918 2.393133 0.383169 0.000000000000000e+00 1851878480
-0.450356 2.369491 0.490005 0.000000000000000e+00 1851878480
-0.466746 2.158997 0.596848 0.000000000000000e+00 1851878480
-0.450475 2.286862 0.707875 0.000000000000000e+00 1851878480
-0.458265 2.163009 0.822400 0.000000000000000e+00 1851878480
-0.529585 1.359950 0.985111 0.000000000000000e+00 1851878480
-0.453825 2.267032 0.264827 0.000000000000000e+00 1851878480
-0.438229 2.389475 0.382539 0.000000000000000e+00 1851878480
-0.435852 2.373899 0.489693 0.000000000000000e+00 1851878480
-0.453349 2.144957 0.596208 0.000000000000000e+00 1851878480
-0.437214 2.275662 0.707505 0.000000000000000e+00 1851878480
-0.442922 2.170538 0.821548 0.000000000000000e+00 1851878480
-0.500014 1.497627 0.976042 0.000000000000000e+00 1634431585
-0.565717 0.716804 1.170579 0.000000000000000e+00 1851878480
-0.439619 2.264581 0.264226 0.000000000000000e+00 1851878480
-0.424263 2.388680 0.382070 0.000000000000000e+00 1851878480
-0.420917 2.383419 0.489552 0.000000000000000e+00 1851878480
-0.437250 2.159985 0.595842 0.000000000000000e+00 1851878480
-0.423071 2.273640 0.707009 0.000000000000000e+00 1851878480
-0.429110 2.161409 0.821321 0.000000000000000e+00 1851878480
-0.481409 1.520055 0.974003 0.000000000000000e+00 1634431585
-0.549463 0.685622 1.172385 0.000000000000000e+00 1851878480
-0.424855 2.268266 0.264114 0.000000000000000e+00 1851878480
-0.410060 2.390570 0.381752 0.000000000000000e+00 1851878480
-0.407306 2.378661 0.488942 0.000000000000000e+00 1851878480
-0.420726 2.181010 0.595539 0.000000000000000e+00 1851878480
-0.408753 2.273590 0.706489 0.000000000000000e+00 1851878480
-0.414434 2.161818 0.820743 0.000000000000000e+00 1851878480
-0.462656 1.545936 0.971766 0.000000000000000e+00 1634431585
-0.532344 0.662622 1.173504 0.000000000000000e+00 1851878480
-0.411686 2.253907 0.262560 0.000000000000000e+00 1851878480
-0.395326 2.398855 0.381797 0.000000000000000e+00 1851878480
-0.389931 2.417876 0.489790 0.000000000000000e+00 1851878480
-0.405303 2.190580 0.595132 0.000000000000000e+00 1851878480
-0.392881 2.292241 0.705718 0.000000000000000e+00 1851878480
-0.398575 2.176653 0.819638 0.000000000000000e+00 1851878480
-0.444943 1.561119 0.970188 0.000000000000000e+00 1634431585
-0.510225 0.699774 1.169586 0.000000000000000e+00 1851878480
-0.396137 2.267016 0.263199 0.000000000000000e+00 1851878480
-0.381871 2.392401 0.381009 0.000000000000000e+00 1851878480
-0.375719 2.421530 0.489464 0.000000000000000e+00 1851878480
-0.389820 2.201689 0.594744 0.000000000000000e+00 1851878480
-0.378412 2.294946 0.705169 0.000000000000000e+00 1851878480
-0.383230 2.186263 0.818732 0.000000000000000e+00 1851878480
-0.425370 1.601180 0.967120 0.000000000000000e+00 1634431585
-0.488347 0.736809 1.165695 0.000000000000000e+00 1634431585
-0.379685 2.292445 0.264826 0.000000000000000e+00 1851878480
-0.367412 2.398159 0.380912 0.000000000000000e+00 1851878480
-0.361389 2.427080 0.489204 0.000000000000000e+00 1851878480
-0.376471 2.186494 0.594101 0.000000000000000e+00 1851878480
-0.364317 2.293137 0.704684 0.000000000000000e+00 1851878480
-0.367836 2.197385 0.817778 0.000000000000000e+00 1851878480
-0.409628 1.593997 0.966910 0.000000000000000e+00 1634431585
-0.467813 0.759065 1.163057 0.000000000000000e+00 1634431585
-0.363296 2.319096 0.266555 0.000000000000000e+00 1851878480
-0.353139 2.401989 0.380707 0.000000000000000e+00 1851878480
-0.347505 2.427268 0.488767 0.000000000000000e+00 1851878480
-0.361810 2.187583 0.593620 0.000000000000000e+00 1851878480
-0.353082 2.252790 0.704714 0.000000000000000e+00 1851878480
-0.353159 2.199719 0.817151 0.000000000000000e+00 1851878480
-0.391316 1.621601 0.964615 0.000000000000000e+00 1634431585
-0.445326 0.810397 1.158007 0.000000000000000e+00 1634431585
-0.351583 2.285324 0.263440 0.000000000000000e+00 1851878480
-0.338417 2.412318 0.380873 0.000000000000000e+00 1851878480
-0.333606 2.427757 0.488340 0.000000000000000e+00 1851878480
-0.349459 2.156835 0.592819 0.000000000000000e+00 1851878480
-0.339602 2.240592 0.704367 0.000000000000000e+00 1851878480
-0.339900 2.182264 0.817251 0.000000000000000e+00 1851878480
-0.373680 1.642022 0.962763 0.000000000000000e+00 1634431585
-0.425068 0.833995 1.155288 0.000000000000000e+00 1634431585
-0.334807 2.319532 0.265778 0.000000000000000e+00 1851878480
-0.324664 2.409915 0.380315 0.000000000000000e+00 1851878480
-0.317822 2.455314 0.488826 0.000000000000000e+00 1851878480
-0.334994 2.154082 0.592301 0.000000000000000e+00 1851878480
-0.324218 2.255252 0.703671 0.000000000000000e+00 1851878480
-0.323565 2.208878 0.815750 0.000000000000000e+00 1851878480
-0.355074 1.678914 0.959936 0.000000000000000e+00 1634431585
-0.405333 0.851937 1.153053 0.000000000000000e+00 1634431585
-0.319722 2.332178 0.266387 0.000000000000000e+00 1851878480
-0.310120 2.419067 0.380416 0.000000000000000e+00 1851878480
-0.305299 2.436718 0.487761 0.000000000000000e+00 1851878480
-0.320471 2.152038 0.591791 0.000000000000000e+00 1851878480
-0.309868 2.255528 0.703167 0.000000000000000e+00 1851878480
-0.309818 2.197964 0.815618 0.000000000000000e+00 1851878480
-0.339563 1.670815 0.959810 0.000000000000000e+00 1634431585
-0.384551 0.888363 1.149295 0.000000000000000e+00 1634431585
-0.304815 2.343364 0.266880 0.000000000000000e+00 1851878480
-0.297333 2.401989 0.379021 0.000000000000000e+00 1851878480
-0.290470 2.452558 0.487859 0.000000000000000e+00 1851878480
-0.306059 2.148124 0.591263 0.000000000000000e+00 1851878480
-0.294848 2.266676 0.702527 0.000000000000000e+00 1851878480
-0.295346 2.197855 0.815098 0.000000000000000e+00 1851878480
-0.322571 1.686412 0.958276 0.000000000000000e+00 1634431585
-0.364828 0.910867 1.146708 0.000000000000000e+00 1634431585
-0.289389 2.364042 0.268140 0.000000000000000e+00 1851878480
-0.282799 2.411664 0.379153 0.000000000000000e+00 1851878480
-0.275530 2.471871 0.488079 0.000000000000000e+00 1851878480
-0.292091 2.136506 0.590656 0.000000000000000e+00 1851878480
-0.280193 2.272898 0.701955 0.000000000000000e+00 1851878480
-0.280520 2.203879 0.814362 0.000000000000000e+00 1851878480
-0.305896 1.698246 0.956975 0.000000000000000e+00 1634431585
-0.345900 0.921910 1.145084 0.000000000000000e+00 1634431585
-0.275917 2.354055 0.266928 0.000000000000000e+00 1851878480
-0.267950 2.427852 0.379661 0.000000000000000e+00 1851878480
-0.262468 2.460853 0.487271 0.000000000000000e+00 1851878480
-0.276841 2.146270 0.590276 0.000000000000000e+00 1851878480
-0.266423 2.264164 0.701576 0.000000000000000e+00 1851878480
-0.264404 2.233953 0.812767 0.000000000000000e+00 1851878480
-0.290230 1.693094 0.956691 0.000000000000000e+00 1634431585
-0.326333 0.946196 1.142376 0.000000000000000e+00 1634431585
-0.261362 2.362244 0.267182 0.000000000000000e+00 1851878480
-0.255233 2.407475 0.378073 0.000000000000000e+00 1851878480
-0.249358 2.449526 0.486453 0.000000000000000e+00 1851878480
-0.261656 2.155980 0.589899 0.000000000000000e+00 1851878480
-0.252159 2.263799 0.701094 0.000000000000000e+00 1851878480
-0.251393 2.208337 0.813177 0.000000000000000e+00 1851878480
-0.268646 1.801901 0.949660 0.000000000000000e+00 1851878480
-0.307708 0.954901 1.140967 0.000000000000000e+00 1634431585
-0.247819 2.352495 0.265986 0.000000000000000e+00 1851878480
-0.240522 2.422778 0.378533 0.000000000000000e+00 1851878480
-0.235124 2.458683 0.486333 0.000000000000000e+00 1851878480
-0.247642 2.143963 0.589292 0.000000000000000e+00 1851878480
-0.238094 2.259488 0.700664 0.000000000000000e+00 1851878480
-0.236445 2.218850 0.812296 0.000000000000000e+00 1851878480
-0.252660 1.809209 0.948660 0.000000000000000e+00 1851878480
-0.288710 0.972608 1.138826 0.000000000000000e+00 1634431585
-0.232603 2.374908 0.267390 0.000000000000000e+00 1851878480
-0.225838 2.439497 0.379077 0.000000000000000e+00 1851878480
-0.221619 2.454113 0.485746 0.000000000000000e+00 1851878480
-0.231261 2.179857 0.589206 0.000000000000000e+00 1851878480
-0.223483 2.266302 0.700100 0.000000000000000e+00 1851878480
-0.221621 2.228162 0.811464 0.000000000000000e+00 1851878480
-0.237370 1.802382 0.948503 0.000000000000000e+00 1851878480
-0.270071 0.984796 1.137151 0.000000000000000e+00 1634431585
-0.218579 2.375061 0.266994 0.000000000000000e+00 1851878480
-0.212595 2.427479 0.377967 0.000000000000000e+00 1851878480
-0.207847 2.454867 0.485342 0.000000000000000e+00 1851878480
-0.217796 2.155836 0.588472 0.000000000000000e+00 1851878480
-0.208934 2.272730 0.699544 0.000000000000000e+00 1851878480
-0.206946 2.235415 0.810711 0.000000000000000e+00 1851878480
-0.221641 1.804965 0.947795 0.000000000000000e+00 1851878480
-0.251443 0.998599 1.135354 0.000000000000000e+00 1634431585
-0.204588 2.374567 0.266544 0.000000000000000e+00 1851878480
-0.199164 2.418209 0.377013 0.000000000000000e+00 1851878480
-0.194335 2.449712 0.484736 0.000000000000000e+00 1851878480
-0.203405 2.150486 0.587941 0.000000000000000e+00 1851878480
-0.194510 2.277139 0.699017 0.000000000000000e+00 1851878480
-0.193469 2.214218 0.810970 0.000000000000000e+00 1851878480
-0.204940 1.832529 0.945624 0.000000000000000e+00 1851878480
-0.233596 0.994558 1.135033 0.000000000000000e+00 1634431585
-0.190639 2.373081 0.266014 0.000000000000000e+00 1851878480
-0.185126 2.422649 0.376851 0.000000000000000e+00 1851878480
-0.179822 2.469079 0.484978 0.000000000000000e+00 1851878480
-0.187559 2.181799 0.587822 0.000000000000000e+00 1851878480
-0.180570 2.269671 0.698637 0.000000000000000e+00 1851878480
-0.178220 2.237041 0.809677 0.000000000000000e+00 1768191329
-0.189897 1.819502 0.945847 0.000000000000000e+00 1851878480
-0.214684 1.019635 1.132331 0.000000000000000e+00 1634431585
-0.176802 2.368492 0.265229 0.000000000000000e+00 1851878480
-0.171038 2.429239 0.376815 0.000000000000000e+00 1851878480
-0.165789 2.478642 0.484884 0.000000000000000e+00 1851878480
-0.173481 2.169215 0.587216 0.000000000000000e+00 1851878480
-0.166911 2.252986 0.698369 0.000000000000000e+00 1851878480
-0.164198 2.228294 0.809502 0.000000000000000e+00 1851878480
-0.173748 1.837141 0.944276 0.000000000000000e+00 1851878480
-0.196376 1.031029 1.130763 0.000000000000000e+00 1634431585
-0.162236 2.384043 0.266082 0.000000000000000e+00 1851878480
-0.157818 2.411868 0.375389 0.000000000000000e+00 1851878480
-0.152946 2.454694 0.483628 0.000000000000000e+00 1851878480
-0.158583 2.179435 0.586869 0.000000000000000e+00 1851878480
-0.152196 2.266240 0.697747 0.000000000000000e+00 1851878480
-0.149316 2.245421 0.808422 0.000000000000000e+00 1851878480
-0.158189 1.839133 0.943630 0.000000000000000e+00 1851878480
-0.177929 1.049585 1.128618 0.000000000000000e+00 1634431585
-0.148418 2.379236 0.265279 0.000000000000000e+00 1851878480
-0.143454 2.427652 0.375888 0.000000000000000e+00 1851878480
-0.139014 2.461621 0.483445 0.000000000000000e+00 1851878480
-0.143460 2.199264 0.586636 0.000000000000000e+00 1851878480
-0.137801 2.271232 0.697227 0.000000000000000e+00 1851878480
-0.135513 2.228217 0.808551 0.000000000000000e+00 1851878480
-0.142598 1.842730 0.942896 0.000000000000000e+00 1851878480
-0.159625 1.066973 1.126581 0.000000000000000e+00 1634431585
-0.133859 2.398986 0.266476 0.000000000000000e+00 1851878480
-0.129616 2.428323 0.375509 0.000000000000000e+00 1851878480
-0.124902 2.476633 0.483547 0.000000000000000e+00 1851878480
-0.129360 2.185542 0.586022 0.000000000000000e+00 1851878480
-0.123244 2.283680 0.696624 0.000000000000000e+00 1851878480
-0.121052 2.232920 0.807916 0.000000000000000e+00 1851878480
-0.126731 1.858516 0.941457 0.000000000000000e+00 1851878480
-0.141867 1.065980 1.126055 0.000000000000000e+00 1634431585
-0.120431 2.380000 0.264513 0.000000000000000e+00 1851878480
-0.116144 2.414799 0.374303 0.000000000000000e+00 1851878480
-0.111422 2.469744 0.482885 0.000000000000000e+00 1851878480
-0.115097 2.175301 0.585447 0.000000000000000e+00 1851878480
-0.109077 2.282589 0.696183 0.000000000000000e+00 1851878480
-0.107223 2.210794 0.808220 0.000000000000000e+00 1851878480
-0.111392 1.854379 0.941187 0.000000000000000e+00 1851878480
-0.124157 1.062569 1.125734 0.000000000000000e+00 1634431585
-0.106706 2.369011 0.263200 0.000000000000000e+00 1851878480
-0.101936 2.430697 0.374813 0.000000000000000e+00 1851878480
-0.097868 2.464444 0.482279 0.000000000000000e+00 1851878480
-0.100283 2.188597 0.585149 0.000000000000000e+00 1851878480
-0.095217 2.266026 0.695922 0.000000000000000e+00 1851878480
-0.092602 2.222705 0.807342 0.000000000000000e+00 1768191329
-0.095817 1.861658 0.940258 0.000000000000000e+00 1851878480
-0.106330 1.064689 1.124969 0.000000000000000e+00 1634431585
-0.092222 2.392745 0.264725 0.000000000000000e+00 1851878480
-0.088101 2.432302 0.374490 0.000000000000000e+00 1851878480
-0.083974 2.475805 0.482260 0.000000000000000e+00 1851878480
-0.085995 2.177006 0.584561 0.000000000000000e+00 1851878480
-0.080808 2.275763 0.695362 0.000000000000000e+00 1851878480
-0.078040 2.235551 0.806439 0.000000000000000e+00 1851878480
-0.080088 1.881719 0.938594 0.000000000000000e+00 1851878480
-0.088330 1.079330 1.123194 0.000000000000000e+00 1634431585
-0.078570 2.376047 0.262941 0.000000000000000e+00 1851878480
-0.074158 2.441256 0.374598 0.000000000000000e+00 1851878480
-0.070583 2.459321 0.481260 0.000000000000000e+00 1851878480
-0.071335 2.185881 0.584217 0.000000000000000e+00 1851878480
-0.066398 2.289912 0.694757 0.000000000000000e+00 1851878480
-0.063961 2.218068 0.806588 0.000000000000000e+00 1851878480
-0.064857 1.872050 0.938662 0.000000000000000e+00 1851878480
-0.070431 1.093005 1.121507 0.000000000000000e+00 1634431585
-0.064534 2.379752 0.262827 0.000000000000000e+00 1851878480
-0.060246 2.452183 0.374823 0.000000000000000e+00 1851878480
-0.056696 2.474756 0.481389 0.000000000000000e+00 1851878480
-0.056868 2.183243 0.583739 0.000000000000000e+00 1851878480
-0.052350 2.279353 0.694435 0.000000000000000e+00 1851878480
-0.049467 2.230953 0.805694 0.000000000000000e+00 1851878480
-0.049701 1.848973 0.939508 0.000000000000000e+00 1851878480
-0.052850 1.080705 1.121939 0.000000000000000e+00 1634431585
-0.050529 2.382652 0.262646 0.000000000000000e+00 1851878480
-0.046784 2.425534 0.372842 0.000000000000000e+00 1851878480
-0.043223 2.456427 0.480323 0.000000000000000e+00 1851878480
-0.042304 2.189726 0.583372 0.000000000000000e+00 1851878480
-0.038269 2.264888 0.694156 0.000000000000000e+00 1851878480
-0.034998 2.250574 0.804575 0.000000000000000e+00 1851878480
-0.034162 1.862375 0.938250 0.000000000000000e+00 1851878480
-0.034966 1.106783 1.119265 0.000000000000000e+00 1634431585
-0.036534 2.386580 0.262549 0.000000000000000e+00 1851878480
-0.032940 2.429496 0.372658 0.000000000000000e+00 1851878480
-0.029434 2.469559 0.480374 0.000000000000000e+00 1851878480
-0.027851 2.183755 0.582857 0.000000000000000e+00 1851878480
-0.023936 2.282934 0.693520 0.000000000000000e+00 1851878480
-0.020818 2.231095 0.804801 0.000000000000000e+00 1851878480
-0.018713 1.873207 0.937147 0.000000000000000e+00 1851878480
-0.017348 1.095666 1.119614 0.000000000000000e+00 1634431585
-0.022618 2.379537 0.261549 0.000000000000000e+00 1851878480
-0.019119 2.433998 0.372506 0.000000000000000e+00 1851878480
-0.015692 2.492612 0.480783 0.000000000000000e+00 1851878480
-0.013304 2.199185 0.582606 0.000000000000000e+00 1851878480
-0.009754 2.280859 0.693111 0.000000000000000e+00 1851878480
-0.006493 2.232940 0.804300 0.000000000000000e+00 1851878480
-0.003321 1.899306 0.935174 0.000000000000000e+00 1851878480
0.000334 1.111301 1.117806 0.000000000000000e+00 1634431585
-0.008657 2.373683 0.260645 0.000000000000000e+00 1851878480
-0.005334 2.431003 0.371912 0.000000000000000e+00 1851878480
-0.002107 2.475493 0.479759 0.000000000000000e+00 1851878480
0.001157 2.184068 0.581981 0.000000000000000e+00 1851878480
0.004434 2.285943 0.692626 0.000000000000000e+00 1851878480
0.007815 2.238400 0.803681 0.000000000000000e+00 1851878480
0.012004 1.888194 0.935349 0.000000000000000e+00 1851878480
0.017955 1.116578 1.116845 0.000000000000000e+00 1634431585
0.005332 2.375570 0.260377 0.000000000000000e+00 1851878480
0.008475 2.424952 0.371138 0.000000000000000e+00 1851878480
0.011533 2.477592 0.479423 0.000000000000000e+00 1851878480
0.015655 2.185894 0.581567 0.000000000000000e+00 1851878480
0.018650 2.276241 0.692304 0.000000000000000e+00 1851878480
0.022102 2.241221 0.803156 0.000000000000000e+00 1851878480
0.027334 1.888420 0.934876 0.000000000000000e+00 1851878480
0.035674 1.100430 1.117621 0.000000000000000e+00 1634431585
0.019290 2.381931 0.260478 0.000000000000000e+00 1851878480
0.022152 2.453640 0.372419 0.000000000000000e+00 1851878480
0.025129 2.485331 0.479291 0.000000000000000e+00 1851878480
0.030199 2.178724 0.581042 0.000000000000000e+00 1851878480
0.032910 2.268675 0.691960 0.000000000000000e+00 1851878480
0.036498 2.227816 0.803184 0.000000000000000e+00 1851878480
0.042683 1.886199 0.934549 0.000000000000000e+00 1851878480
0.053243 1.111611 1.116198 0.000000000000000e+00 1634431585
0.033269 2.379761 0.259874 0.000000000000000e+00 1851878480
0.036019 2.436046 0.370961 0.000000000000000e+00 1851878480
0.038906 2.466293 0.478195 0.000000000000000e+00 1851878480
0.044587 2.192769 0.580787 0.000000000000000e+00 1851878480
0.046933 2.289250 0.691321 0.000000000000000e+00 1851878480
0.050926 2.218717 0.803069 0.000000000000000e+00 1851878480
0.057889 1.897715 0.933442 0.000000000000000e+00 1851878480
0.070842 1.114551 1.115449 0.000000000000000e+00 1634431585
0.047164 2.387398 0.260080 0.000000000000000e+00 1851878480
0.049912 2.426124 0.369955 0.000000000000000e+00 1851878480
0.052662 2.459236 0.477531 0.000000000000000e+00 1851878480
0.059093 2.190619 0.580330 0.000000000000000e+00 1851878480
0.061374 2.268254 0.691124 0.000000000000000e+00 1851878480
0.065030 2.237634 0.802013 0.000000000000000e+00 1851878480
0.073190 1.897947 0.932986 0.000000000000000e+00 1851878480
0.088732 1.097305 1.116331 0.000000000000000e+00 1634431585
0.061508 2.357794 0.257202 0.000000000000000e+00 1851878480
0.063696 2.428361 0.369671 0.000000000000000e+00 1851878480
0.065896 2.490916 0.478269 0.000000000000000e+00 1851878480
0.073658 2.185503 0.579836 0.000000000000000e+00 1851878480
0.075518 2.273884 0.690649 0.000000000000000e+00 1851878480
0.079367 2.235761 0.801663 0.000000000000000e+00 1851878480
0.088664 1.888282 0.933100 0.000000000000000e+00 1851878480
0.106357 1.100522 1.115573 0.000000000000000e+00 1634431585
0.075108 2.384960 0.259025 0.000000000000000e+00 1851878480
0.077883 2.406141 0.367929 0.000000000000000e+00 1851878480
0.079693 2.479864 0.477462 0.000000000000000e+00 1851878480
0.088001 2.194305 0.579523 0.000000000000000e+00 1851878480
0.089195 2.302395 0.689944 0.000000000000000e+00 1851878480
0.093415 2.249282 0.800800 0.000000000000000e+00 1768191329
0.103795 1.898380 0.932093 0.000000000000000e+00 1851878480
0.124030 1.100629 1.115073 0.000000000000000e+00 1634431585
0.089232 2.376565 0.257900 0.000000000000000e+00 1851878480
0.091218 2.433310 0.369131 0.000000000000000e+00 1851878480
0.093405 2.476238 0.476925 0.000000000000000e+00 1851878480
0.102194 2.207691 0.579273 0.000000000000000e+00 1851878480
0.104200 2.262786 0.689940 0.000000000000000e+00 1851878480
0.107793 2.244733 0.800548 0.000000000000000e+00 1851878480
0.119623 1.876096 0.932933 0.000000000000000e+00 1851878480
0.141732 1.099619 1.114670 0.000000000000000e+00 1634431585
0.103184 2.378200 0.257605 0.000000000000000e+00 1851878480
0.105163 2.426950 0.368334 0.000000000000000e+00 1851878480
0.106959 2.480330 0.476669 0.000000000000000e+00 1851878480
0.117481 2.172954 0.578397 0.000000000000000e+00 1851878480
0.118161 2.274571 0.689414 0.000000000000000e+00 1851878480
0.122402 2.232286 0.800562 0.000000000000000e+00 1851878480
0.134759 1.885206 0.931993 0.000000000000000e+00 1851878480
0.159571 1.093832 1.114656 0.000000000000000e+00 1634431585
0.116839 2.391245 0.258259 0.000000000000000e+00 1851878480
0.118867 2.431387 0.368182 0.000000000000000e+00 1851878480
0.121038 2.463864 0.475663 0.000000000000000e+00 1851878480
0.131694 2.185177 0.578137 0.000000000000000e+00 1851878480
0.131581 2.303205 0.688723 0.000000000000000e+00 1851878480
0.137303 2.212385 0.800825 0.000000000000000e+00 1851878480
0.149989 1.889386 0.931339 0.000000000000000e+00 1851878480
0.177194 1.096506 1.113972 0.000000000000000e+00 1634431585
0.131510 2.365705 0.255701 0.000000000000000e+00 1851878480
0.132306 2.444045 0.368524 0.000000000000000e+00 1851878480
0.134117 2.484400 0.476012 0.000000000000000e+00 1851878480
0.146890 2.162603 0.577418 0.000000000000000e+00 1851878480
0.146805 2.268146 0.688673 0.000000000000000e+00 1851878480
0.150648 2.245347 0.799337 0.000000000000000e+00 1851878480
0.165538 1.882921 0.931293 0.000000000000000e+00 1851878480
0.194040 1.122226 1.111454 0.000000000000000e+00 1634431585
0.145247 2.375002 0.256042 0.000000000000000e+00 1851878480
0.146228 2.439361 0.367827 0.000000000000000e+00 1851878480
0.147991 2.477043 0.475339 0.000000000000000e+00 1851878480
0.161321 2.167195 0.577061 0.000000000000000e+00 1851878480
0.160314 2.289812 0.688061 0.000000000000000e+00 1851878480
0.165549 2.227933 0.799524 0.000000000000000e+00 1851878480
0.180794 1.885985 0.930714 0.000000000000000e+00 1851878480
0.212070 1.110981 1.111899 0.000000000000000e+00 1634431585
0.159742 2.360688 0.254413 0.000000000000000e+00 1851878480
0.159848 2.444206 0.367702 0.000000000000000e+00 1851878480
0.161966 2.468138 0.474610 0.000000000000000e+00 1851878480
0.174567 2.203660 0.577136 0.000000000000000e+00 1851878480
0.175638 2.259044 0.687968 0.000000000000000e+00 1851878480
0.179411 2.240904 0.798709 0.000000000000000e+00 1768191329
0.195951 1.891244 0.930016 0.000000000000000e+00 1851878480
0.230978 1.079035 1.114001 0.000000000000000e+00 1634431585
0.173587 2.366180 0.254434 0.000000000000000e+00 1851878480
0.174454 2.422482 0.365977 0.000000000000000e+00 1851878480
0.175730 2.466155 0.474135 0.000000000000000e+00 1851878480
0.190048 2.177921 0.576376 0.000000000000000e+00 1851878480
0.189382 2.272434 0.687445 0.000000000000000e+00 1851878480
0.194204 2.229172 0.798714 0.000000000000000e+00 1851878480
0.211376 1.889344 0.929728 0.000000000000000e+00 1851878480
0.247895 1.099149 1.111956 0.000000000000000e+00 1634431585
0.188595 2.342168 0.251988 0.000000000000000e+00 1851878480
0.188250 2.423735 0.365634 0.000000000000000e+00 1851878480
0.189159 2.472565 0.473972 0.000000000000000e+00 1851878480
0.204396 2.182611 0.576028 0.000000000000000e+00 1851878480
0.204359 2.255392 0.687220 0.000000000000000e+00 1851878480
0.208753 2.224719 0.798481 0.000000000000000e+00 1851878480
0.227338 1.875667 0.930108 0.000000000000000e+00 1851878480
0.266541 1.078273 1.113186 0.000000000000000e+00 1634431585
0.202818 2.339643 0.251335 0.000000000000000e+00 1851878480
0.201817 2.430069 0.365598 0.000000000000000e+00 1851878480
0.203811 2.450880 0.472767 0.000000000000000e+00 1851878480
0.219122 2.178471 0.575562 0.000000000000000e+00 1851878480
0.217589 2.278593 0.686611 0.000000000000000e+00 1851878480
0.222988 2.227638 0.798011 0.000000000000000e+00 1851878480
0.241614 1.899431 0.928386 0.000000000000000e+00 1851878480
0.283874 1.087435 1.112030 0.000000000000000e+00 1634431585
0.217621 2.325063 0.249670 0.000000000000000e+00 1851878480
0.215779 2.427307 0.365013 0.000000000000000e+00 1851878480
0.217086 2.460826 0.472737 0.000000000000000e+00 1851878480
0.235157 2.147907 0.574733 0.000000000000000e+00 1851878480
0.233876 2.236739 0.686623 0.000000000000000e+00 1851878480
0.237808 2.218513 0.797938 0.000000000000000e+00 1851878480
0.257902 1.880490 0.929070 0.000000000000000e+00 1851878480
0.302521 1.069877 1.113007 0.000000000000000e+00 1634431585
0.230970 2.341664 0.250619 0.000000000000000e+00 1851878480
0.230550 2.408845 0.363476 0.000000000000000e+00 1851878480
0.230831 2.460419 0.472323 0.000000000000000e+00 1851878480
0.248064 2.181767 0.574795 0.000000000000000e+00 1851878480
0.247542 2.250113 0.686114 0.000000000000000e+00 1851878480
0.251822 2.225811 0.797333 0.000000000000000e+00 1851878480
0.273897 1.869258 0.929325 0.000000000000000e+00 1851878480
0.320825 1.060731 1.113320 0.000000000000000e+00 1634431585
0.245402 2.335815 0.249683 0.000000000000000e+00 1851878480
0.243203 2.432317 0.364481 0.000000000000000e+00 1851878480
0.243711 2.476158 0.472514 0.000000000000000e+00 1851878480
0.263273 2.169695 0.574223 0.000000000000000e+00 1851878480
0.260804 2.269404 0.685556 0.000000000000000e+00 1851878480
0.266933 2.212690 0.797396 0.000000000000000e+00 1851878480
0.289757 1.861678 0.929379 0.000000000000000e+00 1851878480
0.339066 1.053687 1.113473 0.000000000000000e+00 1634431585
0.259496 2.336816 0.249321 0.000000000000000e+00 1851878480
0.257637 2.421724 0.363419 0.000000000000000e+00 1851878480
0.258245 2.461250 0.471560 0.000000000000000e+00 1851878480
0.278752 2.154307 0.573604 0.000000000000000e+00 1851878480
0.274117 2.285919 0.685029 0.000000000000000e+00 1851878480
0.282285 2.196913 0.797548 0.000000000000000e+00 1851878480
0.306074 1.847281 0.929819 0.000000000000000e+00 1851878480
0.357697 1.041002 1.114079 0.000000000000000e+00 1634431585
0.272445 2.357295 0.250599 0.000000000000000e+00 1851878480
0.271348 2.424473 0.363167 0.000000000000000e+00 1851878480
0.272505 2.452522 0.470836 0.000000000000000e+00 1851878480
0.293349 2.155114 0.573213 0.000000000000000e+00 1851878480
0.289971 2.259360 0.684900 0.000000000000000e+00 1851878480
0.295504 2.217296 0.796531 0.000000000000000e+00 1851878480
0.321007 1.856544 0.928940 0.000000000000000e+00 1851878480
0.375465 1.043306 1.113504 0.000000000000000e+00 1634431585
0.289152 2.314954 0.246582 0.000000000000000e+00 1851878480
0.285410 2.421429 0.362562 0.000000000000000e+00 1851878480
0.286281 2.452394 0.470435 0.000000000000000e+00 1851878480
0.307839 2.157617 0.572849 0.000000000000000e+00 1851878480
0.306206 2.229434 0.684801 0.000000000000000e+00 1851878480
0.309321 2.226636 0.795877 0.000000000000000e+00 1851878480
0.335518 1.871503 0.927750 0.000000000000000e+00 1851878480
0.395396 1.012765 1.115536 0.000000000000000e+00 1634431585
0.304911 2.291311 0.244135 0.000000000000000e+00 1851878480
0.300419 2.404239 0.361093 0.000000000000000e+00 1851878480
0.300578 2.444463 0.469740 0.000000000000000e+00 1851878480
0.322080 2.163710 0.572538 0.000000000000000e+00 1851878480
0.319323 2.248682 0.684258 0.000000000000000e+00 1851878480
0.324184 2.219820 0.795749 0.000000000000000e+00 1851878480
0.352833 1.844245 0.928919 0.000000000000000e+00 1851878480
0.412147 1.031051 1.113711 0.000000000000000e+00 1634431585
0.320506 2.272301 0.242073 0.000000000000000e+00 1851878480
0.314514 2.402039 0.360537 0.000000000000000e+00 1851878480
0.316095 2.419648 0.468407 0.000000000000000e+00 1851878480
0.336728 2.163522 0.572140 0.000000000000000e+00 1851878480
0.333656 2.249047 0.683890 0.000000000000000e+00 1851878480
0.339443 2.208059 0.795783 0.000000000000000e+00 1851878480
0.368826 1.837886 0.928928 0.000000000000000e+00 1851878480
0.433235 0.987716 1.116764 0.000000000000000e+00 1634431585
0.337173 2.239865 0.238870 0.000000000000000e+00 1851878480
0.327511 2.415466 0.360938 0.000000000000000e+00 1851878480
0.329133 2.431386 0.468455 0.000000000000000e+00 1851878480
0.349135 2.194269 0.572191 0.000000000000000e+00 1851878480
0.346608 2.268314 0.683358 0.000000000000000e+00 1851878480
0.352071 2.232971 0.794643 0.000000000000000e+00 1851878480
0.384944 1.830460 0.928999 0.000000000000000e+00 1851878480
0.452661 0.970097 1.117789 0.000000000000000e+00 1634431585
0.352399 2.229650 0.237542 0.000000000000000e+00 1851878480
0.342324 2.403473 0.359782 0.000000000000000e+00 1851878480
0.343486 2.424726 0.467807 0.000000000000000e+00 1851878480
0.363118 2.201796 0.571911 0.000000000000000e+00 1851878480
0.361815 2.256531 0.683103 0.000000000000000e+00 1851878480
0.369682 2.191152 0.795647 0.000000000000000e+00 1851878480
0.401432 1.818886 0.929306 0.000000000000000e+00 1851878480
0.471738 0.958377 1.118353 0.000000000000000e+00 1634431585
0.369032 2.202078 0.234739 0.000000000000000e+00 1851878480
0.356096 2.405959 0.359512 0.000000000000000e+00 1851878480
0.356425 2.436797 0.467873 0.000000000000000e+00 1851878480
0.377519 2.203541 0.571550 0.000000000000000e+00 1851878480
0.375400 2.266232 0.682663 0.000000000000000e+00 1851878480
0.383004 2.206301 0.794828 0.000000000000000e+00 1851878480
0.415856 1.833934 0.928140 0.000000000000000e+00 1851878480
0.491284 0.941874 1.119301 0.000000000000000e+00 1634431585
0.385041 2.184491 0.232777 0.000000000000000e+00 1851878480
0.368897 2.420393 0.359978 0.000000000000000e+00 1851878480
0.370985 2.428061 0.467147 0.000000000000000e+00 1851878480
0.393463 2.186371 0.570912 0.000000000000000e+00 1851878480
0.387417 2.294338 0.682069 0.000000000000000e+00 1851878480
0.399958 2.176634 0.795444 0.000000000000000e+00 1851878480
0.432533 1.821028 0.928530 0.000000000000000e+00 1851878480
0.518194 0.839129 1.127049 0.000000000000000e+00 1851878480
0.399431 2.187787 0.232585 0.000000000000000e+00 1851878480
0.386043 2.381880 0.357185 0.000000000000000e+00 1851878480
0.383108 2.448991 0.467555 0.000000000000000e+00 1851878480
0.407474 2.193315 0.570631 0.000000000000000e+00 1851878480
0.402429 2.285444 0.681797 0.000000000000000e+00 1851878480
0.414312 2.179384 0.795029 0.000000000000000e+00 1851878480
0.449626 1.804294 0.929135 0.000000000000000e+00 1851878480
0.545665 0.737144 1.134733 0.000000000000000e+00 1851878480
0.417660 2.146322 0.228584 0.000000000000000e+00 1851878480
0.399189 2.392330 0.357405 0.000000000000000e+00 1851878480
0.397264 2.445240 0.467021 0.000000000000000e+00 1851878480
0.422058 2.193333 0.570249 0.000000000000000e+00 1851878480
0.415872 2.295000 0.681371 0.000000000000000e+00 1851878480
0.427932 2.190272 0.794360 0.000000000000000e+00 1851878480
0.465163 1.806156 0.928716 0.000000000000000e+00 1851878480
0.550617 0.891919 1.122214 0.000000000000000e+00 1851878480
0.436102 2.105402 0.224619 0.000000000000000e+00 1851878480
0.413920 2.384476 0.356496 0.000000000000000e+00 1851878480
0.412510 2.429746 0.466036 0.000000000000000e+00 1851878480
0.437962 2.178912 0.569654 0.000000000000000e+00 1851878480
0.432758 2.266350 0.681269 0.000000000000000e+00 1851878480
0.442832 2.186628 0.794157 0.000000000000000e+00 1851878480
0.480794 1.806969 0.928360 0.000000000000000e+00 1851878480
0.568355 0.899530 1.121289 0.000000000000000e+00 1851878480
0.454792 2.064577 0.220653 0.000000000000000e+00 1851878480
0.428511 2.378734 0.355716 0.000000000000000e+00 1851878480
0.426603 2.427711 0.465567 0.000000000000000e+00 1851878480
0.452367 2.181482 0.569313 0.000000000000000e+00 1851878480
0.445453 2.283981 0.680781 0.000000000000000e+00 1851878480
0.457546 2.185261 0.793885 0.000000000000000e+00 1851878480
0.499931 1.771155 0.930029 0.000000000000000e+00 1851878480
0.579542 0.974870 1.115051 0.000000000000000e+00 1851878480
0.443674 2.367449 0.354591 0.000000000000000e+00 1851878480
0.440960 2.423104 0.465000 0.000000000000000e+00 1851878480
0.467795 2.173387 0.568813 0.000000000000000e+00 1851878480
0.464604 2.234367 0.680852 0.000000000000000e+00 1851878480
0.472190 2.184747 0.793590 0.000000000000000e+00 1851878480
0.517141 1.757146 0.930498 0.000000000000000e+00 1851878480
0.619763 0.753047 1.132160 0.000000000000000e+00 1851878480
0.457020 2.375345 0.354654 0.000000000000000e+00 1851878480
0.456649 2.405499 0.463930 0.000000000000000e+00 1851878480
0.482168 2.176456 0.568484 0.000000000000000e+00 1851878480
0.478408 2.241041 0.680460 0.000000000000000e+00 1851878480
0.487047 2.182260 0.793360 0.000000000000000e+00 1851878480
0.535159 1.736125 0.931357 0.000000000000000e+00 1851878480
0.470688 2.379699 0.354499 0.000000000000000e+00 1851878480
0.468076 2.430618 0.464514 0.000000000000000e+00 1851878480
0.495440 2.190120 0.568318 0.000000000000000e+00 1851878480
0.493512 2.234856 0.680175 0.000000000000000e+00 1851878480
0.504215 2.157816 0.793825 0.000000000000000e+00 1851878480
0.553714 1.711296 0.932429 0.000000000000000e+00 1851878480
0.518091 2.035814 0.216226 0.000000000000000e+00 1851878480
0.486728 2.361267 0.352925 0.000000000000000e+00 1851878480
0.485294 2.399475 0.462916 0.000000000000000e+00 1851878480
0.514124 2.152045 0.567363 0.000000000000000e+00 1851878480
0.508500 2.230196 0.679880 0.000000000000000e+00 1851878480
0.518530 2.161468 0.793409 0.000000000000000e+00 1851878480
0.570729 1.702255 0.932636 0.000000000000000e+00 1851878480
0.533306 2.035550 0.215706 0.000000000000000e+00 1851878480
0.501808 2.352862 0.351973 0.000000000000000e+00 1851878480
0.500636 2.387454 0.462059 0.000000000000000e+00 1851878480
0.525533 2.182873 0.567466 0.000000000000000e+00 1851878480
0.525000 2.212086 0.679694 0.000000000000000e+00 1851878480
0.535454 2.141333 0.793742 0.000000000000000e+00 1851878480
0.584917 1.719324 0.931415 0.000000000000000e+00 1851878480
0.550537 2.017139 0.213626 0.000000000000000e+00 1851878480
0.515487 2.357619 0.351840 0.000000000000000e+00 1851878480
0.514059 2.393363 0.461900 0.000000000000000e+00 1851878480
0.541808 2.168720 0.566879 0.000000000000000e+00 1851878480
0.539223 2.215250 0.679341 0.000000000000000e+00 1851878480
0.547790 2.162870 0.792774 0.000000000000000e+00 1851878480
0.605808 1.676679 0.933474 0.000000000000000e+00 1851878480
0.565797 2.017177 0.213128 0.000000000000000e+00 1851878480
0.532406 2.333808 0.349923 0.000000000000000e+00 1851878480
0.526936 2.403812 0.461921 0.000000000000000e+00 1851878480
0.556872 2.165921 0.566468 0.000000000000000e+00 1851878480
0.556194 2.194598 0.679177 0.000000000000000e+00 1851878480
0.567028 2.124020 0.793696 0.000000000000000e+00 1851878480
0.625090 1.650116 0.934653 0.000000000000000e+00 1851878480
0.579237 2.032888 0.213978 0.000000000000000e+00 1851878480
0.545329 2.345417 0.350218 0.000000000000000e+00 1851878480
0.542102 2.394330 0.461163 0.000000000000000e+00 1851878480
0.573071 2.153731 0.565911 0.000000000000000e+00 1851878480
0.569916 2.202414 0.678793 0.000000000000000e+00 1851878480
0.580145 2.138508 0.792957 0.000000000000000e+00 1851878480
0.644759 1.621740 0.935935 0.000000000000000e+00 1851878480
0.591952 2.053964 0.215292 0.000000000000000e+00 1851878480
0.562447 2.321639 0.348296 0.000000000000000e+00 1851878480
0.556110 2.395014 0.460803 0.000000000000000e+00 1851878480
0.587418 2.157528 0.565606 0.000000000000000e+00 1851878480
0.585940 2.191053 0.678560 0.000000000000000e+00 1851878480
0.597534 2.117486 0.793327 0.000000000000000e+00 1851878480
0.663582 1.601769 0.936759 0.000000000000000e+00 1851878480
0.601049 2.103545 0.219069 0.000000000000000e+00 1851878480
0.577429 2.316460 0.347537 0.000000000000000e+00 1851878480
0.571997 2.380580 0.459849 0.000000000000000e+00 1851878480
0.603405 2.148042 0.565093 0.000000000000000e+00 1851878480
0.602471 2.176277 0.678354 0.000000000000000e+00 1851878480
0.612165 2.119550 0.792983 0.000000000000000e+00 1851878480
0.684817 1.563714 0.938576 0.000000000000000e+00 1851878480
0.613297 2.125760 0.220490 0.000000000000000e+00 1851878480
0.590700 2.325155 0.347650 0.000000000000000e+00 1851878480
0.586978 2.374072 0.459206 0.000000000000000e+00 1851878480
0.617662 2.152678 0.564805 0.000000000000000e+00 1851878480
0.612825 2.210565 0.677780 0.000000000000000e+00 1851878480
0.629994 2.096715 0.793413 0.000000000000000e+00 1851878480
0.704686 1.538145 0.939712 0.000000000000000e+00 1851878480
0.622506 2.170581 0.223870 0.000000000000000e+00 1851878480
0.604355 2.330559 0.347557 0.000000000000000e+00 1870292837
0.601186 2.373898 0.458813 0.000000000000000e+00 1851878480
0.637972 2.110786 0.563778 0.000000000000000e+00 1851878480
0.632455 2.172542 0.677753 0.000000000000000e+00 1851878480
0.641523 2.122928 0.792330 0.000000000000000e+00 1851878480
0.730741 1.467014 0.943336 0.000000000000000e+00 1851878480
0.711362 1.588135 0.044109 0.000000000000000e+00 1701537140
0.632186 2.209829 0.226775 0.000000000000000e+00 1851878480
0.617624 2.338709 0.347637 0.000000000000000e+00 1870292837
0.616320 2.366853 0.458148 0.000000000000000e+00 1851878480
0.648455 2.144495 0.563957 0.000000000000000e+00 1851878480
0.644455 2.193244 0.677288 0.000000000000000e+00 1851878480
0.661074 2.088429 0.793126 0.000000000000000e+00 1851878480
0.713450 1.696660 0.055495 0.000000000000000e+00 1701537140
0.642642 2.241633 0.229041 0.000000000000000e+00 1851878480
0.646861 2.228793 0.340260 0.000000000000000e+00 1870292837
0.632139 2.355177 0.457299 0.000000000000000e+00 1851878480
0.664796 2.133900 0.563430 0.000000000000000e+00 1851878480
0.664156 2.156957 0.677248 0.000000000000000e+00 1851878480
0.673671 2.106075 0.792316 0.000000000000000e+00 1851878480
0.721089 1.760060 0.061910 0.000000000000000e+00 1701537140
0.660121 2.221249 0.226781 0.000000000000000e+00 1851878480
0.656842 2.262711 0.341962 0.000000000000000e+00 1870292837
0.645498 2.361766 0.457175 0.000000000000000e+00 1851878480
0.680811 2.126176 0.562949 0.000000000000000e+00 1851878480
0.680586 2.145657 0.677024 0.000000000000000e+00 1851878480
0.690562 2.092514 0.792472 0.000000000000000e+00 1851878480
0.733194 1.789055 0.064525 0.000000000000000e+00 1701537140
0.674922 2.220822 0.226251 0.000000000000000e+00 1851878480
0.671609 2.261487 0.341444 0.000000000000000e+00 1870292837
0.658572 2.370173 0.457126 0.000000000000000e+00 1851878480
0.697421 2.114719 0.562409 0.000000000000000e+00 1851878480
0.694696 2.151139 0.676681 0.000000000000000e+00 1851878480
0.708714 2.070857 0.792878 0.000000000000000e+00 1851878480
0.751516 1.773670 0.062225 0.000000000000000e+00 1701537140
0.693410 2.194953 0.223504 0.000000000000000e+00 1851878480
0.680919 2.298086 0.343325 0.000000000000000e+00 1870292837
0.675595 2.351130 0.455982 0.000000000000000e+00 1851878480
0.711927 2.118269 0.562113 0.000000000000000e+00 1851878480
0.708705 2.157169 0.676337 0.000000000000000e+00 1851878480
0.722980 2.076658 0.792445 0.000000000000000e+00 1851878480
0.766443 1.782139 0.062565 0.000000000000000e+00 1701537140
0.708446 2.193673 0.222893 0.000000000000000e+00 1851878480
0.697525 2.283914 0.341986 0.000000000000000e+00 1870292837
0.693757 2.325295 0.454564 0.000000000000000e+00 1851878480
0.727868 2.112118 0.561661 0.000000000000000e+00 1851878480
0.727763 2.129246 0.676237 0.000000000000000e+00 1851878480
0.744236 2.035683 0.793447 0.000000000000000e+00 1851878480
0.780181 1.798280 0.063757 0.000000000000000e+00 1701537140
0.725362 2.180047 0.221204 0.000000000000000e+00 1851878480
0.708671 2.306568 0.342987 0.000000000000000e+00 1870292837
0.704679 2.348384 0.455104 0.000000000000000e+00 1851878480
0.745077 2.097963 0.561078 0.000000000000000e+00 1851878480
0.740718 2.142559 0.675847 0.000000000000000e+00 1851878480
0.758095 2.044800 0.792919 0.000000000000000e+00 1851878480
0.797399 1.791133 0.062360 0.000000000000000e+00 1701537140
