# .PCD v0.7 - Point Cloud Data file format
VERSION 0.7
FIELDS x y z rgb label
SIZE 4 4 4 4 4
TYPE F F F F U
COUNT 1 1 1 1 1
WIDTH 783
HEIGHT 1
VIEWPOINT 0 0 0 1 0 0 0
POINTS 783
DATA ascii
0.930225 -0.702424 0.619031 0.000000000000000e+00 1851878480
0.919713 -0.693299 0.707442 0.000000000000000e+00 1851878480
0.872741 -0.644582 0.799422 0.000000000000000e+00 1851878480
0.763963 -0.528818 0.899883 0.000000000000000e+00 1851878480
0.715198 -0.478372 1.000287 0.000000000000000e+00 1851878480
0.641184 -0.400666 1.109220 0.000000000000000e+00 1851878480
0.898896 -0.656506 0.167781 0.000000000000000e+00 1851878480
0.911533 -0.689623 0.262078 0.000000000000000e+00 1851878480
0.924085 -0.705601 0.352979 0.000000000000000e+00 1851878480
0.936863 -0.721809 0.443300 0.000000000000000e+00 1851878480
0.932522 -0.719428 0.531043 0.000000000000000e+00 1851878480
0.931606 -0.720756 0.618914 0.000000000000000e+00 1851878480
0.919125 -0.709579 0.707038 0.000000000000000e+00 1851878480
0.872953 -0.662045 0.798686 0.000000000000000e+00 1851878480
0.764365 -0.547211 0.898784 0.000000000000000e+00 1851878480
0.715952 -0.497473 0.998796 0.000000000000000e+00 1851878480
0.637275 -0.415240 1.108098 0.000000000000000e+00 1851878480
0.898664 -0.673245 0.169071 0.000000000000000e+00 1851878480
0.914083 -0.709183 0.263471 0.000000000000000e+00 1851878480
0.928892 -0.727521 0.354245 0.000000000000000e+00 1851878480
0.942914 -0.744992 0.444205 0.000000000000000e+00 1851878480
0.935492 -0.739326 0.531324 0.000000000000000e+00 1851878480
0.933447 -0.739453 0.618800 0.000000000000000e+00 1851878480
0.918749 -0.725983 0.706630 0.000000000000000e+00 1851878480
0.873245 -0.679479 0.797950 0.000000000000000e+00 1851878480
0.768397 -0.569373 0.897353 0.000000000000000e+00 1851878480
0.716702 -0.516440 0.997316 0.000000000000000e+00 1851878480
0.632419 -0.428727 1.107139 0.000000000000000e+00 1851878480
0.898491 -0.689941 0.170357 0.000000000000000e+00 1851878480
0.926085 -0.738744 0.266228 0.000000000000000e+00 1851878480
0.944864 -0.761241 0.356743 0.000000000000000e+00 1851878480
0.952128 -0.771378 0.445345 0.000000000000000e+00 1851878480
0.939457 -0.760146 0.531644 0.000000000000000e+00 1851878480
0.935754 -0.758519 0.618689 0.000000000000000e+00 1851878480
0.918687 -0.742620 0.706215 0.000000000000000e+00 1851878480
0.873528 -0.696789 0.797218 0.000000000000000e+00 1851878480
0.767375 -0.585980 0.896403 0.000000000000000e+00 1851878480
0.721680 -0.539787 0.995308 0.000000000000000e+00 1851878480
0.623245 -0.437560 1.106885 0.000000000000000e+00 1851878480
0.898510 -0.706737 0.171663 0.000000000000000e+00 1851878480
0.931561 -0.761086 0.268015 0.000000000000000e+00 1851878480
0.943605 -0.776290 0.357307 0.000000000000000e+00 1851878480
0.953392 -0.789078 0.445864 0.000000000000000e+00 1851878480
0.944003 -0.781425 0.531985 0.000000000000000e+00 1851878480
0.938230 -0.777628 0.618578 0.000000000000000e+00 1851878480
0.919102 -0.759658 0.705789 0.000000000000000e+00 1851878480
0.873825 -0.714000 0.796489 0.000000000000000e+00 1851878480
0.766330 -0.602463 0.895461 0.000000000000000e+00 1851878480
0.716472 -0.552166 0.994607 0.000000000000000e+00 1851878480
0.613516 -0.445805 1.106722 0.000000000000000e+00 1851878480
0.899100 -0.724036 0.173057 0.000000000000000e+00 1851878480
0.930655 -0.776485 0.268859 0.000000000000000e+00 1851878480
0.939321 -0.788047 0.357526 0.000000000000000e+00 1851878480
0.953422 -0.805349 0.446282 0.000000000000000e+00 1851878480
0.948574 -0.802567 0.532322 0.000000000000000e+00 1851878480
0.940880 -0.796782 0.618467 0.000000000000000e+00 1851878480
0.919785 -0.776865 0.705358 0.000000000000000e+00 1851878480
0.874124 -0.731101 0.795764 0.000000000000000e+00 1851878480
0.765283 -0.618842 0.894525 0.000000000000000e+00 1851878480
0.712894 -0.566211 0.993704 0.000000000000000e+00 1851878480
0.596636 -0.446533 1.107708 0.000000000000000e+00 1851878480
0.904198 -0.746002 0.175246 0.000000000000000e+00 1851878480
0.923097 -0.784786 0.268730 0.000000000000000e+00 1851878480
0.926329 -0.790588 0.356775 0.000000000000000e+00 1851878480
0.943181 -0.810717 0.445906 0.000000000000000e+00 1851878480
0.953045 -0.823444 0.532650 0.000000000000000e+00 1851878480
0.943605 -0.815881 0.618356 0.000000000000000e+00 1851878480
0.920744 -0.794251 0.704921 0.000000000000000e+00 1851878480
0.874402 -0.748071 0.795044 0.000000000000000e+00 1851878480
0.764234 -0.635123 0.893594 0.000000000000000e+00 1851878480
0.708561 -0.579400 0.992902 0.000000000000000e+00 1851878480
0.586023 -0.453911 1.107685 0.000000000000000e+00 1851878480
0.904548 -0.762793 0.176565 0.000000000000000e+00 1851878480
0.909354 -0.786602 0.267702 0.000000000000000e+00 1851878480
0.911937 -0.791726 0.355866 0.000000000000000e+00 1851878480
0.929447 -0.812459 0.445260 0.000000000000000e+00 1851878480
0.958033 -0.844703 0.532996 0.000000000000000e+00 1851878480
0.946506 -0.835025 0.618245 0.000000000000000e+00 1851878480
0.921858 -0.811683 0.704482 0.000000000000000e+00 1851878480
0.874658 -0.764909 0.794329 0.000000000000000e+00 1851878480
0.763150 -0.651271 0.892673 0.000000000000000e+00 1851878480
0.703830 -0.592117 0.992155 0.000000000000000e+00 1851878480
0.575380 -0.461275 1.107667 0.000000000000000e+00 1851878480
0.904067 -0.778605 0.177721 0.000000000000000e+00 1851878480
0.894666 -0.787504 0.266537 0.000000000000000e+00 1851878480
0.958901 -0.856766 0.361717 0.000000000000000e+00 1701537140
0.914502 -0.813015 0.444520 0.000000000000000e+00 1851878480
0.951587 -0.853927 0.532849 0.000000000000000e+00 1851878480
0.949643 -0.854277 0.618135 0.000000000000000e+00 1851878480
0.923373 -0.829415 0.704035 0.000000000000000e+00 1851878480
0.874970 -0.781698 0.793614 0.000000000000000e+00 1851878480
0.762280 -0.667546 0.891738 0.000000000000000e+00 1851878480
0.698759 -0.604432 0.991456 0.000000000000000e+00 1851878480
0.564553 -0.468467 1.107678 0.000000000000000e+00 1851878480
0.895255 -0.785642 0.177378 0.000000000000000e+00 1851878480
0.971579 -0.883287 0.278527 0.000000000000000e+00 1701537140
0.971420 -0.885504 0.363748 0.000000000000000e+00 1701537140
0.953004 -0.868867 0.447846 0.000000000000000e+00 1701537140
0.938178 -0.855944 0.532402 0.000000000000000e+00 1851878480
0.953701 -0.874338 0.618032 0.000000000000000e+00 1851878480
0.925118 -0.847262 0.703584 0.000000000000000e+00 1851878480
0.875527 -0.798633 0.792889 0.000000000000000e+00 1851878480
0.767430 -0.689913 0.890261 0.000000000000000e+00 1851878480
0.693055 -0.616049 0.990840 0.000000000000000e+00 1851878480
0.553697 -0.475647 1.107694 0.000000000000000e+00 1851878480
0.881606 -0.787674 0.176169 0.000000000000000e+00 1851878480
0.969307 -0.896561 0.279106 0.000000000000000e+00 1701537140
0.967783 -0.897386 0.363992 0.000000000000000e+00 1701537140
0.971439 -0.903539 0.449629 0.000000000000000e+00 1701537140
0.923293 -0.856517 0.531889 0.000000000000000e+00 1851878480
0.958536 -0.895050 0.617936 0.000000000000000e+00 1851878480
0.927188 -0.865322 0.703126 0.000000000000000e+00 1851878480
0.876339 -0.815720 0.792154 0.000000000000000e+00 1851878480
0.765411 -0.704786 0.889443 0.000000000000000e+00 1851878480
0.684213 -0.624424 0.990616 0.000000000000000e+00 1851878480
0.542506 -0.482509 1.107762 0.000000000000000e+00 1851878480
0.866844 -0.788630 0.174762 0.000000000000000e+00 1851878480
0.961347 -0.903948 0.278863 0.000000000000000e+00 1701537140
0.891895 -0.835400 0.356325 0.000000000000000e+00 1701537140
0.969846 -0.917446 0.449883 0.000000000000000e+00 1701537140
0.908321 -0.857085 0.531370 0.000000000000000e+00 1851878480
0.963538 -0.915774 0.617841 0.000000000000000e+00 1851878480
0.929702 -0.883711 0.702659 0.000000000000000e+00 1851878480
0.877570 -0.833123 0.791398 0.000000000000000e+00 1851878480
0.762585 -0.718757 0.888703 0.000000000000000e+00 1851878480
0.677492 -0.634955 0.990131 0.000000000000000e+00 1851878480
0.531245 -0.489324 1.107841 0.000000000000000e+00 1851878480
0.971354 -0.911753 0.194450 0.000000000000000e+00 1701537140
0.949454 -0.907341 0.278054 0.000000000000000e+00 1701537140
0.949454 -0.909768 0.363254 0.000000000000000e+00 1701537140
0.963486 -0.926440 0.449770 0.000000000000000e+00 1701537140
0.952758 -0.917960 0.533375 0.000000000000000e+00 1701537140
0.962102 -0.929822 0.617684 0.000000000000000e+00 1851878480
0.932901 -0.902664 0.702178 0.000000000000000e+00 1851878480
0.879209 -0.850824 0.790623 0.000000000000000e+00 1851878480
0.759206 -0.732101 0.888017 0.000000000000000e+00 1851878480
0.664498 -0.639130 0.990420 0.000000000000000e+00 1851878480
0.519450 -0.495627 1.108003 0.000000000000000e+00 1851878480
0.970128 -0.925917 0.195376 0.000000000000000e+00 1701537140
0.944706 -0.918005 0.278259 0.000000000000000e+00 1701537140
0.939709 -0.915400 0.362816 0.000000000000000e+00 1701537140
0.949365 -0.927590 0.449067 0.000000000000000e+00 1701537140
0.968851 -0.949640 0.534168 0.000000000000000e+00 1701537140
0.949815 -0.932870 0.617422 0.000000000000000e+00 1851878480
0.936883 -0.922271 0.701681 0.000000000000000e+00 1851878480
0.882124 -0.869689 0.789780 0.000000000000000e+00 1851878480
0.755340 -0.744896 0.887378 0.000000000000000e+00 1851878480
0.655291 -0.647159 0.990242 0.000000000000000e+00 1851878480
0.507593 -0.501901 1.108173 0.000000000000000e+00 1851878480
0.964740 -0.935794 0.195559 0.000000000000000e+00 1701537140
0.930029 -0.918659 0.277048 0.000000000000000e+00 1701537140
0.931524 -0.922621 0.362544 0.000000000000000e+00 1701537140
0.949334 -0.942943 0.449424 0.000000000000000e+00 1701537140
0.971502 -0.967571 0.534386 0.000000000000000e+00 1701537140
0.935862 -0.934307 0.617141 0.000000000000000e+00 1851878480
0.941833 -0.942704 0.701163 0.000000000000000e+00 1851878480
0.886054 -0.889438 0.788885 0.000000000000000e+00 1851878480
0.750670 -0.756835 0.886814 0.000000000000000e+00 1851878480
0.645971 -0.655080 0.990078 0.000000000000000e+00 1851878480
0.495270 -0.507745 1.108414 0.000000000000000e+00 1851878480
0.952173 -0.935956 0.108821 0.000000000000000e+00 1701537140
0.949454 -0.935694 0.193996 0.000000000000000e+00 1701537140
0.914920 -0.918966 0.275774 0.000000000000000e+00 1701537140
0.926670 -0.933171 0.362629 0.000000000000000e+00 1701537140
0.936023 -0.944972 0.448776 0.000000000000000e+00 1701537140
0.969626 -0.980871 0.534408 0.000000000000000e+00 1701537140
0.921166 -0.935080 0.616850 0.000000000000000e+00 1851878480
0.947894 -0.964087 0.700622 0.000000000000000e+00 1851878480
0.889861 -0.908922 0.788002 0.000000000000000e+00 1851878480
0.744093 -0.766839 0.886421 0.000000000000000e+00 1851878480
0.636615 -0.662975 0.989919 0.000000000000000e+00 1851878480
0.482827 -0.513508 1.108672 0.000000000000000e+00 1851878480
0.969878 -0.968911 0.113881 0.000000000000000e+00 1701537140
0.948629 -0.950138 0.194965 0.000000000000000e+00 1701537140
0.899705 -0.919254 0.274486 0.000000000000000e+00 1701537140
0.919496 -0.941385 0.362457 0.000000000000000e+00 1701537140
0.920196 -0.944574 0.447937 0.000000000000000e+00 1701537140
0.965138 -0.991516 0.534316 0.000000000000000e+00 1701537140
0.906159 -0.935627 0.616553 0.000000000000000e+00 1851878480
0.953995 -0.985347 0.700083 0.000000000000000e+00 1851878480
0.892953 -0.927559 0.787164 0.000000000000000e+00 1851878480
0.737481 -0.776785 0.886034 0.000000000000000e+00 1851878480
0.627129 -0.670749 0.989776 0.000000000000000e+00 1851878480
0.470028 -0.518961 1.108984 0.000000000000000e+00 1851878480
0.971421 -0.985491 0.115544 0.000000000000000e+00 1701537140
0.935872 -0.952644 0.193838 0.000000000000000e+00 1701537140
0.872823 -0.908123 0.271553 0.000000000000000e+00 1701537140
0.961854 -0.998413 0.367628 0.000000000000000e+00 1701537140
0.904177 -0.944085 0.447082 0.000000000000000e+00 1701537140
0.854511 -0.897722 0.529729 0.000000000000000e+00 1701537140
0.890564 -0.935685 0.616247 0.000000000000000e+00 1851878480
0.959534 -1.005891 0.699559 0.000000000000000e+00 1851878480
0.895567 -0.945600 0.786357 0.000000000000000e+00 1851878480
0.729896 -0.785762 0.885732 0.000000000000000e+00 1851878480
0.617510 -0.678406 0.989649 0.000000000000000e+00 1851878480
0.456961 -0.524198 1.109334 0.000000000000000e+00 1851878480
0.969294 -0.998338 0.116430 0.000000000000000e+00 1701537140
0.963713 -0.995305 0.199784 0.000000000000000e+00 1701537140
0.859431 -0.910447 0.270524 0.000000000000000e+00 1701537140
0.963857 -1.015317 0.368424 0.000000000000000e+00 1701537140
0.874153 -0.929988 0.445177 0.000000000000000e+00 1701537140
0.949454 -1.006144 0.533838 0.000000000000000e+00 1701537140
0.874872 -0.935740 0.615937 0.000000000000000e+00 1851878480
0.963368 -1.024618 0.699077 0.000000000000000e+00 1851878480
0.897877 -0.963222 0.785572 0.000000000000000e+00 1851878480
0.721575 -0.794014 0.885496 0.000000000000000e+00 1851878480
0.607871 -0.686056 0.989524 0.000000000000000e+00 1851878480
0.443672 -0.529266 1.109715 0.000000000000000e+00 1851878480
0.964209 -1.008215 0.116690 0.000000000000000e+00 1701537140
0.966124 -1.012587 0.201273 0.000000000000000e+00 1701537140
0.846120 -0.912916 0.269504 0.000000000000000e+00 1701537140
0.963010 -1.029333 0.368904 0.000000000000000e+00 1701537140
0.860364 -0.931948 0.444487 0.000000000000000e+00 1701537140
0.948657 -1.020311 0.533893 0.000000000000000e+00 1701537140
0.954508 -1.028449 0.616564 0.000000000000000e+00 1701537140
0.965574 -1.041632 0.698633 0.000000000000000e+00 1851878480
0.900147 -0.980688 0.784793 0.000000000000000e+00 1851878480
0.713227 -0.802241 0.885263 0.000000000000000e+00 1851878480
0.597855 -0.693354 0.989444 0.000000000000000e+00 1851878480
0.430088 -0.534100 1.110139 0.000000000000000e+00 1851878480
0.949455 -1.008621 0.114945 0.000000000000000e+00 1701537140
0.958515 -1.019976 0.201011 0.000000000000000e+00 1701537140
0.832783 -0.915424 0.268479 0.000000000000000e+00 1701537140
0.960312 -1.041482 0.369179 0.000000000000000e+00 1701537140
0.846712 -0.934110 0.443805 0.000000000000000e+00 1701537140
0.934694 -1.021679 0.533388 0.000000000000000e+00 1701537140
0.960451 -1.049015 0.616468 0.000000000000000e+00 1701537140
0.967206 -1.057980 0.698203 0.000000000000000e+00 1851878480
0.902462 -0.998080 0.784016 0.000000000000000e+00 1851878480
0.704808 -0.810402 0.885035 0.000000000000000e+00 1851878480
0.587826 -0.700656 0.989365 0.000000000000000e+00 1851878480
0.416368 -0.538856 1.110580 0.000000000000000e+00 1851878480
0.949454 -1.023436 0.116240 0.000000000000000e+00 1701537140
0.945715 -1.022330 0.199845 0.000000000000000e+00 1701537140
0.819539 -0.918087 0.267464 0.000000000000000e+00 1701537140
0.955729 -1.051762 0.369245 0.000000000000000e+00 1701537140
0.833025 -0.936309 0.443118 0.000000000000000e+00 1701537140
0.918444 -1.020928 0.532784 0.000000000000000e+00 1701537140
0.965226 -1.068309 0.616359 0.000000000000000e+00 1701537140
0.968621 -1.074015 0.697780 0.000000000000000e+00 1851878480
0.904840 -1.015420 0.783239 0.000000000000000e+00 1851878480
0.696437 -0.818612 0.884803 0.000000000000000e+00 1851878480
0.577403 -0.707601 0.989333 0.000000000000000e+00 1851878480
0.402478 -0.543506 1.111044 0.000000000000000e+00 1851878480
0.940379 -1.029407 0.115656 0.000000000000000e+00 1701537140
0.965453 -1.056122 0.204292 0.000000000000000e+00 1701537140
0.806240 -0.920763 0.266440 0.000000000000000e+00 1701537140
0.948685 -1.059657 0.369042 0.000000000000000e+00 1701537140
0.819455 -0.938688 0.442437 0.000000000000000e+00 1701537140
0.901958 -1.020053 0.532167 0.000000000000000e+00 1701537140
0.968689 -1.086210 0.616237 0.000000000000000e+00 1701537140
0.969735 -1.089663 0.697364 0.000000000000000e+00 1851878480
0.907099 -1.032531 0.782474 0.000000000000000e+00 1851878480
0.681865 -0.820930 0.885106 0.000000000000000e+00 1851878480
0.566798 -0.714395 0.989321 0.000000000000000e+00 1851878480
0.388352 -0.547989 1.111539 0.000000000000000e+00 1851878480
0.953042 -1.053703 0.035209 0.000000000000000e+00 1701537140
0.927352 -1.031608 0.114256 0.000000000000000e+00 1701537140
0.965834 -1.071050 0.205379 0.000000000000000e+00 1701537140
0.792985 -0.923542 0.265420 0.000000000000000e+00 1701537140
0.938145 -1.064224 0.368462 0.000000000000000e+00 1701537140
0.805824 -0.941077 0.441749 0.000000000000000e+00 1701537140
0.961939 -1.091834 0.534770 0.000000000000000e+00 1701537140
0.970330 -1.102261 0.616095 0.000000000000000e+00 1701537140
0.970521 -1.104904 0.696957 0.000000000000000e+00 1851878480
0.909243 -1.049421 0.781718 0.000000000000000e+00 1851878480
0.673677 -0.829354 0.884856 0.000000000000000e+00 1851878480
0.555954 -0.720988 0.989337 0.000000000000000e+00 1851878480
0.374034 -0.552350 1.112061 0.000000000000000e+00 1851878480
0.959773 -1.074665 0.038296 0.000000000000000e+00 1701537140
0.914384 -1.033927 0.112867 0.000000000000000e+00 1701537140
0.959025 -1.079038 0.205219 0.000000000000000e+00 1701537140
0.779747 -0.926402 0.264401 0.000000000000000e+00 1701537140
0.925315 -1.066665 0.367635 0.000000000000000e+00 1701537140
0.792179 -0.943521 0.441058 0.000000000000000e+00 1701537140
0.960260 -1.104695 0.534769 0.000000000000000e+00 1701537140
0.971199 -1.117484 0.615945 0.000000000000000e+00 1701537140
0.971192 -1.119946 0.696553 0.000000000000000e+00 1851878480
0.911373 -1.066191 0.780967 0.000000000000000e+00 1851878480
0.665314 -0.837616 0.884620 0.000000000000000e+00 1851878480
0.544802 -0.727321 0.989387 0.000000000000000e+00 1851878480
0.359553 -0.556619 1.112603 0.000000000000000e+00 1851878480
0.966118 -1.095101 0.041269 0.000000000000000e+00 1701537140
0.901366 -1.036264 0.111468 0.000000000000000e+00 1701537140
0.946588 -1.081693 0.204088 0.000000000000000e+00 1701537140
0.766456 -0.929274 0.263371 0.000000000000000e+00 1701537140
0.912065 -1.068775 0.366762 0.000000000000000e+00 1701537140
0.778536 -0.946034 0.440364 0.000000000000000e+00 1701537140
0.951588 -1.110939 0.534472 0.000000000000000e+00 1701537140
0.971442 -1.132030 0.615787 0.000000000000000e+00 1701537140
0.970208 -1.133350 0.696186 0.000000000000000e+00 1851878480
0.913122 -1.082495 0.780240 0.000000000000000e+00 1851878480
0.656998 -0.845925 0.884381 0.000000000000000e+00 1851878480
0.533526 -0.733570 0.989451 0.000000000000000e+00 1851878480
0.344871 -0.560765 1.113171 0.000000000000000e+00 1851878480
0.969454 -1.112547 0.043507 0.000000000000000e+00 1701537140
0.871610 -1.022892 0.106659 0.000000000000000e+00 1701537140
0.930250 -1.080734 0.202289 0.000000000000000e+00 1701537140
0.946899 -1.113318 0.289095 0.000000000000000e+00 1701537140
0.951106 -1.119782 0.371430 0.000000000000000e+00 1701537140
0.957055 -1.127870 0.453861 0.000000000000000e+00 1701537140
0.963681 -1.136549 0.535045 0.000000000000000e+00 1701537140
0.971603 -1.146416 0.615626 0.000000000000000e+00 1701537140
0.968122 -1.145660 0.695843 0.000000000000000e+00 1851878480
0.914638 -1.098482 0.779530 0.000000000000000e+00 1851878480
0.648618 -0.854178 0.884146 0.000000000000000e+00 1851878480
0.521907 -0.739533 0.989553 0.000000000000000e+00 1851878480
0.330058 -0.564855 1.113754 0.000000000000000e+00 1851878480
0.971090 -1.128280 0.045326 0.000000000000000e+00 1701537140
0.860762 -1.027485 0.105705 0.000000000000000e+00 1701537140
0.790751 -0.964621 0.179479 0.000000000000000e+00 1701537140
0.953961 -1.134146 0.290810 0.000000000000000e+00 1701537140
0.953839 -1.136567 0.372234 0.000000000000000e+00 1701537140
0.946137 -1.131968 0.453341 0.000000000000000e+00 1701537140
0.966207 -1.153081 0.535211 0.000000000000000e+00 1701537140
0.971634 -1.160599 0.615463 0.000000000000000e+00 1701537140
0.967231 -1.159017 0.695474 0.000000000000000e+00 1851878480
0.915921 -1.114154 0.778835 0.000000000000000e+00 1851878480
0.640086 -0.862295 0.883925 0.000000000000000e+00 1851878480
0.510146 -0.745400 0.989670 0.000000000000000e+00 1851878480
0.315017 -0.568800 1.114368 0.000000000000000e+00 1851878480
0.971515 -1.142787 0.046842 0.000000000000000e+00 1701537140
0.850092 -1.032282 0.104784 0.000000000000000e+00 1701537140
0.778429 -0.968290 0.178412 0.000000000000000e+00 1701537140
0.948395 -1.143153 0.290775 0.000000000000000e+00 1701537140
0.953011 -1.149959 0.372652 0.000000000000000e+00 1701537140
0.958497 -1.157566 0.454533 0.000000000000000e+00 1701537140
0.959900 -1.161375 0.535004 0.000000000000000e+00 1701537140
0.971641 -1.174683 0.615299 0.000000000000000e+00 1701537140
0.966408 -1.172369 0.695105 0.000000000000000e+00 1851878480
0.916747 -1.129312 0.778168 0.000000000000000e+00 1851878480
0.631475 -0.870346 0.883709 0.000000000000000e+00 1851878480
0.498119 -0.751064 0.989816 0.000000000000000e+00 1851878480
0.299655 -0.572522 1.115024 0.000000000000000e+00 1851878480
0.971593 -1.156890 0.048262 0.000000000000000e+00 1701537140
0.839619 -1.037299 0.103899 0.000000000000000e+00 1701537140
0.766068 -0.971976 0.177336 0.000000000000000e+00 1701537140
0.948181 -1.157058 0.291468 0.000000000000000e+00 1701537140
0.953183 -1.164200 0.373170 0.000000000000000e+00 1701537140
0.949153 -1.163064 0.454121 0.000000000000000e+00 1701537140
0.947546 -1.164127 0.534539 0.000000000000000e+00 1701537140
0.971583 -1.188628 0.615133 0.000000000000000e+00 1701537140
0.966962 -1.186909 0.694707 0.000000000000000e+00 1851878480
0.917438 -1.144259 0.777511 0.000000000000000e+00 1851878480
0.622593 -0.878157 0.883516 0.000000000000000e+00 1851878480
0.485942 -0.756632 0.989976 0.000000000000000e+00 1851878480
0.284000 -0.576048 1.115719 0.000000000000000e+00 1851878480
0.971511 -1.170768 0.049629 0.000000000000000e+00 1701537140
0.829237 -1.042434 0.103028 0.000000000000000e+00 1701537140
0.753786 -0.975789 0.176270 0.000000000000000e+00 1701537140
0.948379 -1.171263 0.292209 0.000000000000000e+00 1701537140
0.954341 -1.179259 0.373784 0.000000000000000e+00 1701537140
0.935007 -1.164215 0.453354 0.000000000000000e+00 1701537140
0.932201 -1.164215 0.533947 0.000000000000000e+00 1701537140
0.971410 -1.202392 0.614964 0.000000000000000e+00 1701537140
0.967999 -1.201804 0.694299 0.000000000000000e+00 1851878480
0.917615 -1.158652 0.776884 0.000000000000000e+00 1851878480
0.613678 -0.885947 0.883325 0.000000000000000e+00 1851878480
0.473569 -0.762064 0.990157 0.000000000000000e+00 1851878480
0.268005 -0.579342 1.116458 0.000000000000000e+00 1851878480
0.971471 -1.184607 0.050991 0.000000000000000e+00 1701537140
0.819123 -1.047847 0.102206 0.000000000000000e+00 1701537140
0.741488 -0.979639 0.175199 0.000000000000000e+00 1701537140
0.946602 -1.183600 0.292672 0.000000000000000e+00 1701537140
0.944659 -1.184407 0.373251 0.000000000000000e+00 1701537140
0.919503 -1.164216 0.452485 0.000000000000000e+00 1701537140
0.916655 -1.164215 0.533343 0.000000000000000e+00 1701537140
0.971174 -1.216027 0.614793 0.000000000000000e+00 1701537140
0.970402 -1.217845 0.693865 0.000000000000000e+00 1851878480
0.917696 -1.172880 0.776265 0.000000000000000e+00 1851878480
0.604419 -0.893441 0.883162 0.000000000000000e+00 1851878480
0.461093 -0.767449 0.990348 0.000000000000000e+00 1851878480
0.251405 -0.582172 1.117281 0.000000000000000e+00 1851878480
0.971466 -1.198405 0.052347 0.000000000000000e+00 1701537140
0.809119 -1.053392 0.101403 0.000000000000000e+00 1701537140
0.803199 -1.050758 0.186614 0.000000000000000e+00 1701537140
0.955035 -1.205086 0.294518 0.000000000000000e+00 1701537140
0.955946 -1.208474 0.374915 0.000000000000000e+00 1701537140
0.803957 -1.074299 0.444289 0.000000000000000e+00 1701537140
0.750697 -1.029129 0.526432 0.000000000000000e+00 1701537140
0.970415 -1.229119 0.614615 0.000000000000000e+00 1701537140
0.970510 -1.231726 0.693479 0.000000000000000e+00 1851878480
0.917208 -1.186521 0.775678 0.000000000000000e+00 1851878480
0.594903 -0.900720 0.883020 0.000000000000000e+00 1851878480
0.448373 -0.772663 0.990563 0.000000000000000e+00 1851878480
0.234386 -0.584713 1.118160 0.000000000000000e+00 1851878480
0.971512 -1.212175 0.053700 0.000000000000000e+00 1701537140
0.968800 -1.212327 0.134589 0.000000000000000e+00 1701537140
0.954481 -1.201986 0.213055 0.000000000000000e+00 1701537140
0.949249 -1.213662 0.294416 0.000000000000000e+00 1701537140
0.946656 -1.213920 0.374413 0.000000000000000e+00 1701537140
0.804153 -1.089066 0.444574 0.000000000000000e+00 1701537140
0.738010 -1.032683 0.525945 0.000000000000000e+00 1701537140
0.969188 -1.241728 0.614431 0.000000000000000e+00 1701537140
0.969865 -1.244860 0.693109 0.000000000000000e+00 1851878480
0.916723 -1.200094 0.775093 0.000000000000000e+00 1851878480
0.585260 -0.907903 0.882887 0.000000000000000e+00 1851878480
0.435509 -0.777798 0.990792 0.000000000000000e+00 1851878480
0.216961 -0.586982 1.119091 0.000000000000000e+00 1851878480
0.971582 -1.225892 0.055044 0.000000000000000e+00 1701537140
0.966757 -1.224167 0.135294 0.000000000000000e+00 1701537140
0.943826 -1.206182 0.212167 0.000000000000000e+00 1701537140
0.946631 -1.225048 0.294739 0.000000000000000e+00 1701537140
0.949065 -1.229803 0.375130 0.000000000000000e+00 1701537140
0.804322 -1.103729 0.444851 0.000000000000000e+00 1701537140
0.725436 -1.036393 0.525460 0.000000000000000e+00 1701537140
0.967489 -1.253857 0.614241 0.000000000000000e+00 1701537140
0.969036 -1.257764 0.692743 0.000000000000000e+00 1851878480
0.915668 -1.213091 0.774540 0.000000000000000e+00 1851878480
0.575140 -0.914683 0.882792 0.000000000000000e+00 1851878480
0.422405 -0.782768 0.991046 0.000000000000000e+00 1851878480
0.199075 -0.588936 1.120083 0.000000000000000e+00 1851878480
0.971554 -1.239446 0.056352 0.000000000000000e+00 1701537140
0.959398 -1.231207 0.134927 0.000000000000000e+00 1701537140
0.958354 -1.232883 0.215500 0.000000000000000e+00 1701537140
0.931781 -1.225558 0.293395 0.000000000000000e+00 1701537140
0.938662 -1.234253 0.374504 0.000000000000000e+00 1701537140
0.969748 -1.264331 0.457174 0.000000000000000e+00 1701537140
0.712824 -1.040126 0.524971 0.000000000000000e+00 1701537140
0.965067 -1.265296 0.614041 0.000000000000000e+00 1701537140
0.968108 -1.270518 0.692380 0.000000000000000e+00 1851878480
0.914616 -1.226029 0.773988 0.000000000000000e+00 1851878480
0.565031 -0.921499 0.882695 0.000000000000000e+00 1851878480
0.409042 -0.787565 0.991326 0.000000000000000e+00 1851878480
0.180720 -0.590579 1.121135 0.000000000000000e+00 1851878480
0.971253 -1.252689 0.057582 0.000000000000000e+00 1701537140
0.948919 -1.235485 0.133934 0.000000000000000e+00 1701537140
0.949129 -1.238295 0.214836 0.000000000000000e+00 1701537140
0.954086 -1.258860 0.297080 0.000000000000000e+00 1701537140
0.921735 -1.233008 0.373195 0.000000000000000e+00 1701537140
0.969302 -1.277416 0.457381 0.000000000000000e+00 1701537140
0.701578 -1.045113 0.524536 0.000000000000000e+00 1701537140
0.962475 -1.276539 0.613838 0.000000000000000e+00 1701537140
0.967014 -1.283065 0.692020 0.000000000000000e+00 1851878480
0.913063 -1.238467 0.773464 0.000000000000000e+00 1851878480
0.554487 -0.927959 0.882632 0.000000000000000e+00 1851878480
0.395477 -0.792241 0.991626 0.000000000000000e+00 1851878480
0.161953 -0.591963 1.122239 0.000000000000000e+00 1851878480
0.970298 -1.265284 0.058648 0.000000000000000e+00 1701537140
0.962362 -1.260911 0.137689 0.000000000000000e+00 1701537140
0.935901 -1.240207 0.213500 0.000000000000000e+00 1701537140
0.952176 -1.270667 0.297474 0.000000000000000e+00 1701537140
0.903664 -1.230869 0.371766 0.000000000000000e+00 1701537140
0.962956 -1.285286 0.457154 0.000000000000000e+00 1701537140
0.694233 -1.053543 0.524261 0.000000000000000e+00 1701537140
0.959489 -1.287396 0.613629 0.000000000000000e+00 1701537140
0.965802 -1.295449 0.691662 0.000000000000000e+00 1851878480
0.911477 -1.250820 0.772944 0.000000000000000e+00 1851878480
0.543827 -0.934349 0.882576 0.000000000000000e+00 1851878480
0.381557 -0.796667 0.991962 0.000000000000000e+00 1851878480
0.142650 -0.592990 1.123413 0.000000000000000e+00 1851878480
0.968708 -1.277262 0.059555 0.000000000000000e+00 1701537140
0.961570 -1.273638 0.138599 0.000000000000000e+00 1701537140
0.921572 -1.241222 0.211980 0.000000000000000e+00 1701537140
0.947637 -1.280136 0.297505 0.000000000000000e+00 1701537140
0.873606 -1.218436 0.369092 0.000000000000000e+00 1701537140
0.952310 -1.289420 0.456611 0.000000000000000e+00 1701537140
0.690522 -1.065122 0.524135 0.000000000000000e+00 1701537140
0.956352 -1.298081 0.613416 0.000000000000000e+00 1701537140
0.964483 -1.307683 0.691307 0.000000000000000e+00 1851878480
0.909558 -1.262829 0.772442 0.000000000000000e+00 1851878480
0.532853 -0.940496 0.882545 0.000000000000000e+00 1851878480
0.367478 -0.801014 0.992312 0.000000000000000e+00 1851878480
0.122629 -0.593509 1.124681 0.000000000000000e+00 1851878480
0.966272 -1.288447 0.060255 0.000000000000000e+00 1701537140
0.956403 -1.282489 0.138632 0.000000000000000e+00 1701537140
0.804300 -1.152678 0.193337 0.000000000000000e+00 1701537140
0.940342 -1.287202 0.297160 0.000000000000000e+00 1701537140
0.859333 -1.219878 0.368058 0.000000000000000e+00 1701537140
0.938997 -1.291297 0.455871 0.000000000000000e+00 1701537140
0.687997 -1.077685 0.524055 0.000000000000000e+00 1701537140
0.953382 -1.308876 0.613204 0.000000000000000e+00 1701537140
0.962854 -1.319595 0.690959 0.000000000000000e+00 1851878480
0.907513 -1.274679 0.771948 0.000000000000000e+00 1851878480
0.521691 -0.946518 0.882526 0.000000000000000e+00 1851878480
0.352949 -0.805040 0.992708 0.000000000000000e+00 1851878480
0.101490 -0.593191 1.126100 0.000000000000000e+00 1851878480
0.963282 -1.299110 0.060818 0.000000000000000e+00 1701537140
0.947846 -1.288388 0.137989 0.000000000000000e+00 1701537140
0.804340 -1.166830 0.194234 0.000000000000000e+00 1701537140
0.931813 -1.293214 0.296644 0.000000000000000e+00 1701537140
0.844813 -1.221185 0.366997 0.000000000000000e+00 1701537140
0.962196 -1.324544 0.457776 0.000000000000000e+00 1701537140
0.949454 -1.316220 0.535013 0.000000000000000e+00 1701537140
0.950258 -1.319500 0.612988 0.000000000000000e+00 1701537140
0.960488 -1.330826 0.690624 0.000000000000000e+00 1851878480
0.905255 -1.286300 0.771465 0.000000000000000e+00 1851878480
0.510328 -0.952405 0.882522 0.000000000000000e+00 1851878480
0.338227 -0.808969 0.993122 0.000000000000000e+00 1851878480
0.078717 -0.591613 1.127742 0.000000000000000e+00 1851878480
0.960160 -1.309621 0.061340 0.000000000000000e+00 1701537140
0.936053 -1.291521 0.136703 0.000000000000000e+00 1701537140
0.804346 -1.180878 0.195115 0.000000000000000e+00 1701537140
0.962983 -1.333153 0.301448 0.000000000000000e+00 1701537140
0.829605 -1.221984 0.365862 0.000000000000000e+00 1701537140
0.960315 -1.336110 0.457856 0.000000000000000e+00 1701537140
0.970162 -1.347083 0.535896 0.000000000000000e+00 1701537140
0.940199 -1.324193 0.612693 0.000000000000000e+00 1701537140
0.957220 -1.341247 0.690307 0.000000000000000e+00 1851878480
0.902800 -1.297706 0.770994 0.000000000000000e+00 1851878480
0.498723 -0.958123 0.882534 0.000000000000000e+00 1851878480
0.323173 -0.812683 0.993569 0.000000000000000e+00 1851878480
0.054030 -0.588562 1.129643 0.000000000000000e+00 1851878480
0.956711 -1.319817 0.061777 0.000000000000000e+00 1701537140
0.921906 -1.292690 0.134953 0.000000000000000e+00 1701537140
0.804317 -1.194824 0.195980 0.000000000000000e+00 1701537140
0.969121 -1.351451 0.302878 0.000000000000000e+00 1701537140
0.814302 -1.222791 0.364716 0.000000000000000e+00 1701537140
0.955904 -1.345489 0.457749 0.000000000000000e+00 1701537140
0.971630 -1.361393 0.535972 0.000000000000000e+00 1701537140
0.928518 -1.327552 0.612376 0.000000000000000e+00 1701537140
0.953836 -1.351537 0.689991 0.000000000000000e+00 1851878480
0.900292 -1.309025 0.770527 0.000000000000000e+00 1851878480
0.486980 -0.963768 0.882556 0.000000000000000e+00 1851878480
0.307815 -0.816215 0.994045 0.000000000000000e+00 1851878480
0.027485 -0.584117 1.131794 0.000000000000000e+00 1851878480
0.953358 -1.330063 0.062226 0.000000000000000e+00 1701537140
0.907677 -1.293870 0.133187 0.000000000000000e+00 1701537140
0.804257 -1.208674 0.196829 0.000000000000000e+00 1701537140
0.966445 -1.362183 0.303119 0.000000000000000e+00 1701537140
0.805748 -1.229373 0.364263 0.000000000000000e+00 1701537140
0.949345 -1.353037 0.457483 0.000000000000000e+00 1701537140
0.969945 -1.372971 0.535914 0.000000000000000e+00 1701537140
0.916719 -1.330866 0.612055 0.000000000000000e+00 1701537140
0.950050 -1.361458 0.689682 0.000000000000000e+00 1851878480
0.897537 -1.320095 0.770073 0.000000000000000e+00 1851878480
0.474921 -0.969190 0.882600 0.000000000000000e+00 1851878480
0.292234 -0.819636 0.994540 0.000000000000000e+00 1851878480
-0.000366 -0.578764 1.134114 0.000000000000000e+00 1851878480
0.950140 -1.340392 0.062696 0.000000000000000e+00 1701537140
0.967537 -1.357800 0.145923 0.000000000000000e+00 1701537140
0.804166 -1.222428 0.197663 0.000000000000000e+00 1701537140
0.963158 -1.372365 0.303273 0.000000000000000e+00 1701537140
0.805470 -1.242905 0.364657 0.000000000000000e+00 1701537140
0.939096 -1.357499 0.456947 0.000000000000000e+00 1701537140
0.966031 -1.382637 0.535759 0.000000000000000e+00 1701537140
0.904653 -1.334011 0.611727 0.000000000000000e+00 1701537140
0.946199 -1.371298 0.689374 0.000000000000000e+00 1851878480
0.894781 -1.331124 0.769621 0.000000000000000e+00 1851878480
0.462750 -0.974563 0.882650 0.000000000000000e+00 1851878480
0.276265 -0.822810 0.995073 0.000000000000000e+00 1851878480
-0.028632 -0.573263 1.136477 0.000000000000000e+00 1851878480
0.936311 -1.341755 0.060751 0.000000000000000e+00 1701537140
0.971214 -1.373813 0.147625 0.000000000000000e+00 1701537140
0.804050 -1.236092 0.198482 0.000000000000000e+00 1701537140
0.959698 -1.382371 0.303396 0.000000000000000e+00 1701537140
0.805186 -1.256366 0.365044 0.000000000000000e+00 1701537140
0.922691 -1.356881 0.455965 0.000000000000000e+00 1701537140
0.961413 -1.391693 0.535572 0.000000000000000e+00 1701537140
0.892264 -1.336944 0.611394 0.000000000000000e+00 1701537140
0.942348 -1.381110 0.689066 0.000000000000000e+00 1851878480
0.891820 -1.341945 0.769179 0.000000000000000e+00 1851878480
0.450232 -0.979696 0.882725 0.000000000000000e+00 1851878480
0.260023 -0.825839 0.995632 0.000000000000000e+00 1851878480
-0.058119 -0.566952 1.138994 0.000000000000000e+00 1851878480
0.920430 -1.341477 0.058342 0.000000000000000e+00 1701537140
0.971201 -1.386641 0.148594 0.000000000000000e+00 1701537140
0.803908 -1.249666 0.199288 0.000000000000000e+00 1701537140
0.956147 -1.392273 0.303502 0.000000000000000e+00 1701537140
0.804897 -1.269758 0.365424 0.000000000000000e+00 1701537140
0.970872 -1.409743 0.459630 0.000000000000000e+00 1701537140
0.956633 -1.400599 0.535376 0.000000000000000e+00 1701537140
0.965275 -1.410342 0.612055 0.000000000000000e+00 1851878480
0.938332 -1.390762 0.688759 0.000000000000000e+00 1851878480
0.888735 -1.352628 0.768744 0.000000000000000e+00 1851878480
0.437606 -0.984790 0.882806 0.000000000000000e+00 1851878480
0.243512 -0.828730 0.996214 0.000000000000000e+00 1851878480
-0.090869 -0.558178 1.141950 0.000000000000000e+00 1851878480
0.903989 -1.340828 0.055808 0.000000000000000e+00 1701537140
0.967957 -1.396721 0.148923 0.000000000000000e+00 1701537140
0.803748 -1.263159 0.200080 0.000000000000000e+00 1701537140
0.952542 -1.402103 0.303594 0.000000000000000e+00 1701537140
0.804605 -1.283083 0.365798 0.000000000000000e+00 1701537140
0.971080 -1.422650 0.459834 0.000000000000000e+00 1701537140
0.952000 -1.409610 0.535183 0.000000000000000e+00 1701537140
0.962645 -1.420960 0.611836 0.000000000000000e+00 1851878480
0.934461 -1.400509 0.688450 0.000000000000000e+00 1851878480
0.885648 -1.363274 0.768310 0.000000000000000e+00 1851878480
0.424610 -0.989633 0.882912 0.000000000000000e+00 1851878480
0.226590 -0.831372 0.996835 0.000000000000000e+00 1851878480
-0.130905 -0.543712 1.145898 0.000000000000000e+00 1851878480
0.886525 -1.339435 0.053046 0.000000000000000e+00 1701537140
0.963243 -1.405558 0.148957 0.000000000000000e+00 1701537140
0.967716 -1.411925 0.227695 0.000000000000000e+00 1701537140
0.948733 -1.411739 0.303654 0.000000000000000e+00 1701537140
0.969658 -1.431510 0.383064 0.000000000000000e+00 1701537140
0.967195 -1.432149 0.459739 0.000000000000000e+00 1701537140
0.943571 -1.415510 0.534828 0.000000000000000e+00 1701537140
0.960005 -1.431534 0.611616 0.000000000000000e+00 1851878480
0.930579 -1.410222 0.688140 0.000000000000000e+00 1851878480
0.882270 -1.373651 0.767891 0.000000000000000e+00 1851878480
0.411492 -0.994431 0.883025 0.000000000000000e+00 1851878480
0.209357 -0.833851 0.997484 0.000000000000000e+00 1851878480
-0.179397 -0.522718 1.150991 0.000000000000000e+00 1851878480
0.866624 -1.336150 0.049739 0.000000000000000e+00 1701537140
0.958215 -1.414122 0.148924 0.000000000000000e+00 1701537140
0.971574 -1.427759 0.229074 0.000000000000000e+00 1701537140
0.971284 -1.442795 0.307194 0.000000000000000e+00 1701537140
0.971393 -1.445530 0.383608 0.000000000000000e+00 1701537140
0.961829 -1.440423 0.459534 0.000000000000000e+00 1701537140
0.930867 -1.417965 0.534292 0.000000000000000e+00 1701537140
0.957311 -1.442028 0.611393 0.000000000000000e+00 1851878480
0.926742 -1.419946 0.687828 0.000000000000000e+00 1851878480
0.878672 -1.383819 0.767483 0.000000000000000e+00 1851878480
0.398005 -0.998987 0.883163 0.000000000000000e+00 1851878480
0.191822 -0.836177 0.998160 0.000000000000000e+00 1851878480
-0.235511 -0.495988 1.157103 0.000000000000000e+00 1851878480
0.843287 -1.330192 0.045665 0.000000000000000e+00 1701537140
0.953269 -1.422739 0.148899 0.000000000000000e+00 1701537140
0.969636 -1.438771 0.229499 0.000000000000000e+00 1701537140
0.970356 -1.454582 0.307616 0.000000000000000e+00 1701537140
0.967850 -1.455210 0.383608 0.000000000000000e+00 1701537140
0.956337 -1.448588 0.459317 0.000000000000000e+00 1701537140
0.918024 -1.420374 0.533748 0.000000000000000e+00 1701537140
0.953866 -1.451883 0.611160 0.000000000000000e+00 1851878480
0.923039 -1.429755 0.687513 0.000000000000000e+00 1851878480
0.874853 -1.393782 0.767086 0.000000000000000e+00 1851878480
0.384346 -1.003465 0.883312 0.000000000000000e+00 1851878480
0.173894 -0.838284 0.998873 0.000000000000000e+00 1851878480
-0.308636 -0.456134 1.165514 0.000000000000000e+00 1851878480
0.817203 -1.322174 0.040985 0.000000000000000e+00 1701537140
0.946090 -1.429535 0.148436 0.000000000000000e+00 1701537140
0.964695 -1.447310 0.229427 0.000000000000000e+00 1701537140
0.965560 -1.463209 0.307521 0.000000000000000e+00 1701537140
0.962381 -1.463320 0.383406 0.000000000000000e+00 1701537140
0.951178 -1.457013 0.459120 0.000000000000000e+00 1701537140
0.904960 -1.422671 0.533191 0.000000000000000e+00 1701537140
0.950037 -1.461405 0.610921 0.000000000000000e+00 1851878480
0.919420 -1.439605 0.687196 0.000000000000000e+00 1851878480
0.870145 -1.403012 0.766732 0.000000000000000e+00 1851878480
0.370332 -1.007720 0.883484 0.000000000000000e+00 1851878480
0.155466 -0.840092 0.999632 0.000000000000000e+00 1851878480
-0.406687 -0.397115 1.177289 0.000000000000000e+00 1851878480
0.767434 -1.295239 0.031021 0.000000000000000e+00 1701537140
0.931611 -1.430459 0.146560 0.000000000000000e+00 1701537140
0.959042 -1.455266 0.229233 0.000000000000000e+00 1701537140
0.959796 -1.471049 0.307294 0.000000000000000e+00 1701537140
0.956630 -1.471197 0.383172 0.000000000000000e+00 1701537140
0.940474 -1.461010 0.458522 0.000000000000000e+00 1701537140
0.959966 -1.479190 0.535477 0.000000000000000e+00 1851878480
0.946152 -1.470858 0.610679 0.000000000000000e+00 1851878480
0.915812 -1.449438 0.686879 0.000000000000000e+00 1851878480
0.864632 -1.411585 0.766416 0.000000000000000e+00 1851878480
0.356067 -1.011839 0.883671 0.000000000000000e+00 1851878480
0.136527 -0.841595 1.000439 0.000000000000000e+00 1851878480
0.916926 -1.431298 0.144644 0.000000000000000e+00 1701537140
0.953609 -1.463391 0.229069 0.000000000000000e+00 1701537140
0.954165 -1.478993 0.307079 0.000000000000000e+00 1701537140
0.951224 -1.479345 0.382969 0.000000000000000e+00 1701537140
0.927277 -1.463080 0.457744 0.000000000000000e+00 1701537140
0.956824 -1.489133 0.535330 0.000000000000000e+00 1851878480
0.942142 -1.480191 0.610434 0.000000000000000e+00 1851878480
0.912436 -1.459429 0.686557 0.000000000000000e+00 1851878480
0.858314 -1.419519 0.766138 0.000000000000000e+00 1851878480
0.341484 -1.015776 0.883879 0.000000000000000e+00 1851878480
0.117000 -0.842746 1.001302 0.000000000000000e+00 1851878480
0.901911 -1.431960 0.142665 0.000000000000000e+00 1701537140
0.946300 -1.470020 0.228596 0.000000000000000e+00 1701537140
0.947482 -1.486103 0.306721 0.000000000000000e+00 1701537140
0.940179 -1.483044 0.382189 0.000000000000000e+00 1701537140
0.913939 -1.465108 0.456952 0.000000000000000e+00 1701537140
0.953725 -1.499082 0.535182 0.000000000000000e+00 1851878480
0.938204 -1.489561 0.610188 0.000000000000000e+00 1851878480
0.909088 -1.469415 0.686233 0.000000000000000e+00 1851878480
0.850908 -1.426601 0.765909 0.000000000000000e+00 1851878480
0.326513 -1.019479 0.884113 0.000000000000000e+00 1851878480
0.096729 -0.843428 1.002236 0.000000000000000e+00 1851878480
0.886390 -1.432307 0.140588 0.000000000000000e+00 1701537140
0.932255 -1.471340 0.227031 0.000000000000000e+00 1701537140
0.933829 -1.487754 0.305445 0.000000000000000e+00 1701537140
0.926662 -1.484856 0.381157 0.000000000000000e+00 1701537140
0.900371 -1.467027 0.456142 0.000000000000000e+00 1701537140
0.950316 -1.508761 0.535019 0.000000000000000e+00 1851878480
0.934331 -1.498962 0.609941 0.000000000000000e+00 1851878480
0.905720 -1.479359 0.685910 0.000000000000000e+00 1851878480
0.843248 -1.433497 0.765692 0.000000000000000e+00 1851878480
0.311314 -1.023077 0.884360 0.000000000000000e+00 1851878480
0.075403 -0.843411 1.003274 0.000000000000000e+00 1851878480
0.869972 -1.432041 0.138340 0.000000000000000e+00 1701537140
0.918030 -1.472595 0.225435 0.000000000000000e+00 1701537140
0.920021 -1.489356 0.304147 0.000000000000000e+00 1701537140
0.912990 -1.486619 0.380106 0.000000000000000e+00 1701537140
0.953998 -1.521241 0.460121 0.000000000000000e+00 1851878480
0.946257 -1.517909 0.534825 0.000000000000000e+00 1851878480
0.930445 -1.508331 0.609693 0.000000000000000e+00 1851878480
0.902510 -1.489398 0.685583 0.000000000000000e+00 1851878480
0.835416 -1.440273 0.765481 0.000000000000000e+00 1851878480
0.295550 -1.026312 0.884645 0.000000000000000e+00 1851878480
0.053024 -0.842709 1.004414 0.000000000000000e+00 1851878480
0.852143 -1.430769 0.135823 0.000000000000000e+00 1701537140
0.903543 -1.473725 0.223796 0.000000000000000e+00 1701537140
0.905998 -1.490868 0.302820 0.000000000000000e+00 1701537140
0.899087 -1.488277 0.379031 0.000000000000000e+00 1701537140
0.950701 -1.530914 0.460034 0.000000000000000e+00 1851878480
0.941961 -1.526856 0.534619 0.000000000000000e+00 1851878480
0.926567 -1.517685 0.609442 0.000000000000000e+00 1851878480
0.899343 -1.499443 0.685255 0.000000000000000e+00 1851878480
0.827388 -1.446914 0.765278 0.000000000000000e+00 1851878480
0.279513 -1.029418 0.884946 0.000000000000000e+00 1851878480
0.029565 -0.841319 1.005658 0.000000000000000e+00 1851878480
0.833121 -1.428684 0.133080 0.000000000000000e+00 1701537140
0.888665 -1.474633 0.222093 0.000000000000000e+00 1701537140
0.891659 -1.492214 0.301449 0.000000000000000e+00 1701537140
0.949481 -1.539436 0.384438 0.000000000000000e+00 1851878480
0.947383 -1.540547 0.459941 0.000000000000000e+00 1851878480
0.937612 -1.535748 0.534408 0.000000000000000e+00 1851878480
0.922654 -1.526994 0.609190 0.000000000000000e+00 1851878480
0.896194 -1.509474 0.684926 0.000000000000000e+00 1851878480
0.819282 -1.453514 0.765077 0.000000000000000e+00 1851878480
0.263057 -1.032288 0.885274 0.000000000000000e+00 1851878480
0.004920 -0.839174 1.007016 0.000000000000000e+00 1851878480
0.813535 -1.426287 0.130232 0.000000000000000e+00 1701537140
0.873142 -1.475128 0.220286 0.000000000000000e+00 1701537140
0.944427 -1.544975 0.308818 0.000000000000000e+00 1851878480
0.946108 -1.548982 0.384411 0.000000000000000e+00 1851878480
0.943399 -1.549644 0.459798 0.000000000000000e+00 1851878480
0.933236 -1.544604 0.534193 0.000000000000000e+00 1851878480
0.918713 -1.536260 0.608935 0.000000000000000e+00 1851878480
0.893070 -1.519496 0.684596 0.000000000000000e+00 1851878480
0.810936 -1.459949 0.764885 0.000000000000000e+00 1851878480
0.246136 -1.034890 0.885631 0.000000000000000e+00 1851878480
-0.020934 -0.836272 1.008490 0.000000000000000e+00 1851878480
0.792260 -1.422720 0.127065 0.000000000000000e+00 1701537140
0.856773 -1.475064 0.218342 0.000000000000000e+00 1701537140
0.941056 -1.554501 0.308858 0.000000000000000e+00 1851878480
0.942740 -1.558511 0.384379 0.000000000000000e+00 1851878480
0.939007 -1.558418 0.459622 0.000000000000000e+00 1851878480
0.928840 -1.553431 0.533975 0.000000000000000e+00 1851878480
0.914741 -1.545486 0.608679 0.000000000000000e+00 1851878480
0.889936 -1.529484 0.684265 0.000000000000000e+00 1851878480
0.802598 -1.466411 0.764691 0.000000000000000e+00 1851878480
0.228888 -1.037337 0.886008 0.000000000000000e+00 1851878480
-0.048260 -0.832433 1.010105 0.000000000000000e+00 1851878480
0.768364 -1.417299 0.123404 0.000000000000000e+00 1701537140
0.929236 -1.542733 0.230603 0.000000000000000e+00 1851878480
0.937691 -1.564007 0.308893 0.000000000000000e+00 1851878480
0.938823 -1.567602 0.384288 0.000000000000000e+00 1851878480
0.934500 -1.567091 0.459434 0.000000000000000e+00 1851878480
0.924456 -1.562253 0.533754 0.000000000000000e+00 1851878480
0.910752 -1.554681 0.608420 0.000000000000000e+00 1851878480
0.886720 -1.539385 0.683936 0.000000000000000e+00 1851878480
0.794134 -1.472800 0.764502 0.000000000000000e+00 1851878480
0.211185 -1.039536 0.886413 0.000000000000000e+00 1851878480
-0.077786 -0.827133 1.011935 0.000000000000000e+00 1851878480
0.742046 -1.410210 0.119289 0.000000000000000e+00 1701537140
0.925648 -1.552119 0.230678 0.000000000000000e+00 1851878480
0.933950 -1.573209 0.308874 0.000000000000000e+00 1851878480
0.934386 -1.576284 0.384140 0.000000000000000e+00 1851878480
0.929948 -1.575717 0.459239 0.000000000000000e+00 1851878480
0.920063 -1.571056 0.533531 0.000000000000000e+00 1851878480
0.906752 -1.563850 0.608159 0.000000000000000e+00 1851878480
0.883473 -1.549237 0.683606 0.000000000000000e+00 1851878480
0.785492 -1.479078 0.764319 0.000000000000000e+00 1851878480
0.193043 -1.041505 0.886844 0.000000000000000e+00 1851878480
-0.110155 -0.819923 1.014045 0.000000000000000e+00 1851878480
0.899489 -1.541690 0.149929 0.000000000000000e+00 1851878480
0.922065 -1.561487 0.230746 0.000000000000000e+00 1851878480
0.929621 -1.581953 0.308773 0.000000000000000e+00 1851878480
0.929844 -1.584876 0.383977 0.000000000000000e+00 1851878480
0.925377 -1.584317 0.459040 0.000000000000000e+00 1851878480
0.915664 -1.579839 0.533304 0.000000000000000e+00 1851878480
0.902778 -1.573020 0.607897 0.000000000000000e+00 1851878480
0.880222 -1.559061 0.683276 0.000000000000000e+00 1851878480
0.776873 -1.485396 0.764132 0.000000000000000e+00 1851878480
0.174521 -1.043293 0.887298 0.000000000000000e+00 1851878480
-0.146158 -0.810260 1.016512 0.000000000000000e+00 1851878480
0.895867 -1.551105 0.150054 0.000000000000000e+00 1851878480
0.918203 -1.570626 0.230763 0.000000000000000e+00 1851878480
0.925112 -1.590551 0.308644 0.000000000000000e+00 1851878480
0.925278 -1.593440 0.383808 0.000000000000000e+00 1851878480
0.920789 -1.592894 0.458836 0.000000000000000e+00 1851878480
0.911328 -1.588657 0.533078 0.000000000000000e+00 1851878480
0.898801 -1.582172 0.607633 0.000000000000000e+00 1851878480
0.876617 -1.568600 0.682951 0.000000000000000e+00 1851878480
0.768011 -1.491560 0.763956 0.000000000000000e+00 1851878480
0.155551 -1.044856 0.887779 0.000000000000000e+00 1851878480
-0.186962 -0.797339 1.019454 0.000000000000000e+00 1851878480
0.892234 -1.560492 0.150169 0.000000000000000e+00 1851878480
0.913863 -1.579392 0.230698 0.000000000000000e+00 1851878480
0.920591 -1.599128 0.308508 0.000000000000000e+00 1851878480
0.920720 -1.601999 0.383635 0.000000000000000e+00 1851878480
0.916232 -1.601484 0.458630 0.000000000000000e+00 1851878480
0.906972 -1.597448 0.532848 0.000000000000000e+00 1851878480
