# .PCD v0.7 - Point Cloud Data file format
VERSION 0.7
FIELDS x y z rgb label
SIZE 4 4 4 4 4
TYPE F F F F U
COUNT 1 1 1 1 1
WIDTH 770
HEIGHT 1
VIEWPOINT 0 0 0 1 0 0 0
POINTS 770
DATA ascii
-10.944531 1.290297 1.399385 0.000000000000000e+00 1851878480
-10.389345 -0.243269 1.360257 0.000000000000000e+00 1851878480
-10.063691 0.000000 1.317619 0.000000000000000e+00 1851878480
-10.029935 0.234853 1.313200 0.000000000000000e+00 1851878480
-10.033065 0.471876 1.313609 0.000000000000000e+00 1851878480
-10.151357 0.715910 1.329097 0.000000000000000e+00 1851878480
-10.196767 0.959430 1.335043 0.000000000000000e+00 1851878480
-10.871709 1.282212 1.423412 0.000000000000000e+00 1851878480
-10.354630 -0.242553 1.387489 0.000000000000000e+00 1851878480
-10.056148 0.000000 1.347493 0.000000000000000e+00 1851878480
-10.022881 0.234782 1.343036 0.000000000000000e+00 1851878480
-10.026328 0.471747 1.343498 0.000000000000000e+00 1851878480
-10.121299 0.714076 1.356223 0.000000000000000e+00 1851878480
-10.177290 0.957980 1.363726 0.000000000000000e+00 1851878480
-10.822185 1.276881 1.450140 0.000000000000000e+00 1851878480
-10.327545 -0.242017 1.415580 0.000000000000000e+00 1851878480
-10.049800 0.000000 1.377510 0.000000000000000e+00 1851878480
-10.016056 0.234718 1.372885 0.000000000000000e+00 1851878480
-10.020097 0.471647 1.373438 0.000000000000000e+00 1851878480
-10.049022 0.709266 1.377403 0.000000000000000e+00 1851878480
-10.157286 0.956488 1.392243 0.000000000000000e+00 1851878480
-10.781411 1.272591 1.477790 0.000000000000000e+00 1851878480
-10.305058 -0.241591 1.444175 0.000000000000000e+00 1851878480
-10.043942 0.000000 1.407581 0.000000000000000e+00 1851878480
-10.009216 0.234655 1.402715 0.000000000000000e+00 1851878480
-10.014164 0.471565 1.403408 0.000000000000000e+00 1851878480
-10.042202 0.709081 1.407337 0.000000000000000e+00 1851878480
-10.136945 0.954971 1.420615 0.000000000000000e+00 1851878480
-10.744617 1.268778 1.505775 0.000000000000000e+00 1851878480
-10.289169 -0.241322 1.473603 0.000000000000000e+00 1851878480
-10.038014 0.000000 1.437633 0.000000000000000e+00 1851878480
-10.002601 0.234601 1.432561 0.000000000000000e+00 1851878480
-10.008370 0.471493 1.433387 0.000000000000000e+00 1851878480
-10.038602 0.709130 1.437717 0.000000000000000e+00 1851878480
-10.116611 0.953463 1.448889 0.000000000000000e+00 1851878480
-10.711692 1.265431 1.534116 0.000000000000000e+00 1851878480
-10.281182 -0.241240 1.504117 0.000000000000000e+00 1851878480
-10.032452 0.000000 1.467728 0.000000000000000e+00 1851878480
-9.996504 0.234560 1.462469 0.000000000000000e+00 1851878480
-10.002627 0.471428 1.463365 0.000000000000000e+00 1851878480
-10.035592 0.709227 1.468188 0.000000000000000e+00 1851878480
-10.097767 0.952103 1.477284 0.000000000000000e+00 1851878480
-10.682775 1.262566 1.562869 0.000000000000000e+00 1851878480
-10.282739 -0.241384 1.536030 0.000000000000000e+00 1851878480
-10.027650 0.000000 1.497925 0.000000000000000e+00 1851878480
-9.991102 0.234538 1.492466 0.000000000000000e+00 1851878480
-9.997199 0.471383 1.493376 0.000000000000000e+00 1851878480
-10.032914 0.709354 1.498711 0.000000000000000e+00 1851878480
-10.095569 0.952320 1.508071 0.000000000000000e+00 1851878480
-10.655924 1.259954 1.591776 0.000000000000000e+00 1851878480
-10.296661 -0.241821 1.569872 0.000000000000000e+00 1851878480
-10.023687 0.000000 1.528253 0.000000000000000e+00 1851878480
-9.986415 0.234534 1.522570 0.000000000000000e+00 1851878480
-9.992336 0.471368 1.523473 0.000000000000000e+00 1851878480
-10.030415 0.709500 1.529279 0.000000000000000e+00 1851878480
-10.088816 0.952116 1.538183 0.000000000000000e+00 1851878480
-10.629495 1.257401 1.620617 0.000000000000000e+00 1851878480
-10.020288 0.000000 1.558673 0.000000000000000e+00 1851878480
-9.982294 0.234547 1.552763 0.000000000000000e+00 1851878480
-9.988241 0.471394 1.553688 0.000000000000000e+00 1851878480
-10.028026 0.709661 1.559876 0.000000000000000e+00 1851878480
-10.086793 0.952368 1.569018 0.000000000000000e+00 1851878480
-10.603395 1.254896 1.649376 0.000000000000000e+00 1851878480
-10.017312 0.000000 1.589168 0.000000000000000e+00 1851878480
-9.978596 0.234571 1.583026 0.000000000000000e+00 1851878480
-9.984869 0.471458 1.584021 0.000000000000000e+00 1851878480
-10.025976 0.709852 1.590542 0.000000000000000e+00 1851878480
-10.086592 0.952800 1.600158 0.000000000000000e+00 1851878480
-10.578146 1.252501 1.678140 0.000000000000000e+00 1851878480
-10.014863 0.000000 1.619759 0.000000000000000e+00 1851878480
-9.975282 0.234606 1.613357 0.000000000000000e+00 1851878480
-9.981985 0.471549 1.614442 0.000000000000000e+00 1851878480
-10.024456 0.710087 1.621310 0.000000000000000e+00 1851878480
-10.087604 0.953356 1.631524 0.000000000000000e+00 1851878480
-10.555617 1.250438 1.707218 0.000000000000000e+00 1851878480
-10.015079 0.000000 1.650805 0.000000000000000e+00 1851878480
-9.972404 0.234654 1.643770 0.000000000000000e+00 1851878480
-9.979499 0.471664 1.644940 0.000000000000000e+00 1851878480
-10.023588 0.710376 1.652207 0.000000000000000e+00 1851878480
-10.089167 0.953973 1.663017 0.000000000000000e+00 1851878480
-10.534364 1.248535 1.736399 0.000000000000000e+00 1851878480
-10.021013 0.000000 1.682843 0.000000000000000e+00 1851878480
-9.970901 0.234736 1.674427 0.000000000000000e+00 1851878480
-9.977387 0.471801 1.675517 0.000000000000000e+00 1851878480
-10.023409 0.710719 1.683245 0.000000000000000e+00 1851878480
-10.091385 0.954662 1.694661 0.000000000000000e+00 1851878480
-10.514332 1.246786 1.765687 0.000000000000000e+00 1851878480
-10.503860 -0.247410 1.796512 0.000000000000000e+00 1701537140
-10.262126 0.000000 1.755168 0.000000000000000e+00 1701537140
-9.975364 0.234962 1.706122 0.000000000000000e+00 1851878480
-9.975675 0.471961 1.706175 0.000000000000000e+00 1851878480
-10.023920 0.711119 1.714427 0.000000000000000e+00 1851878480
-10.094036 0.955401 1.726419 0.000000000000000e+00 1851878480
-10.496086 1.245259 1.795183 0.000000000000000e+00 1851878480
-10.440055 -0.246035 1.818025 0.000000000000000e+00 1701537140
-10.216510 0.000000 1.779097 0.000000000000000e+00 1701537140
-9.980558 0.235206 1.738008 0.000000000000000e+00 1851878480
-9.974968 0.472174 1.737035 0.000000000000000e+00 1851878480
-10.024874 0.711557 1.745725 0.000000000000000e+00 1851878480
-10.097733 0.956249 1.758413 0.000000000000000e+00 1851878480
-10.479599 1.243950 1.824911 0.000000000000000e+00 1851878480
-10.381790 -0.244792 1.840156 0.000000000000000e+00 1701537140
-10.174246 0.000000 1.803370 0.000000000000000e+00 1701537140
-10.146626 0.239247 1.798474 0.000000000000000e+00 1701537140
-9.978925 0.472611 1.768749 0.000000000000000e+00 1851878480
-10.026208 0.712029 1.777130 0.000000000000000e+00 1851878480
-10.102189 0.957178 1.790598 0.000000000000000e+00 1851878480
-10.465064 1.242883 1.854917 0.000000000000000e+00 1851878480
-10.331748 -0.243743 1.863443 0.000000000000000e+00 1701537140
-10.135648 0.000000 1.828075 0.000000000000000e+00 1701537140
-10.108245 0.238470 1.823132 0.000000000000000e+00 1701537140
-9.984001 0.473107 1.800724 0.000000000000000e+00 1851878480
-10.027952 0.712537 1.808650 0.000000000000000e+00 1851878480
-10.107512 0.958199 1.823000 0.000000000000000e+00 1851878480
-10.452271 1.242033 1.885181 0.000000000000000e+00 1851878480
-10.285886 -0.242794 1.887221 0.000000000000000e+00 1701537140
-10.099179 0.000000 1.852964 0.000000000000000e+00 1701537140
-10.071198 0.237727 1.847830 0.000000000000000e+00 1701537140
-10.171059 0.482235 1.866152 0.000000000000000e+00 1701537140
-10.030104 0.713081 1.840291 0.000000000000000e+00 1851878480
-10.113597 0.959302 1.855610 0.000000000000000e+00 1851878480
-10.440723 1.241342 1.915630 0.000000000000000e+00 1851878480
-12.219294 1.745976 2.241956 0.000000000000000e+00 1634431585
-10.242642 -0.241908 1.911236 0.000000000000000e+00 1701537140
-10.063579 0.000000 1.877823 0.000000000000000e+00 1701537140
-10.051024 0.237383 1.875481 0.000000000000000e+00 1701537140
-10.132380 0.480670 1.890661 0.000000000000000e+00 1701537140
-10.033003 0.713685 1.872118 0.000000000000000e+00 1851878480
-10.120220 0.960466 1.888392 0.000000000000000e+00 1851878480
-10.430976 1.240876 1.946378 0.000000000000000e+00 1851878480
-12.059990 1.724176 2.250345 0.000000000000000e+00 1634431585
-10.204081 -0.241135 1.935905 0.000000000000000e+00 1701537140
-10.054125 0.000000 1.907456 0.000000000000000e+00 1701537140
-10.046457 0.237410 1.906001 0.000000000000000e+00 1701537140
-10.094694 0.479154 1.915153 0.000000000000000e+00 1701537140
-10.038848 0.714506 1.904558 0.000000000000000e+00 1851878480
-10.127275 0.961681 1.921334 0.000000000000000e+00 1851878480
-10.423036 1.240635 1.977445 0.000000000000000e+00 1851878480
-11.956432 1.710341 2.268359 0.000000000000000e+00 1634431585
-10.168498 -0.240432 1.960945 0.000000000000000e+00 1701537140
-10.050078 0.000000 1.938108 0.000000000000000e+00 1701537140
-10.044506 0.237501 1.937034 0.000000000000000e+00 1701537140
-10.088335 0.479128 1.945486 0.000000000000000e+00 1701537140
-10.045986 0.715427 1.937319 0.000000000000000e+00 1851878480
-10.134715 0.962943 1.954430 0.000000000000000e+00 1851878480
-10.417015 1.240634 2.008870 0.000000000000000e+00 1851878480
-11.869767 1.698923 2.289026 0.000000000000000e+00 1634431585
-10.134402 -0.239767 1.986085 0.000000000000000e+00 1701537140
-10.051476 0.000000 1.969834 0.000000000000000e+00 1701537140
-10.069335 0.238227 1.973334 0.000000000000000e+00 1701537140
-10.085363 0.479268 1.976475 0.000000000000000e+00 1701537140
-10.357143 0.738019 2.029737 0.000000000000000e+00 1701537140
-10.142475 0.964245 1.987667 0.000000000000000e+00 1851878480
-10.413815 1.240980 2.040843 0.000000000000000e+00 1851878480
-11.788316 1.688254 2.310210 0.000000000000000e+00 1634431585
-10.109933 -0.239330 2.012971 0.000000000000000e+00 1701537140
-10.487609 0.000000 2.088170 0.000000000000000e+00 1701537140
-10.165368 0.240643 2.024009 0.000000000000000e+00 1701537140
-10.087607 0.479660 2.008526 0.000000000000000e+00 1701537140
-10.307843 0.734943 2.052377 0.000000000000000e+00 1701537140
-10.150667 0.965599 2.021082 0.000000000000000e+00 1851878480
-10.413504 1.241682 2.073415 0.000000000000000e+00 1851878480
-11.718033 1.679189 2.333157 0.000000000000000e+00 1634431585
-10.110515 -0.239489 2.044808 0.000000000000000e+00 1701537140
-10.505363 0.000000 2.124665 0.000000000000000e+00 1701537140
-10.158961 0.240637 2.054607 0.000000000000000e+00 1701537140
-10.113670 0.481191 2.045447 0.000000000000000e+00 1701537140
-10.266388 0.732431 2.076333 0.000000000000000e+00 1701537140
-10.158960 0.966973 2.054606 0.000000000000000e+00 1851878480
-10.415609 1.242685 2.106513 0.000000000000000e+00 1851878480
-11.662670 1.672268 2.358725 0.000000000000000e+00 1634431585
-10.110450 -0.239635 2.076555 0.000000000000000e+00 1701537140
-10.523270 0.000000 2.161343 0.000000000000000e+00 1701537140
-10.152443 0.240630 2.085180 0.000000000000000e+00 1701537140
-10.861334 0.517081 2.230777 0.000000000000000e+00 1701537140
-10.227777 0.730125 2.100652 0.000000000000000e+00 1701537140
-10.167472 0.968378 2.088267 0.000000000000000e+00 1851878480
-10.418769 1.243827 2.139880 0.000000000000000e+00 1851878480
-11.618647 1.666980 2.386319 0.000000000000000e+00 1634431585
-10.114926 -0.239890 2.109288 0.000000000000000e+00 1701537140
-10.541361 0.000000 2.198213 0.000000000000000e+00 1701537140
-10.151939 0.240768 2.117006 0.000000000000000e+00 1701537140
-10.564643 0.503270 2.203068 0.000000000000000e+00 1701537140
-10.201938 0.728735 2.127432 0.000000000000000e+00 1701537140
-10.176379 0.969832 2.122103 0.000000000000000e+00 1851878480
-10.423553 1.245175 2.173646 0.000000000000000e+00 1851878480
-11.576898 1.662027 2.414156 0.000000000000000e+00 1634431585
-10.134303 -0.240502 2.145243 0.000000000000000e+00 1701537140
-10.559683 0.000000 2.235288 0.000000000000000e+00 1701537140
-10.165215 0.241236 2.151786 0.000000000000000e+00 1701537140
-10.583411 0.504484 2.240311 0.000000000000000e+00 1701537140
-10.207155 0.729570 2.160664 0.000000000000000e+00 1701537140
-10.185596 0.971326 2.156101 0.000000000000000e+00 1851878480
-10.430833 1.246834 2.208013 0.000000000000000e+00 1851878480
-11.547986 1.658927 2.444493 0.000000000000000e+00 1634431585
-10.208658 -0.242423 2.193172 0.000000000000000e+00 1701537140
-10.283763 0.000000 2.209307 0.000000000000000e+00 1701537140
-10.187544 0.241921 2.188636 0.000000000000000e+00 1701537140
-10.602414 0.505715 2.277764 0.000000000000000e+00 1701537140
-10.212558 0.730426 2.194010 0.000000000000000e+00 1701537140
-10.195221 0.972869 2.190285 0.000000000000000e+00 1851878480
-10.441384 1.248899 2.243170 0.000000000000000e+00 1851878480
-11.520367 1.656024 2.474972 0.000000000000000e+00 1634431585
-10.868735 -0.258266 2.369289 0.000000000000000e+00 1701537140
-10.237372 0.000000 2.231658 0.000000000000000e+00 1701537140
-10.218735 0.242821 2.227595 0.000000000000000e+00 1701537140
-10.621656 0.506963 2.315428 0.000000000000000e+00 1701537140
-10.218868 0.731354 2.227624 0.000000000000000e+00 1701537140
-10.205620 0.974497 2.224736 0.000000000000000e+00 1851878480
-10.454415 1.251274 2.278971 0.000000000000000e+00 1851878480
-11.226026 1.614767 2.447175 0.000000000000000e+00 1851878480
-10.861797 -0.258272 2.402115 0.000000000000000e+00 1701537140
-10.220831 0.000000 2.260364 0.000000000000000e+00 1701537140
-10.362570 0.246401 2.291709 0.000000000000000e+00 1701537140
-10.306709 0.492257 2.279356 0.000000000000000e+00 1701537140
-10.228784 0.732549 2.262123 0.000000000000000e+00 1701537140
-10.217645 0.976291 2.259659 0.000000000000000e+00 1851878480
-10.468144 1.253747 2.315058 0.000000000000000e+00 1851878480
-11.218606 1.614769 2.481025 0.000000000000000e+00 1851878480
-10.837276 -0.257862 2.430999 0.000000000000000e+00 1701537140
-10.277285 0.000000 2.305382 0.000000000000000e+00 1701537140
-10.316179 0.245463 2.314107 0.000000000000000e+00 1701537140
-10.267974 0.490737 2.303294 0.000000000000000e+00 1701537140
-10.243499 0.734096 2.297804 0.000000000000000e+00 1701537140
-10.231592 0.978281 2.295133 0.000000000000000e+00 1851878480
-10.484634 1.256565 2.351895 0.000000000000000e+00 1851878480
-11.216076 1.615489 2.515971 0.000000000000000e+00 1851878480
-10.809735 -0.257382 2.459087 0.000000000000000e+00 1701537140
-10.274965 0.000000 2.337433 0.000000000000000e+00 1701537140
-10.285462 0.244899 2.339821 0.000000000000000e+00 1701537140
-10.260229 0.490701 2.334081 0.000000000000000e+00 1701537140
-10.261561 0.735891 2.334384 0.000000000000000e+00 1701537140
-10.246970 0.980419 2.331065 0.000000000000000e+00 1851878480
-10.504473 1.259801 2.389643 0.000000000000000e+00 1851878480
-11.215620 1.616524 2.551421 0.000000000000000e+00 1851878480
-10.781925 -0.256897 2.486985 0.000000000000000e+00 1701537140
-10.676889 0.000000 2.462757 0.000000000000000e+00 1701537140
-10.310371 0.245662 2.378215 0.000000000000000e+00 1701537140
-10.303402 0.493106 2.376608 0.000000000000000e+00 1701537140
-10.280865 0.737785 2.371409 0.000000000000000e+00 1701537140
-10.263692 0.982698 2.367448 0.000000000000000e+00 1851878480
-10.527759 1.263466 2.428358 0.000000000000000e+00 1851878480
-11.217202 1.617870 2.587387 0.000000000000000e+00 1851878480
-10.753839 -0.256408 2.514690 0.000000000000000e+00 1701537140
-10.432271 0.000000 2.439494 0.000000000000000e+00 1701537140
-10.334492 0.246409 2.416629 0.000000000000000e+00 1701537140
-10.303399 0.493451 2.409358 0.000000000000000e+00 1701537140
-10.300306 0.739698 2.408635 0.000000000000000e+00 1701537140
-10.281264 0.985070 2.404182 0.000000000000000e+00 1851878480
-10.554034 1.267507 2.467967 0.000000000000000e+00 1851878480
-11.220616 1.619496 2.623842 0.000000000000000e+00 1851878480
-10.725376 -0.255911 2.542174 0.000000000000000e+00 1701537140
-10.388644 0.000000 2.462361 0.000000000000000e+00 1701537140
-10.362190 0.247245 2.456091 0.000000000000000e+00 1701537140
-10.828669 0.518976 2.566658 0.000000000000000e+00 1701537140
-10.319222 0.741583 2.445906 0.000000000000000e+00 1701537140
-10.301598 0.987719 2.441729 0.000000000000000e+00 1851878480
-10.582604 1.271841 2.508334 0.000000000000000e+00 1851878480
-11.225887 1.621408 2.660808 0.000000000000000e+00 1851878480
-10.441291 -0.249312 2.508118 0.000000000000000e+00 1701537140
-10.359442 0.000000 2.488457 0.000000000000000e+00 1701537140
-10.364031 0.247467 2.489559 0.000000000000000e+00 1701537140
-10.799849 0.517967 2.594248 0.000000000000000e+00 1701537140
-10.337949 0.743464 2.483294 0.000000000000000e+00 1701537140
-10.324137 0.990593 2.479976 0.000000000000000e+00 1851878480
-10.611858 1.276275 2.549091 0.000000000000000e+00 1851878480
-11.232699 1.623560 2.698224 0.000000000000000e+00 1851878480
-10.397288 -0.248442 2.530740 0.000000000000000e+00 1701537140
-10.380152 0.000000 2.526569 0.000000000000000e+00 1701537140
-10.383623 0.248116 2.527414 0.000000000000000e+00 1701537140
-10.770857 0.516954 2.621668 0.000000000000000e+00 1701537140
-10.356782 0.745361 2.520880 0.000000000000000e+00 1701537140
-10.348421 0.993647 2.518846 0.000000000000000e+00 1851878480
-10.640937 1.280706 2.590045 0.000000000000000e+00 1851878480
-11.241082 1.625957 2.736123 0.000000000000000e+00 1851878480
-10.372624 -0.248036 2.557899 0.000000000000000e+00 1701537140
-10.874104 0.000000 2.681564 0.000000000000000e+00 1701537140
-10.897731 0.260593 2.687390 0.000000000000000e+00 1701537140
-10.477334 0.503238 2.583720 0.000000000000000e+00 1701537140
-10.378101 0.747448 2.559249 0.000000000000000e+00 1701537140
-10.375835 0.997016 2.558690 0.000000000000000e+00 1851878480
-10.669581 1.285103 2.631128 0.000000000000000e+00 1851878480
-11.250934 1.628585 2.774490 0.000000000000000e+00 1851878480
-10.459893 -0.250310 2.612909 0.000000000000000e+00 1701537140
-10.839677 0.000000 2.707780 0.000000000000000e+00 1701537140
-10.863753 0.259975 2.713795 0.000000000000000e+00 1701537140
-10.431823 0.501427 2.605897 0.000000000000000e+00 1701537140
-10.406778 0.750074 2.599641 0.000000000000000e+00 1701537140
-10.405628 1.000628 2.599354 0.000000000000000e+00 1851878480
-10.697379 1.289416 2.672234 0.000000000000000e+00 1851878480
-11.261681 1.631361 2.813198 0.000000000000000e+00 1851878480
-10.443904 -0.250117 2.642405 0.000000000000000e+00 1701537140
-10.805120 0.000000 2.733796 0.000000000000000e+00 1701537140
-10.829822 0.259359 2.740045 0.000000000000000e+00 1701537140
-10.418892 0.501185 2.636076 0.000000000000000e+00 1701537140
-10.448010 0.753617 2.643444 0.000000000000000e+00 1701537140
-10.436898 1.004396 2.640632 0.000000000000000e+00 1851878480
-10.724639 1.293682 2.713434 0.000000000000000e+00 1851878480
-11.273280 1.634280 2.852245 0.000000000000000e+00 1851878480
-10.455357 -0.250584 2.678880 0.000000000000000e+00 1701537140
-10.770521 0.000000 2.759632 0.000000000000000e+00 1701537140
-10.795743 0.258742 2.766094 0.000000000000000e+00 1701537140
-10.538336 0.507320 2.700141 0.000000000000000e+00 1701537140
-10.735373 0.774940 2.750626 0.000000000000000e+00 1851878480
-10.469125 1.008271 2.682408 0.000000000000000e+00 1851878480
-10.751225 1.297885 2.754688 0.000000000000000e+00 1851878480
-11.285022 1.637239 2.891458 0.000000000000000e+00 1851878480
-10.472834 -0.251198 2.717044 0.000000000000000e+00 1701537140
-10.735454 0.000000 2.785177 0.000000000000000e+00 1701537140
-10.761443 0.258120 2.791920 0.000000000000000e+00 1701537140
-10.515620 0.506621 2.728144 0.000000000000000e+00 1701537140
-10.697229 0.772787 2.775261 0.000000000000000e+00 1851878480
-10.501872 1.012212 2.724577 0.000000000000000e+00 1851878480
-10.778069 1.302138 2.796233 0.000000000000000e+00 1851878480
-11.296112 1.640123 2.930633 0.000000000000000e+00 1851878480
-10.443175 -0.250684 2.742987 0.000000000000000e+00 1701537140
-10.699962 0.000000 2.810434 0.000000000000000e+00 1701537140
-10.726933 0.257495 2.817518 0.000000000000000e+00 1701537140
-10.523726 0.507410 2.764145 0.000000000000000e+00 1701537140
-10.659634 0.770677 2.799841 0.000000000000000e+00 1851878480
-10.534762 1.016182 2.767043 0.000000000000000e+00 1851878480
-10.805114 1.306434 2.838053 0.000000000000000e+00 1851878480
-11.307101 1.643011 2.969905 0.000000000000000e+00 1851878480
-10.455228 -0.251173 2.779888 0.000000000000000e+00 1701537140
-10.618380 0.000000 2.823268 0.000000000000000e+00 1701537140
-10.651619 0.255891 2.832105 0.000000000000000e+00 1701537140
-10.753819 0.518918 2.859279 0.000000000000000e+00 1701537140
-10.622224 0.768585 2.824290 0.000000000000000e+00 1851878480
-10.566876 1.020092 2.809574 0.000000000000000e+00 1851878480
-10.832535 1.310793 2.880208 0.000000000000000e+00 1851878480
-11.319299 1.646095 3.009632 0.000000000000000e+00 1851878480
-10.494246 -0.252314 2.824178 0.000000000000000e+00 1701537140
-10.573772 0.000000 2.845579 0.000000000000000e+00 1701537140
-10.608089 0.255051 2.854815 0.000000000000000e+00 1701537140
-10.514178 0.507764 2.829542 0.000000000000000e+00 1701537140
-10.585919 0.766577 2.848849 0.000000000000000e+00 1851878480
-10.597962 1.023919 2.852090 0.000000000000000e+00 1851878480
-10.860492 1.315237 2.922740 0.000000000000000e+00 1851878480
-11.339664 1.650388 3.051694 0.000000000000000e+00 1851878480
-10.562761 0.000000 2.876809 0.000000000000000e+00 1701537140
-10.572760 0.254409 2.879531 0.000000000000000e+00 1701537140
-10.524911 0.508697 2.866500 0.000000000000000e+00 1701537140
-10.550994 0.764672 2.873604 0.000000000000000e+00 1851878480
-10.626820 1.027545 2.894255 0.000000000000000e+00 1851878480
-10.888699 1.319730 2.965579 0.000000000000000e+00 1851878480
-11.345035 1.652518 3.089864 0.000000000000000e+00 1851878480
-10.534969 0.000000 2.903398 0.000000000000000e+00 1701537140
-10.562604 0.254375 2.911014 0.000000000000000e+00 1701537140
-10.602218 0.512857 2.921932 0.000000000000000e+00 1701537140
-10.526039 0.763494 2.900937 0.000000000000000e+00 1851878480
-10.654303 1.031055 2.936286 0.000000000000000e+00 1851878480
-10.917838 1.324356 3.008915 0.000000000000000e+00 1851878480
-11.361330 1.656260 3.131140 0.000000000000000e+00 1851878480
-10.546178 0.000000 2.940739 0.000000000000000e+00 1701537140
-10.557013 0.254453 2.943760 0.000000000000000e+00 1701537140
-10.721887 0.519080 2.989734 0.000000000000000e+00 1851878480
-10.564856 0.766950 2.945947 0.000000000000000e+00 1851878480
-10.681344 1.034536 2.978429 0.000000000000000e+00 1851878480
-10.940340 1.328195 3.050648 0.000000000000000e+00 1851878480
-11.379502 1.660296 3.173106 0.000000000000000e+00 1851878480
-10.828517 0.000000 3.054695 0.000000000000000e+00 1851878480
-10.625013 0.256309 2.997287 0.000000000000000e+00 1701537140
-10.681400 0.517557 3.013194 0.000000000000000e+00 1851878480
-10.598728 0.770060 2.989872 0.000000000000000e+00 1851878480
-10.708115 1.038007 3.020730 0.000000000000000e+00 1851878480
-10.969448 1.332856 3.094451 0.000000000000000e+00 1851878480
-11.398937 1.664539 3.215609 0.000000000000000e+00 1851878480
-10.785437 0.000000 3.077689 0.000000000000000e+00 1851878480
-10.757257 0.259721 3.069649 0.000000000000000e+00 1851878480
-10.641712 0.516076 3.036677 0.000000000000000e+00 1851878480
-10.627000 0.772775 3.032479 0.000000000000000e+00 1851878480
-10.734743 1.041479 3.063224 0.000000000000000e+00 1851878480
-10.998865 1.337575 3.138592 0.000000000000000e+00 1851878480
-11.419374 1.668951 3.258587 0.000000000000000e+00 1851878480
-10.743587 0.000000 3.100813 0.000000000000000e+00 1851878480
-10.715851 0.258946 3.092808 0.000000000000000e+00 1851878480
-10.609051 0.514937 3.061983 0.000000000000000e+00 1851878480
-10.654668 0.775458 3.075150 0.000000000000000e+00 1851878480
-10.761402 1.044969 3.105955 0.000000000000000e+00 1851878480
-11.028464 1.342335 3.183035 0.000000000000000e+00 1851878480
-11.441002 1.673560 3.302101 0.000000000000000e+00 1851878480
-10.709193 0.000000 3.125906 0.000000000000000e+00 1851878480
-10.676864 0.258229 3.116470 0.000000000000000e+00 1851878480
-10.645044 0.517137 3.107182 0.000000000000000e+00 1851878480
-10.682078 0.778134 3.117992 0.000000000000000e+00 1851878480
-10.788351 1.048503 3.149012 0.000000000000000e+00 1851878480
-11.058364 1.347153 3.227826 0.000000000000000e+00 1851878480
-11.463343 1.678297 3.346035 0.000000000000000e+00 1851878480
-10.747791 0.000000 3.172381 0.000000000000000e+00 1851878480
-10.676291 0.258444 3.151277 0.000000000000000e+00 1851878480
-10.682162 0.519400 3.153010 0.000000000000000e+00 1851878480
-10.709258 0.780805 3.161007 0.000000000000000e+00 1851878480
-10.816006 1.052122 3.192515 0.000000000000000e+00 1851878480
-11.088465 1.352017 3.272936 0.000000000000000e+00 1851878480
-11.486728 1.683210 3.390490 0.000000000000000e+00 1851878480
-10.785444 0.000000 3.218889 0.000000000000000e+00 1851878480
-10.720868 0.259756 3.199617 0.000000000000000e+00 1851878480
-10.713468 0.521388 3.197408 0.000000000000000e+00 1851878480
-10.736177 0.783468 3.204186 0.000000000000000e+00 1851878480
-10.833797 1.054797 3.233320 0.000000000000000e+00 1851878480
-11.118818 1.356932 3.318384 0.000000000000000e+00 1851878480
-11.510963 1.688272 3.435419 0.000000000000000e+00 1851878480
-10.817771 0.000000 3.264101 0.000000000000000e+00 1851878480
-10.754165 0.260798 3.244910 0.000000000000000e+00 1851878480
-10.743141 0.523306 3.241583 0.000000000000000e+00 1851878480
-10.763041 0.786140 3.247588 0.000000000000000e+00 1851878480
-10.854989 1.057817 3.275332 0.000000000000000e+00 1851878480
-11.149492 1.361907 3.364194 0.000000000000000e+00 1851878480
-11.536141 1.693496 3.480859 0.000000000000000e+00 1851878480
-10.848371 0.000000 3.309065 0.000000000000000e+00 1851878480
-10.785387 0.261795 3.289853 0.000000000000000e+00 1851878480
-10.770864 0.525137 3.285423 0.000000000000000e+00 1851878480
-10.789939 0.788826 3.291241 0.000000000000000e+00 1851878480
-10.876313 1.060865 3.317588 0.000000000000000e+00 1851878480
-11.180365 1.366928 3.410332 0.000000000000000e+00 1851878480
-11.562003 1.698846 3.526743 0.000000000000000e+00 1851878480
-10.876968 0.000000 3.353678 0.000000000000000e+00 1851878480
-10.814543 0.262746 3.334431 0.000000000000000e+00 1851878480
-10.797606 0.526927 3.329208 0.000000000000000e+00 1851878480
-10.817639 0.791583 3.335386 0.000000000000000e+00 1851878480
-10.897730 1.063938 3.360080 0.000000000000000e+00 1851878480
-11.211509 1.372005 3.456826 0.000000000000000e+00 1851878480
-11.641022 1.712040 3.589257 0.000000000000000e+00 1851878480
-10.904673 0.000000 3.398263 0.000000000000000e+00 1851878480
-10.842169 0.263663 3.378785 0.000000000000000e+00 1851878480
-10.824210 0.528720 3.373189 0.000000000000000e+00 1851878480
-10.840342 0.793986 3.378216 0.000000000000000e+00 1851878480
-10.919257 1.067036 3.402808 0.000000000000000e+00 1851878480
-11.242991 1.377144 3.503695 0.000000000000000e+00 1851878480
-11.660518 1.716511 3.633810 0.000000000000000e+00 1851878480
-10.932754 0.000000 3.443224 0.000000000000000e+00 1851878480
-10.869782 0.264585 3.423391 0.000000000000000e+00 1851878480
-10.851243 0.530541 3.417552 0.000000000000000e+00 1851878480
-10.862554 0.796365 3.421114 0.000000000000000e+00 1851878480
-10.940918 1.070164 3.445795 0.000000000000000e+00 1851878480
-11.274649 1.382327 3.550902 0.000000000000000e+00 1851878480
-11.680052 1.721012 3.678582 0.000000000000000e+00 1851878480
-12.203979 2.102130 3.843591 0.000000000000000e+00 1851878480
-10.960725 0.000000 3.488404 0.000000000000000e+00 1851878480
-10.898101 0.265527 3.468473 0.000000000000000e+00 1851878480
-10.879501 0.532431 3.462554 0.000000000000000e+00 1851878480
-10.884557 0.798740 3.464162 0.000000000000000e+00 1851878480
-10.962687 1.073317 3.489029 0.000000000000000e+00 1851878480
-11.306686 1.387580 3.598511 0.000000000000000e+00 1851878480
-11.699595 1.725538 3.723560 0.000000000000000e+00 1851878480
-12.196840 2.102907 3.881815 0.000000000000000e+00 1851878480
-10.987355 0.000000 3.533409 0.000000000000000e+00 1851878480
-10.926160 0.266468 3.513730 0.000000000000000e+00 1851878480
-10.904928 0.534191 3.506902 0.000000000000000e+00 1851878480
-10.906610 0.801131 3.507442 0.000000000000000e+00 1851878480
-10.984582 1.076499 3.532518 0.000000000000000e+00 1851878480
-11.338982 1.392886 3.646488 0.000000000000000e+00 1851878480
-11.719202 1.730099 3.768763 0.000000000000000e+00 1851878480
-12.188313 2.103466 3.919624 0.000000000000000e+00 1851878480
-11.012183 0.000000 3.578077 0.000000000000000e+00 1851878480
-10.952135 0.267362 3.558566 0.000000000000000e+00 1851878480
-10.926196 0.535755 3.550138 0.000000000000000e+00 1851878480
-10.928862 0.803549 3.551004 0.000000000000000e+00 1851878480
-11.006616 1.079711 3.576268 0.000000000000000e+00 1851878480
-11.371488 1.398242 3.694822 0.000000000000000e+00 1851878480
-11.738997 1.734711 3.814233 0.000000000000000e+00 1851878480
-12.198571 2.107290 3.963558 0.000000000000000e+00 1851878480
-11.036174 0.000000 3.622707 0.000000000000000e+00 1851878480
-10.974997 0.268184 3.602625 0.000000000000000e+00 1851878480
-10.948730 0.537389 3.594003 0.000000000000000e+00 1851878480
-10.951299 0.805992 3.594846 0.000000000000000e+00 1851878480
-11.028771 1.082950 3.620278 0.000000000000000e+00 1851878480
-11.404359 1.403666 3.743567 0.000000000000000e+00 1851878480
-11.758956 1.739373 3.859966 0.000000000000000e+00 1851878480
-12.216570 2.112479 4.010181 0.000000000000000e+00 1851878480
-11.059856 0.000000 3.667469 0.000000000000000e+00 1851878480
-10.996160 0.268969 3.646347 0.000000000000000e+00 1851878480
-10.971518 0.539043 3.638175 0.000000000000000e+00 1851878480
-10.973876 0.808458 3.638958 0.000000000000000e+00 1851878480
-11.051059 1.086219 3.664551 0.000000000000000e+00 1851878480
-11.607031 1.430033 3.848913 0.000000000000000e+00 1851878480
-11.779345 1.744124 3.906052 0.000000000000000e+00 1851878480
-12.239411 2.118536 4.058611 0.000000000000000e+00 1851878480
-11.083689 0.000000 3.712507 0.000000000000000e+00 1851878480
-11.017129 0.269753 3.690213 0.000000000000000e+00 1851878480
-10.994543 0.540717 3.682647 0.000000000000000e+00 1851878480
-10.996594 0.810946 3.683335 0.000000000000000e+00 1851878480
-11.073484 1.089518 3.709089 0.000000000000000e+00 1851878480
-11.622902 1.433428 3.893118 0.000000000000000e+00 1851878480
-11.799587 1.748878 3.952299 0.000000000000000e+00 1851878480
-12.268876 2.125771 4.109488 0.000000000000000e+00 1851878480
-11.107724 0.000000 3.757855 0.000000000000000e+00 1851878480
-11.038488 0.270550 3.734432 0.000000000000000e+00 1851878480
-11.017736 0.542409 3.727411 0.000000000000000e+00 1851878480
-11.019484 0.813460 3.728002 0.000000000000000e+00 1851878480
-11.096085 1.092850 3.753917 0.000000000000000e+00 1851878480
-11.638358 1.436792 3.937374 0.000000000000000e+00 1851878480
-11.821059 1.753840 3.999184 0.000000000000000e+00 1851878480
-12.309511 2.134978 4.164432 0.000000000000000e+00 1851878480
-11.131900 0.000000 3.803489 0.000000000000000e+00 1851878480
-11.060157 0.271359 3.778975 0.000000000000000e+00 1851878480
-11.041059 0.544114 3.772450 0.000000000000000e+00 1851878480
-11.042498 0.815995 3.772942 0.000000000000000e+00 1851878480
-11.118823 1.096213 3.799020 0.000000000000000e+00 1851878480
-11.653807 1.440176 3.981811 0.000000000000000e+00 1851878480
-11.843224 1.758931 4.046530 0.000000000000000e+00 1851878480
-11.156232 0.000000 3.849416 0.000000000000000e+00 1851878480
-11.082125 0.272180 3.823846 0.000000000000000e+00 1851878480
-11.064592 0.545839 3.817796 0.000000000000000e+00 1851878480
-11.065656 0.818553 3.818164 0.000000000000000e+00 1851878480
-11.141717 1.099609 3.844408 0.000000000000000e+00 1851878480
-11.669256 1.443579 4.026433 0.000000000000000e+00 1851878480
-11.866113 1.764157 4.094358 0.000000000000000e+00 1851878480
-11.180770 0.000000 3.895658 0.000000000000000e+00 1851878480
-11.104403 0.273012 3.869050 0.000000000000000e+00 1851878480
-11.088300 0.547581 3.863439 0.000000000000000e+00 1851878480
-11.088993 0.821138 3.863681 0.000000000000000e+00 1851878480
-11.164738 1.103033 3.890072 0.000000000000000e+00 1851878480
-11.684615 1.446991 4.071211 0.000000000000000e+00 1851878480
-11.889700 1.769513 4.142667 0.000000000000000e+00 1851878480
-11.205458 0.000000 3.942199 0.000000000000000e+00 1851878480
-11.126920 0.273855 3.914568 0.000000000000000e+00 1851878480
-11.112143 0.549338 3.909369 0.000000000000000e+00 1851878480
-11.112454 0.823744 3.909479 0.000000000000000e+00 1851878480
-11.187855 1.106485 3.936006 0.000000000000000e+00 1851878480
-11.700177 1.450449 4.116246 0.000000000000000e+00 1851878480
-11.913723 1.774961 4.191374 0.000000000000000e+00 1851878480
-11.230354 0.000000 3.989061 0.000000000000000e+00 1851878480
-11.149682 0.274708 3.960406 0.000000000000000e+00 1851878480
-11.136156 0.551113 3.955602 0.000000000000000e+00 1851878480
-11.136069 0.826376 3.955570 0.000000000000000e+00 1851878480
-11.211132 1.109970 3.982233 0.000000000000000e+00 1851878480
-11.716284 1.453995 4.161664 0.000000000000000e+00 1851878480
-11.937901 1.780461 4.240384 0.000000000000000e+00 1851878480
-11.255476 0.000000 4.036249 0.000000000000000e+00 1851878480
-11.173048 0.275580 4.006690 0.000000000000000e+00 1851878480
-11.160357 0.552905 4.002139 0.000000000000000e+00 1851878480
-11.159864 0.829033 4.001962 0.000000000000000e+00 1851878480
-11.234584 1.113490 4.028756 0.000000000000000e+00 1851878480
-11.733886 1.457748 4.207808 0.000000000000000e+00 1851878480
-11.962299 1.786021 4.289718 0.000000000000000e+00 1851878480
-11.280747 0.000000 4.083751 0.000000000000000e+00 1851878480
-11.196674 0.276463 4.053315 0.000000000000000e+00 1851878480
-11.184697 0.554713 4.048979 0.000000000000000e+00 1851878480
-11.183789 0.831714 4.048651 0.000000000000000e+00 1851878480
-11.267864 1.118002 4.079087 0.000000000000000e+00 1851878480
-11.752820 1.461688 4.254646 0.000000000000000e+00 1851878480
-11.986954 1.791648 4.339405 0.000000000000000e+00 1851878480
-11.306196 0.000000 4.131574 0.000000000000000e+00 1851878480
-11.220730 0.277361 4.100342 0.000000000000000e+00 1851878480
-11.209210 0.556539 4.096133 0.000000000000000e+00 1851878480
-11.207873 0.834420 4.095644 0.000000000000000e+00 1851878480
-11.293009 1.121727 4.126755 0.000000000000000e+00 1851878480
-11.772675 1.465764 4.302037 0.000000000000000e+00 1851878480
-12.012012 1.797364 4.389497 0.000000000000000e+00 1851878480
-11.331878 0.000000 4.179742 0.000000000000000e+00 1851878480
-11.245384 0.278279 4.147839 0.000000000000000e+00 1851878480
-11.233911 0.558384 4.143607 0.000000000000000e+00 1851878480
-11.232141 0.837153 4.142954 0.000000000000000e+00 1851878480
-11.317983 1.125453 4.174617 0.000000000000000e+00 1851878480
-11.793142 1.469939 4.349879 0.000000000000000e+00 1851878480
-12.037377 1.803155 4.439964 0.000000000000000e+00 1851878480
-11.357724 0.000000 4.228234 0.000000000000000e+00 1851878480
-11.271252 0.279231 4.196043 0.000000000000000e+00 1851878480
-11.258750 0.560244 4.191388 0.000000000000000e+00 1851878480
-11.256652 0.839918 4.190607 0.000000000000000e+00 1851878480
-11.342350 1.129138 4.222511 0.000000000000000e+00 1851878480
-11.814202 1.474211 4.398171 0.000000000000000e+00 1851878480
-12.063250 1.809051 4.490886 0.000000000000000e+00 1851878480
-11.383808 0.000000 4.277081 0.000000000000000e+00 1851878480
-11.301241 0.280290 4.246059 0.000000000000000e+00 1851878480
-11.283749 0.562122 4.239487 0.000000000000000e+00 1851878480
-11.439331 0.854512 4.297942 0.000000000000000e+00 1851878480
-11.366570 1.132826 4.270604 0.000000000000000e+00 1851878480
-11.835884 1.478583 4.446933 0.000000000000000e+00 1851878480
-12.089545 1.815040 4.542237 0.000000000000000e+00 1851878480
-11.410106 0.000000 4.326276 0.000000000000000e+00 1851878480
-11.326606 0.281239 4.294616 0.000000000000000e+00 1851878480
-11.308933 0.564018 4.287916 0.000000000000000e+00 1851878480
-11.460749 0.857087 4.345479 0.000000000000000e+00 1851878480
-11.390914 1.136545 4.318999 0.000000000000000e+00 1851878480
-11.857892 1.483020 4.496059 0.000000000000000e+00 1851878480
-12.116333 1.821134 4.594050 0.000000000000000e+00 1851878480
-11.433820 0.000000 4.374749 0.000000000000000e+00 1851878480
-11.351619 0.282184 4.343297 0.000000000000000e+00 1851878480
-11.339124 0.566174 4.338517 0.000000000000000e+00 1851878480
-11.483682 0.859789 4.393826 0.000000000000000e+00 1851878480
-11.415497 1.140307 4.367738 0.000000000000000e+00 1851878480
-11.880481 1.487552 4.545648 0.000000000000000e+00 1851878480
-12.143924 1.827379 4.646445 0.000000000000000e+00 1851878480
-11.452438 0.000000 4.421515 0.000000000000000e+00 1851878480
-11.376638 0.283134 4.392251 0.000000000000000e+00 1851878480
-11.532308 0.576487 4.452351 0.000000000000000e+00 1851878480
-11.507091 0.862541 4.442615 0.000000000000000e+00 1851878480
-11.440303 1.144110 4.416830 0.000000000000000e+00 1851878480
-11.903657 1.492183 4.595720 0.000000000000000e+00 1851878480
-12.172233 1.833763 4.699410 0.000000000000000e+00 1851878480
-11.471477 0.000000 4.468667 0.000000000000000e+00 1851878480
-11.401951 0.284096 4.441584 0.000000000000000e+00 1851878480
-11.555533 0.578324 4.501410 0.000000000000000e+00 1851878480
-11.530300 0.865292 4.491581 0.000000000000000e+00 1851878480
-11.467200 1.148142 4.467001 0.000000000000000e+00 1851878480
-11.927588 1.496933 4.646344 0.000000000000000e+00 1851878480
-12.201263 1.840288 4.752953 0.000000000000000e+00 1851878480
-11.491438 0.000000 4.516407 0.000000000000000e+00 1851878480
-11.614077 0.289723 4.564607 0.000000000000000e+00 1851878480
-11.579123 0.580189 4.550870 0.000000000000000e+00 1851878480
-11.553020 0.868021 4.540610 0.000000000000000e+00 1851878480
-11.490139 1.151797 4.515897 0.000000000000000e+00 1851878480
-11.952304 1.501806 4.697538 0.000000000000000e+00 1851878480
-12.231135 1.846972 4.807126 0.000000000000000e+00 1851878480
-11.512965 0.000000 4.565002 0.000000000000000e+00 1851878480
-11.639981 0.290715 4.615366 0.000000000000000e+00 1851878480
-11.602443 0.582050 4.600481 0.000000000000000e+00 1851878480
-11.575198 0.870723 4.589678 0.000000000000000e+00 1851878480
-11.514771 1.155641 4.565718 0.000000000000000e+00 1851878480
-11.977877 1.506812 4.749345 0.000000000000000e+00 1851878480
-12.261816 1.853810 4.861928 0.000000000000000e+00 1851878480
-11.536805 0.000000 4.614769 0.000000000000000e+00 1851878480
-11.665150 0.291694 4.666107 0.000000000000000e+00 1851878480
-11.625257 0.583896 4.650150 0.000000000000000e+00 1851878480
-11.596898 0.873404 4.638806 0.000000000000000e+00 1851878480
-11.540761 1.159642 4.616351 0.000000000000000e+00 1851878480
-12.004370 1.511960 4.801796 0.000000000000000e+00 1851878480
-12.293101 1.860774 4.917290 0.000000000000000e+00 1851878480
-11.562829 0.000000 4.665680 0.000000000000000e+00 1851878480
-11.689178 0.292649 4.716663 0.000000000000000e+00 1851878480
-11.647526 0.585723 4.699856 0.000000000000000e+00 1851878480
-11.618427 0.876086 4.688115 0.000000000000000e+00 1851878480
-11.567603 1.163748 4.667607 0.000000000000000e+00 1851878480
-12.031798 1.517252 4.854913 0.000000000000000e+00 1851878480
-12.324740 1.867825 4.973117 0.000000000000000e+00 1851878480
-11.590516 0.000000 4.717551 0.000000000000000e+00 1851878480
-11.712151 0.293583 4.767058 0.000000000000000e+00 1851878480
-11.669414 0.587542 4.749664 0.000000000000000e+00 1851878480
-11.640062 0.878791 4.737717 0.000000000000000e+00 1851878480
-11.594902 1.167922 4.719336 0.000000000000000e+00 1851878480
-12.060158 1.522688 4.908704 0.000000000000000e+00 1851878480
-12.356419 1.874916 5.029287 0.000000000000000e+00 1851878480
-11.618329 0.000000 4.769761 0.000000000000000e+00 1851878480
-11.734621 0.294509 4.817502 0.000000000000000e+00 1851878480
-11.691201 0.589365 4.799677 0.000000000000000e+00 1851878480
-11.661808 0.881519 4.787611 0.000000000000000e+00 1851878480
-11.622589 1.172154 4.771510 0.000000000000000e+00 1851878480
-12.089495 1.528275 4.963192 0.000000000000000e+00 1851878480
-12.388013 1.882029 5.085745 0.000000000000000e+00 1851878480
-11.646016 0.000000 4.822223 0.000000000000000e+00 1851878480
-11.756977 0.295437 4.868168 0.000000000000000e+00 1851878480
-11.713082 0.591203 4.849992 0.000000000000000e+00 1851878480
-11.683849 0.884284 4.837888 0.000000000000000e+00 1851878480
-11.650533 1.176434 4.824093 0.000000000000000e+00 1851878480
-12.119805 1.534013 5.018403 0.000000000000000e+00 1851878480
-12.419143 1.889106 5.142349 0.000000000000000e+00 1851878480
-11.673553 0.000000 4.874920 0.000000000000000e+00 1851878480
-11.779460 0.296373 4.919147 0.000000000000000e+00 1851878480
-11.735202 0.593062 4.900665 0.000000000000000e+00 1851878480
-11.706144 0.887083 4.888530 0.000000000000000e+00 1851878480
-11.678829 1.180772 4.877123 0.000000000000000e+00 1851878480
-12.150901 1.539879 5.074263 0.000000000000000e+00 1851878480
-12.450034 1.896181 5.199182 0.000000000000000e+00 1851878480
-11.700740 0.000000 4.927770 0.000000000000000e+00 1851878480
-11.802109 0.297319 4.970461 0.000000000000000e+00 1851878480
-11.757541 0.594943 4.951691 0.000000000000000e+00 1851878480
-11.728756 0.889921 4.939569 0.000000000000000e+00 1851878480
-11.707473 1.185166 4.930605 0.000000000000000e+00 1851878480
-12.182597 1.545850 5.130704 0.000000000000000e+00 1851878480
-12.480643 1.903249 5.256227 0.000000000000000e+00 1851878480
-11.727914 0.000000 4.980912 0.000000000000000e+00 1851878480
-11.825174 0.298280 5.022219 0.000000000000000e+00 1851878480
-11.780295 0.596856 5.003159 0.000000000000000e+00 1851878480
-11.751693 0.892800 4.991011 0.000000000000000e+00 1851878480
-11.736389 1.189609 4.984511 0.000000000000000e+00 1851878480
-12.214767 1.551910 5.187681 0.000000000000000e+00 1851878480
-12.511146 1.910335 5.313555 0.000000000000000e+00 1851878480
-11.755421 0.000000 5.034497 0.000000000000000e+00 1851878480
-11.848510 0.299254 5.074365 0.000000000000000e+00 1851878480
-11.803308 0.598791 5.055006 0.000000000000000e+00 1851878480
-11.774900 0.895714 5.042840 0.000000000000000e+00 1851878480
-11.765558 1.194101 5.038840 0.000000000000000e+00 1851878480
-12.247289 1.558044 5.245150 0.000000000000000e+00 1851878480
-12.541808 1.917482 5.371284 0.000000000000000e+00 1851878480
-11.783170 0.000000 5.088492 0.000000000000000e+00 1851878480
-11.872194 0.300241 5.126937 0.000000000000000e+00 1851878480
-11.826670 0.600755 5.107277 0.000000000000000e+00 1851878480
-11.798502 0.898675 5.095113 0.000000000000000e+00 1851878480
-11.794982 1.198641 5.093593 0.000000000000000e+00 1851878480
-12.280005 1.564234 5.303048 0.000000000000000e+00 1851878480
-12.572150 1.924616 5.429209 0.000000000000000e+00 1851878480
-11.811219 0.000000 5.142920 0.000000000000000e+00 1851878480
-11.896266 0.301243 5.179951 0.000000000000000e+00 1851878480
-11.850372 0.602747 5.159967 0.000000000000000e+00 1851878480
-11.822360 0.901670 5.147771 0.000000000000000e+00 1851878480
-11.824639 1.203227 5.148763 0.000000000000000e+00 1851878480
-12.313142 1.570507 5.361470 0.000000000000000e+00 1851878480
-12.590563 1.929956 5.482266 0.000000000000000e+00 1851878480
-11.839834 0.000000 5.197914 0.000000000000000e+00 1851878480
-11.920637 0.302259 5.233388 0.000000000000000e+00 1851878480
-11.874403 0.604766 5.213090 0.000000000000000e+00 1851878480
-11.846659 0.904716 5.200911 0.000000000000000e+00 1851878480
-11.854444 1.207852 5.204328 0.000000000000000e+00 1851878480
-12.346928 1.576895 5.420538 0.000000000000000e+00 1851878480
-11.868858 0.000000 5.253409 0.000000000000000e+00 1851878480
-11.945528 0.303293 5.287344 0.000000000000000e+00 1851878480
-11.898867 0.606818 5.266692 0.000000000000000e+00 1851878480
-11.871239 0.907799 5.254463 0.000000000000000e+00 1851878480
-11.884462 1.212521 5.260316 0.000000000000000e+00 1851878480
-12.381498 1.583414 5.480315 0.000000000000000e+00 1851878480
-11.898390 0.000000 5.309454 0.000000000000000e+00 1851878480
-11.970675 0.304339 5.341710 0.000000000000000e+00 1851878480
-11.923635 0.608897 5.320719 0.000000000000000e+00 1851878480
-11.896297 0.910935 5.308520 0.000000000000000e+00 1851878480
-11.914639 1.217231 5.316705 0.000000000000000e+00 1851878480
-12.416700 1.590045 5.540741 0.000000000000000e+00 1851878480
-11.928479 0.000000 5.366079 0.000000000000000e+00 1851878480
-11.996482 0.305408 5.396670 0.000000000000000e+00 1851878480
-11.948938 0.611014 5.375282 0.000000000000000e+00 1851878480
-11.921679 0.914113 5.363020 0.000000000000000e+00 1851878480
-11.944880 1.221970 5.373456 0.000000000000000e+00 1851878480
-12.452011 1.596723 5.601593 0.000000000000000e+00 1851878480
-11.958913 0.000000 5.423196 0.000000000000000e+00 1851878480
-12.022565 0.306489 5.452061 0.000000000000000e+00 1851878480
-11.974537 0.613158 5.430281 0.000000000000000e+00 1851878480
-11.947651 0.917353 5.418089 0.000000000000000e+00 1851878480
-11.975424 1.226765 5.430683 0.000000000000000e+00 1851878480
-12.486835 1.603372 5.662601 0.000000000000000e+00 1851878480
-12.049275 0.307592 5.508049 0.000000000000000e+00 1851878480
-12.000776 0.615346 5.485878 0.000000000000000e+00 1851878480
-11.974075 0.920646 5.473672 0.000000000000000e+00 1851878480
-12.006160 1.231603 5.488338 0.000000000000000e+00 1851878480
-12.521077 1.609978 5.723722 0.000000000000000e+00 1851878480
-12.076349 0.308710 5.564511 0.000000000000000e+00 1851878480
-12.027304 0.617560 5.541912 0.000000000000000e+00 1851878480
-12.001257 0.924014 5.529911 0.000000000000000e+00 1851878480
-12.037186 1.236496 5.546466 0.000000000000000e+00 1851878480
-12.554840 1.616555 5.784989 0.000000000000000e+00 1851878480
-12.103975 0.309848 5.621559 0.000000000000000e+00 1851878480
-12.054690 0.619831 5.598670 0.000000000000000e+00 1851878480
-12.029046 0.927446 5.586759 0.000000000000000e+00 1851878480
-12.068597 1.241454 5.605127 0.000000000000000e+00 1851878480
-12.588399 1.623139 5.846544 0.000000000000000e+00 1851878480
-12.132094 0.311005 5.679164 0.000000000000000e+00 1851878480
-12.082454 0.622132 5.655926 0.000000000000000e+00 1851878480
-12.057970 0.930985 5.644465 0.000000000000000e+00 1851878480
-12.100370 1.246474 5.664314 0.000000000000000e+00 1851878480
-12.621729 1.629727 5.908367 0.000000000000000e+00 1851878480
-12.160670 0.312180 5.737317 0.000000000000000e+00 1851878480
-12.111203 0.624497 5.713979 0.000000000000000e+00 1851878480
-12.087579 0.934594 5.702833 0.000000000000000e+00 1851878480
-12.132819 1.251589 5.724177 0.000000000000000e+00 1851878480
-12.649481 1.635627 5.967935 0.000000000000000e+00 1851878480
-12.190044 0.313381 5.796189 0.000000000000000e+00 1851878480
-12.140715 0.626914 5.772733 0.000000000000000e+00 1851878480
-12.119279 0.938385 5.762541 0.000000000000000e+00 1851878480
-12.165648 1.256770 5.784588 0.000000000000000e+00 1851878480
-12.688622 1.643033 6.033255 0.000000000000000e+00 1851878480
-12.219721 0.314597 5.855551 0.000000000000000e+00 1851878480
-12.171194 0.629393 5.832297 0.000000000000000e+00 1851878480
-12.152011 0.942275 5.823105 0.000000000000000e+00 1851878480
-12.199461 1.262078 5.845843 0.000000000000000e+00 1851878480
-12.249501 0.315821 5.915315 0.000000000000000e+00 1851878480
-12.202526 0.631930 5.892631 0.000000000000000e+00 1851878480
-12.185923 0.946276 5.884613 0.000000000000000e+00 1851878480
-12.233869 1.267475 5.907766 0.000000000000000e+00 1851878480
-12.361133 1.605260 5.969222 0.000000000000000e+00 1768716611
-12.278849 0.317041 5.975215 0.000000000000000e+00 1851878480
-12.234007 0.634487 5.953394 0.000000000000000e+00 1851878480
-12.220551 0.950354 5.946846 0.000000000000000e+00 1851878480
-12.269041 1.272979 5.970443 0.000000000000000e+00 1851878480
-12.290352 1.598403 5.980813 0.000000000000000e+00 1768716611
-12.306794 0.318231 6.034789 0.000000000000000e+00 1851878480
-12.265197 0.637042 6.014390 0.000000000000000e+00 1851878480
-12.254760 0.954419 6.009274 0.000000000000000e+00 1851878480
-12.304821 1.278574 6.033821 0.000000000000000e+00 1851878480
-12.220064 1.591605 5.992260 0.000000000000000e+00 1768716611
-12.332875 0.319379 6.093786 0.000000000000000e+00 1851878480
