# .PCD v0.7 - Point Cloud Data file format
VERSION 0.7
FIELDS x y z rgb label
SIZE 4 4 4 4 4
TYPE F F F F U
COUNT 1 1 1 1 1
WIDTH 796
HEIGHT 1
VIEWPOINT 0 0 0 1 0 0 0
POINTS 796
DATA ascii
0.640571 2.166395 0.488045 0.000000000000000e+00 1851878480
0.618986 2.143055 0.606712 0.000000000000000e+00 1851878480
0.635489 2.144374 0.726024 0.000000000000000e+00 1851878480
0.576276 2.096266 0.849242 0.000000000000000e+00 1851878480
0.667571 2.184249 0.250235 0.000000000000000e+00 1851878480
0.703019 2.197896 0.370810 0.000000000000000e+00 1870292837
0.659795 2.160479 0.487415 0.000000000000000e+00 1851878480
0.638183 2.137037 0.605776 0.000000000000000e+00 1851878480
0.653024 2.137346 0.724827 0.000000000000000e+00 1851878480
0.592154 2.087900 0.847859 0.000000000000000e+00 1851878480
0.685425 2.177548 0.250089 0.000000000000000e+00 1851878480
0.691488 2.172184 0.368530 0.000000000000000e+00 1870292837
0.678926 2.154591 0.486786 0.000000000000000e+00 1851878480
0.657287 2.131047 0.604845 0.000000000000000e+00 1851878480
0.670426 2.130306 0.723636 0.000000000000000e+00 1851878480
0.607652 2.079342 0.846499 0.000000000000000e+00 1851878480
0.702617 2.170495 0.249887 0.000000000000000e+00 1851878480
0.680544 2.146687 0.366271 0.000000000000000e+00 1870292837
0.697176 2.148215 0.486131 0.000000000000000e+00 1851878480
0.676153 2.124990 0.603917 0.000000000000000e+00 1851878480
0.687638 2.123217 0.722454 0.000000000000000e+00 1851878480
0.622983 2.070733 0.845150 0.000000000000000e+00 1851878480
-0.570838 1.264134 1.055712 0.000000000000000e+00 1851878480
0.719455 2.163284 0.249656 0.000000000000000e+00 1851878480
0.672617 2.123016 0.364191 0.000000000000000e+00 1870292837
0.714933 2.141596 0.485463 0.000000000000000e+00 1851878480
0.694931 2.118965 0.602994 0.000000000000000e+00 1851878480
0.704502 2.115971 0.721282 0.000000000000000e+00 1851878480
0.638320 2.062186 0.843806 0.000000000000000e+00 1851878480
-0.211213 1.481741 1.028285 0.000000000000000e+00 1634431585
0.735652 2.155721 0.249370 0.000000000000000e+00 1851878480
0.796054 2.186593 0.370667 0.000000000000000e+00 1870292837
0.767497 2.158291 0.486094 0.000000000000000e+00 1851878480
0.713617 2.112967 0.602075 0.000000000000000e+00 1851878480
0.720892 2.108478 0.720124 0.000000000000000e+00 1851878480
0.653649 2.053691 0.842466 0.000000000000000e+00 1851878480
-0.120106 1.520782 1.021013 0.000000000000000e+00 1634431585
0.751109 2.147732 0.249017 0.000000000000000e+00 1851878480
0.785071 2.161162 0.368407 0.000000000000000e+00 1870292837
0.792664 2.156963 0.485724 0.000000000000000e+00 1851878480
0.732215 2.106998 0.601160 0.000000000000000e+00 1851878480
0.736716 2.100672 0.718981 0.000000000000000e+00 1851878480
0.668944 2.045231 0.841132 0.000000000000000e+00 1851878480
-0.058523 1.540433 1.015966 0.000000000000000e+00 1634431585
0.765859 2.139328 0.248601 0.000000000000000e+00 1851878480
0.806537 2.157432 0.368271 0.000000000000000e+00 1851878480
0.810770 2.151008 0.485096 0.000000000000000e+00 1851878480
0.750725 2.101057 0.600250 0.000000000000000e+00 1851878480
0.752116 2.092641 0.717849 0.000000000000000e+00 1851878480
0.683735 2.036485 0.839825 0.000000000000000e+00 1851878480
0.004452 1.561489 1.010828 0.000000000000000e+00 1634431585
0.780048 2.130603 0.248135 0.000000000000000e+00 1851878480
0.817438 2.146651 0.367442 0.000000000000000e+00 1851878480
0.822059 2.140499 0.484213 0.000000000000000e+00 1851878480
0.769145 2.095145 0.599344 0.000000000000000e+00 1851878480
0.767350 2.084558 0.716724 0.000000000000000e+00 1851878480
0.698029 2.027454 0.838545 0.000000000000000e+00 1851878480
0.050932 1.571641 1.006932 0.000000000000000e+00 1634431585
0.793620 2.121504 0.247611 0.000000000000000e+00 1851878480
0.827596 2.135382 0.366563 0.000000000000000e+00 1851878480
0.832455 2.129401 0.483297 0.000000000000000e+00 1851878480
0.787482 2.089260 0.598442 0.000000000000000e+00 1851878480
0.782608 2.076548 0.715603 0.000000000000000e+00 1851878480
0.712125 2.018332 0.837278 0.000000000000000e+00 1851878480
0.098327 1.582748 1.002979 0.000000000000000e+00 1634431585
0.807129 2.112406 0.247083 0.000000000000000e+00 1851878480
0.837500 2.123952 0.365666 0.000000000000000e+00 1851878480
0.842378 2.117995 0.482363 0.000000000000000e+00 1851878480
0.813624 2.088860 0.597629 0.000000000000000e+00 1851878480
0.798095 2.068756 0.714481 0.000000000000000e+00 1851878480
0.726045 2.009134 0.836023 0.000000000000000e+00 1851878480
0.146516 1.594741 0.998976 0.000000000000000e+00 1634431585
0.819640 2.102664 0.246460 0.000000000000000e+00 1851878480
0.847302 2.112465 0.364761 0.000000000000000e+00 1851878480
0.852005 2.106395 0.481416 0.000000000000000e+00 1851878480
0.847544 2.094029 0.596909 0.000000000000000e+00 1851878480
0.813876 2.061229 0.713358 0.000000000000000e+00 1851878480
0.739666 1.999771 0.834786 0.000000000000000e+00 1851878480
0.181422 1.597738 0.995971 0.000000000000000e+00 1634431585
0.830259 2.091644 0.245655 0.000000000000000e+00 1851878480
0.857070 2.100965 0.363853 0.000000000000000e+00 1851878480
0.861527 2.094730 0.480466 0.000000000000000e+00 1851878480
0.856741 2.082104 0.595927 0.000000000000000e+00 1851878480
0.829787 2.053858 0.712237 0.000000000000000e+00 1851878480
0.753017 1.990262 0.833564 0.000000000000000e+00 1851878480
0.216174 1.600849 0.992985 0.000000000000000e+00 1634431585
0.839938 2.079985 0.244758 0.000000000000000e+00 1851878480
0.866794 2.089444 0.362940 0.000000000000000e+00 1851878480
0.870976 2.083023 0.479511 0.000000000000000e+00 1851878480
0.865385 2.069793 0.594939 0.000000000000000e+00 1851878480
0.845556 2.046451 0.711122 0.000000000000000e+00 1851878480
0.766184 1.980661 0.832354 0.000000000000000e+00 1851878480
0.249003 1.602814 0.990150 0.000000000000000e+00 1634431585
0.849324 2.068129 0.243831 0.000000000000000e+00 1851878480
0.876347 2.077812 0.362015 0.000000000000000e+00 1851878480
0.880385 2.071295 0.478555 0.000000000000000e+00 1851878480
0.873860 2.057364 0.593948 0.000000000000000e+00 1851878480
0.856177 2.035442 0.710097 0.000000000000000e+00 1851878480
0.778994 1.970844 0.831164 0.000000000000000e+00 1851878480
0.282003 1.605108 0.987310 0.000000000000000e+00 1634431585
0.858589 2.056197 0.242890 0.000000000000000e+00 1851878480
0.885638 2.066006 0.361070 0.000000000000000e+00 1851878480
0.889673 2.059489 0.477594 0.000000000000000e+00 1851878480
0.882244 2.044868 0.592957 0.000000000000000e+00 1851878480
0.865526 2.023541 0.709095 0.000000000000000e+00 1851878480
0.791586 1.960909 0.829987 0.000000000000000e+00 1851878480
0.307912 1.602501 0.985001 0.000000000000000e+00 1634431585
0.867487 2.044005 0.241909 0.000000000000000e+00 1851878480
0.894643 2.053997 0.360103 0.000000000000000e+00 1851878480
0.898723 2.047517 0.476622 0.000000000000000e+00 1851878480
0.890569 2.032325 0.591964 0.000000000000000e+00 1851878480
0.874332 2.011251 0.708103 0.000000000000000e+00 1851878480
0.804060 1.950918 0.828818 0.000000000000000e+00 1851878480
0.332482 1.599064 0.982798 0.000000000000000e+00 1634431585
0.875896 2.031464 0.240877 0.000000000000000e+00 1851878480
0.903362 2.041785 0.359114 0.000000000000000e+00 1851878480
0.907482 2.035336 0.475637 0.000000000000000e+00 1851878480
0.898839 2.019737 0.590971 0.000000000000000e+00 1851878480
0.882245 1.998314 0.707126 0.000000000000000e+00 1851878480
0.816246 1.940749 0.827666 0.000000000000000e+00 1851878480
0.356686 1.595493 0.980628 0.000000000000000e+00 1634431585
0.883931 2.018649 0.239805 0.000000000000000e+00 1851878480
0.911866 2.029418 0.358108 0.000000000000000e+00 1851878480
0.915956 2.022948 0.474639 0.000000000000000e+00 1851878480
0.906956 2.007034 0.589975 0.000000000000000e+00 1851878480
0.889603 1.984961 0.706159 0.000000000000000e+00 1851878480
0.828010 1.930300 0.826535 0.000000000000000e+00 1851878480
0.375355 1.587984 0.978871 0.000000000000000e+00 1634431585
0.891643 2.005593 0.238697 0.000000000000000e+00 1851878480
0.920221 2.016938 0.357090 0.000000000000000e+00 1851878480
0.924245 2.010422 0.473632 0.000000000000000e+00 1851878480
0.914849 1.994159 0.588976 0.000000000000000e+00 1851878480
0.896726 1.971422 0.705196 0.000000000000000e+00 1851878480
0.839024 1.919323 0.825441 0.000000000000000e+00 1851878480
0.393673 1.580295 0.977146 0.000000000000000e+00 1634431585
0.898710 1.992054 0.237520 0.000000000000000e+00 1851878480
0.928430 2.004348 0.356058 0.000000000000000e+00 1851878480
0.932402 1.997794 0.472618 0.000000000000000e+00 1851878480
0.922469 1.981073 0.587972 0.000000000000000e+00 1851878480
0.903674 1.957736 0.704237 0.000000000000000e+00 1851878480
0.849741 1.908144 0.824363 0.000000000000000e+00 1851878480
0.411914 1.572626 0.975431 0.000000000000000e+00 1634431585
0.903271 1.976658 0.236087 0.000000000000000e+00 1851878480
0.936390 1.991568 0.355006 0.000000000000000e+00 1851878480
0.940404 1.985044 0.471596 0.000000000000000e+00 1851878480
0.929829 1.967782 0.586965 0.000000000000000e+00 1851878480
0.910577 1.943997 0.703277 0.000000000000000e+00 1851878480
0.860532 1.897034 0.823285 0.000000000000000e+00 1851878480
0.430104 1.564994 0.973725 0.000000000000000e+00 1634431585
0.907477 1.960960 0.234611 0.000000000000000e+00 1851878480
0.942496 1.977405 0.353818 0.000000000000000e+00 1851878480
0.948258 1.972179 0.470566 0.000000000000000e+00 1851878480
0.936974 1.954319 0.585953 0.000000000000000e+00 1851878480
0.917283 1.930095 0.702322 0.000000000000000e+00 1851878480
0.871113 1.885785 0.822218 0.000000000000000e+00 1851878480
0.449015 1.557984 0.971971 0.000000000000000e+00 1634431585
0.816939 1.874718 0.223542 0.000000000000000e+00 1701537140
0.947313 1.962252 0.352532 0.000000000000000e+00 1851878480
0.955724 1.959009 0.469518 0.000000000000000e+00 1851878480
0.943962 1.940718 0.584939 0.000000000000000e+00 1851878480
0.923772 1.916002 0.701369 0.000000000000000e+00 1851878480
0.877279 1.871208 0.821349 0.000000000000000e+00 1851878480
0.466466 1.549946 0.970329 0.000000000000000e+00 1634431585
0.843289 1.875063 0.224256 0.000000000000000e+00 1701537140
0.877785 1.891215 0.345840 0.000000000000000e+00 1701537140
0.961210 1.944333 0.468381 0.000000000000000e+00 1851878480
0.950825 1.927002 0.583921 0.000000000000000e+00 1851878480
0.929981 1.901673 0.700420 0.000000000000000e+00 1851878480
0.882332 1.855755 0.820530 0.000000000000000e+00 1851878480
0.560001 1.600035 0.963121 0.000000000000000e+00 1851878480
0.868612 1.874794 0.224878 0.000000000000000e+00 1701537140
0.900741 1.889341 0.345837 0.000000000000000e+00 1701537140
0.966126 1.929191 0.467216 0.000000000000000e+00 1851878480
0.957560 1.913167 0.582900 0.000000000000000e+00 1851878480
0.935938 1.887123 0.699475 0.000000000000000e+00 1851878480
0.887035 1.839994 0.819727 0.000000000000000e+00 1851878480
0.576596 1.591841 0.961557 0.000000000000000e+00 1851878480
0.756137 1.780259 0.089033 0.000000000000000e+00 1701537140
0.892105 1.873289 0.225324 0.000000000000000e+00 1701537140
0.922758 1.886883 0.345775 0.000000000000000e+00 1701537140
0.902336 1.861584 0.463014 0.000000000000000e+00 1701537140
0.964117 1.899173 0.581875 0.000000000000000e+00 1851878480
0.941520 1.872255 0.698535 0.000000000000000e+00 1851878480
0.891553 1.824046 0.818933 0.000000000000000e+00 1851878480
0.592287 1.583009 0.960063 0.000000000000000e+00 1851878480
-0.447147 0.766780 1.195411 0.000000000000000e+00 1851878480
0.791982 1.787621 0.091465 0.000000000000000e+00 1701537140
0.914380 1.870990 0.225656 0.000000000000000e+00 1701537140
0.944381 1.884244 0.345692 0.000000000000000e+00 1701537140
0.924267 1.859098 0.462574 0.000000000000000e+00 1701537140
0.969697 1.884402 0.580834 0.000000000000000e+00 1851878480
0.946812 1.857127 0.697598 0.000000000000000e+00 1851878480
0.895964 1.807969 0.818144 0.000000000000000e+00 1851878480
0.607383 1.573769 0.958618 0.000000000000000e+00 1851878480
-0.406147 0.772722 1.191150 0.000000000000000e+00 1851878480
0.822003 1.790776 0.093148 0.000000000000000e+00 1701537140
0.936019 1.868325 0.225930 0.000000000000000e+00 1701537140
0.955875 1.873923 0.344865 0.000000000000000e+00 1701537140
0.945806 1.856429 0.462124 0.000000000000000e+00 1701537140
0.974345 1.868873 0.579776 0.000000000000000e+00 1851878480
0.951811 1.841733 0.696665 0.000000000000000e+00 1851878480
0.900205 1.791710 0.817364 0.000000000000000e+00 1851878480
0.621849 1.564084 0.957223 0.000000000000000e+00 1851878480
-0.073710 1.007644 1.156999 0.000000000000000e+00 1634431585
0.849514 1.792192 0.094514 0.000000000000000e+00 1701537140
0.952400 1.861717 0.225667 0.000000000000000e+00 1701537140
0.964836 1.861660 0.343848 0.000000000000000e+00 1701537140
0.956235 1.845241 0.461179 0.000000000000000e+00 1701537140
0.887381 1.781858 0.577263 0.000000000000000e+00 1701537140
0.956566 1.826106 0.695734 0.000000000000000e+00 1851878480
0.904146 1.775165 0.816597 0.000000000000000e+00 1851878480
0.635869 1.554090 0.955864 0.000000000000000e+00 1851878480
0.016523 1.054433 1.147703 0.000000000000000e+00 1634431585
0.875073 1.792272 0.095634 0.000000000000000e+00 1701537140
0.960541 1.848773 0.224546 0.000000000000000e+00 1701537140
0.971381 1.847512 0.342647 0.000000000000000e+00 1701537140
0.964953 1.832727 0.460157 0.000000000000000e+00 1701537140
0.909432 1.779454 0.576455 0.000000000000000e+00 1701537140
0.961148 1.810301 0.694805 0.000000000000000e+00 1851878480
0.907874 1.758401 0.815840 0.000000000000000e+00 1851878480
0.649414 1.543759 0.954544 0.000000000000000e+00 1851878480
0.071370 1.073878 1.142042 0.000000000000000e+00 1634431585
0.898095 1.790525 0.096427 0.000000000000000e+00 1701537140
0.968663 1.835801 0.223418 0.000000000000000e+00 1701537140
0.948218 1.810024 0.339196 0.000000000000000e+00 1701537140
0.971340 1.818369 0.459025 0.000000000000000e+00 1701537140
0.930715 1.776561 0.575641 0.000000000000000e+00 1701537140
0.965588 1.794332 0.693876 0.000000000000000e+00 1851878480
0.911431 1.741441 0.815090 0.000000000000000e+00 1851878480
0.662325 1.532953 0.953274 0.000000000000000e+00 1851878480
0.127159 1.094496 1.136291 0.000000000000000e+00 1634431585
0.919625 1.787737 0.097028 0.000000000000000e+00 1701537140
0.971303 1.818501 0.221707 0.000000000000000e+00 1701537140
0.954141 1.795183 0.337926 0.000000000000000e+00 1701537140
0.949454 1.781589 0.456583 0.000000000000000e+00 1701537140
0.950215 1.772367 0.574804 0.000000000000000e+00 1701537140
0.969928 1.778235 0.692948 0.000000000000000e+00 1851878480
0.914875 1.724330 0.814346 0.000000000000000e+00 1851878480
0.674737 1.521773 0.952044 0.000000000000000e+00 1851878480
0.170727 1.105719 1.131798 0.000000000000000e+00 1634431585
0.940555 1.784593 0.097558 0.000000000000000e+00 1701537140
0.803584 1.666217 0.201918 0.000000000000000e+00 1701537140
0.960077 1.780315 0.336651 0.000000000000000e+00 1701537140
0.803949 1.645988 0.448352 0.000000000000000e+00 1701537140
0.956793 1.757941 0.573753 0.000000000000000e+00 1701537140
0.974088 1.761942 0.692020 0.000000000000000e+00 1851878480
0.918170 1.707038 0.813608 0.000000000000000e+00 1851878480
0.686258 1.509894 0.950883 0.000000000000000e+00 1851878480
0.208619 1.112666 1.127893 0.000000000000000e+00 1634431585
0.952933 1.774765 0.096930 0.000000000000000e+00 1701537140
0.914029 1.733852 0.211588 0.000000000000000e+00 1701537140
0.965784 1.765230 0.335354 0.000000000000000e+00 1701537140
0.804231 1.625754 0.446858 0.000000000000000e+00 1701537140
0.963953 1.743953 0.572710 0.000000000000000e+00 1701537140
0.977614 1.745084 0.691099 0.000000000000000e+00 1851878480
0.921326 1.689570 0.812877 0.000000000000000e+00 1851878480
0.696999 1.497395 0.949781 0.000000000000000e+00 1851878480
0.242372 1.116505 1.124418 0.000000000000000e+00 1634431585
0.958939 1.759872 0.095430 0.000000000000000e+00 1701537140
0.937941 1.733097 0.212093 0.000000000000000e+00 1701537140
0.969927 1.748847 0.333930 0.000000000000000e+00 1701537140
0.804469 1.605388 0.445354 0.000000000000000e+00 1701537140
0.969767 1.728851 0.571642 0.000000000000000e+00 1701537140
0.980721 1.727824 0.690182 0.000000000000000e+00 1851878480
0.924282 1.671872 0.812155 0.000000000000000e+00 1851878480
0.707003 1.484297 0.948737 0.000000000000000e+00 1851878480
0.275121 1.119744 1.121051 0.000000000000000e+00 1634431585
0.964860 1.744874 0.093909 0.000000000000000e+00 1701537140
0.958372 1.729674 0.212233 0.000000000000000e+00 1701537140
0.965175 1.725212 0.331807 0.000000000000000e+00 1701537140
0.804645 1.584875 0.443839 0.000000000000000e+00 1701537140
0.971456 1.710351 0.570498 0.000000000000000e+00 1701537140
0.983740 1.710428 0.689264 0.000000000000000e+00 1851878480
0.927066 1.653965 0.811439 0.000000000000000e+00 1851878480
0.716298 1.470613 0.947747 0.000000000000000e+00 1851878480
0.306757 1.122280 1.117803 0.000000000000000e+00 1634431585
0.969762 1.729016 0.092239 0.000000000000000e+00 1701537140
0.969453 1.718770 0.211372 0.000000000000000e+00 1701537140
0.955372 1.697322 0.329275 0.000000000000000e+00 1701537140
0.804751 1.564208 0.442312 0.000000000000000e+00 1701537140
0.967771 1.687370 0.569252 0.000000000000000e+00 1701537140
0.986690 1.692910 0.688345 0.000000000000000e+00 1851878480
0.929673 1.635843 0.810732 0.000000000000000e+00 1851878480
0.724855 1.456309 0.946814 0.000000000000000e+00 1851878480
0.337707 1.124453 1.114631 0.000000000000000e+00 1634431585
0.971645 1.710649 0.090140 0.000000000000000e+00 1701537140
0.944861 1.678739 0.206633 0.000000000000000e+00 1701537140
0.898789 1.630907 0.323043 0.000000000000000e+00 1701537140
0.804772 1.543365 0.440772 0.000000000000000e+00 1701537140
0.949454 1.652189 0.567727 0.000000000000000e+00 1701537140
0.741001 1.469730 0.690295 0.000000000000000e+00 1851878480
0.932067 1.617467 0.810033 0.000000000000000e+00 1851878480
0.732772 1.441451 0.945931 0.000000000000000e+00 1851878480
0.363690 1.122676 1.111974 0.000000000000000e+00 1634431585
0.970754 1.689930 0.087641 0.000000000000000e+00 1701537140
0.960911 1.671762 0.206290 0.000000000000000e+00 1701537140
0.923605 1.630920 0.323188 0.000000000000000e+00 1701537140
0.909862 1.609299 0.444355 0.000000000000000e+00 1701537140
0.946386 1.629370 0.566472 0.000000000000000e+00 1701537140
0.760704 1.464744 0.689127 0.000000000000000e+00 1851878480
0.934191 1.598789 0.809346 0.000000000000000e+00 1851878480
0.739857 1.425870 0.945110 0.000000000000000e+00 1851878480
0.386887 1.118707 1.109607 0.000000000000000e+00 1634431585
0.968174 1.667710 0.084888 0.000000000000000e+00 1701537140
0.966288 1.656022 0.204781 0.000000000000000e+00 1701537140
0.946822 1.629757 0.323218 0.000000000000000e+00 1701537140
0.934388 1.609171 0.444043 0.000000000000000e+00 1701537140
0.938066 1.602035 0.565108 0.000000000000000e+00 1701537140
0.780661 1.460065 0.687960 0.000000000000000e+00 1851878480
0.936169 1.579907 0.808664 0.000000000000000e+00 1851878480
0.746360 1.409763 0.944334 0.000000000000000e+00 1851878480
0.409944 1.114740 1.107259 0.000000000000000e+00 1634431585
0.949453 1.631978 0.079850 0.000000000000000e+00 1701537140
0.803876 1.500644 0.184772 0.000000000000000e+00 1701537140
0.955854 1.616891 0.322121 0.000000000000000e+00 1701537140
0.954976 1.605892 0.443545 0.000000000000000e+00 1701537140
0.950555 1.591984 0.564137 0.000000000000000e+00 1701537140
0.800775 1.455615 0.686798 0.000000000000000e+00 1851878480
0.937733 1.560591 0.807999 0.000000000000000e+00 1851878480
0.752181 1.393035 0.943611 0.000000000000000e+00 1851878480
0.429946 1.108296 1.105229 0.000000000000000e+00 1634431585
0.949454 1.611574 0.077412 0.000000000000000e+00 1701537140
0.803624 1.479240 0.182533 0.000000000000000e+00 1701537140
0.949644 1.591216 0.319796 0.000000000000000e+00 1701537140
0.947897 1.579421 0.441672 0.000000000000000e+00 1701537140
0.954064 1.574371 0.562990 0.000000000000000e+00 1701537140
0.820572 1.450996 0.685644 0.000000000000000e+00 1851878480
0.937677 1.539809 0.807401 0.000000000000000e+00 1851878480
0.757435 1.375774 0.942930 0.000000000000000e+00 1851878480
0.448927 1.101066 1.103309 0.000000000000000e+00 1634431585
0.949454 1.591067 0.074958 0.000000000000000e+00 1701537140
0.803324 1.457686 0.180274 0.000000000000000e+00 1701537140
0.958821 1.578373 0.318698 0.000000000000000e+00 1701537140
0.803716 1.436596 0.432880 0.000000000000000e+00 1701537140
0.834615 1.452182 0.559381 0.000000000000000e+00 1701537140
0.840729 1.446779 0.684492 0.000000000000000e+00 1851878480
0.937208 1.518569 0.806820 0.000000000000000e+00 1851878480
0.762114 1.357962 0.942294 0.000000000000000e+00 1851878480
0.467830 1.093847 1.101403 0.000000000000000e+00 1634431585
0.949454 1.570459 0.072487 0.000000000000000e+00 1701537140
0.918253 1.533664 0.190884 0.000000000000000e+00 1701537140
0.958822 1.557722 0.316851 0.000000000000000e+00 1701537140
0.803347 1.414780 0.431266 0.000000000000000e+00 1701537140
0.850626 1.444485 0.558442 0.000000000000000e+00 1701537140
0.860845 1.442629 0.683346 0.000000000000000e+00 1851878480
0.936402 1.496927 0.806251 0.000000000000000e+00 1851878480
0.766363 1.339720 0.941691 0.000000000000000e+00 1851878480
0.486465 1.086476 1.099528 0.000000000000000e+00 1634431585
0.949455 1.549741 0.069998 0.000000000000000e+00 1701537140
0.942802 1.533667 0.191449 0.000000000000000e+00 1701537140
0.950307 1.529680 0.314294 0.000000000000000e+00 1701537140
0.914544 1.488544 0.435346 0.000000000000000e+00 1701537140
0.897513 1.463407 0.558143 0.000000000000000e+00 1701537140
0.880739 1.438385 0.682207 0.000000000000000e+00 1851878480
0.934953 1.474611 0.805707 0.000000000000000e+00 1851878480
0.770073 1.320937 0.941130 0.000000000000000e+00 1851878480
0.578621 1.143201 1.090116 0.000000000000000e+00 1851878480
0.949453 1.528916 0.067492 0.000000000000000e+00 1701537140
0.960730 1.528140 0.191279 0.000000000000000e+00 1701537140
0.955068 1.512864 0.312811 0.000000000000000e+00 1701537140
0.939278 1.488742 0.435049 0.000000000000000e+00 1701537140
0.920053 1.461635 0.557358 0.000000000000000e+00 1701537140
0.900672 1.434273 0.681074 0.000000000000000e+00 1851878480
0.932927 1.451666 0.805185 0.000000000000000e+00 1851878480
0.773269 1.301630 0.940607 0.000000000000000e+00 1851878480
0.585840 1.126362 1.089422 0.000000000000000e+00 1851878480
0.965857 1.522096 0.067333 0.000000000000000e+00 1701537140
0.951243 1.499032 0.188003 0.000000000000000e+00 1701537140
0.920146 1.461637 0.308034 0.000000000000000e+00 1701537140
0.958684 1.484465 0.434485 0.000000000000000e+00 1701537140
0.941727 1.459235 0.556561 0.000000000000000e+00 1701537140
0.920524 1.430188 0.679947 0.000000000000000e+00 1851878480
0.930470 1.428210 0.804679 0.000000000000000e+00 1851878480
0.776006 1.281836 0.940120 0.000000000000000e+00 1851878480
0.592119 1.108650 1.088829 0.000000000000000e+00 1851878480
0.969368 1.504180 0.065311 0.000000000000000e+00 1701537140
0.964750 1.489680 0.187323 0.000000000000000e+00 1701537140
0.934780 1.453091 0.307339 0.000000000000000e+00 1701537140
0.939476 1.446550 0.431908 0.000000000000000e+00 1701537140
0.949453 1.444732 0.555471 0.000000000000000e+00 1701537140
0.939795 1.425691 0.678830 0.000000000000000e+00 1851878480
0.927749 1.404383 0.804182 0.000000000000000e+00 1851878480
0.778301 1.261563 0.939667 0.000000000000000e+00 1851878480
0.597996 1.090525 1.088282 0.000000000000000e+00 1851878480
0.971245 1.484768 0.063038 0.000000000000000e+00 1701537140
0.837451 1.357355 0.170512 0.000000000000000e+00 1701537140
0.944455 1.440242 0.306230 0.000000000000000e+00 1701537140
0.958971 1.442334 0.431346 0.000000000000000e+00 1701537140
0.949454 1.423389 0.554210 0.000000000000000e+00 1701537140
0.958815 1.421065 0.677721 0.000000000000000e+00 1851878480
0.924899 1.380298 0.803689 0.000000000000000e+00 1851878480
0.780158 1.240807 0.939248 0.000000000000000e+00 1851878480
0.603696 1.072181 1.087759 0.000000000000000e+00 1851878480
0.971216 1.463593 0.060471 0.000000000000000e+00 1701537140
0.857727 1.353266 0.170532 0.000000000000000e+00 1701537140
0.952422 1.425879 0.304974 0.000000000000000e+00 1701537140
0.970198 1.430904 0.430350 0.000000000000000e+00 1701537140
0.963877 1.414724 0.553262 0.000000000000000e+00 1701537140
0.975800 1.414719 0.676635 0.000000000000000e+00 1851878480
0.922047 1.356067 0.803194 0.000000000000000e+00 1851878480
0.781633 1.219609 0.938858 0.000000000000000e+00 1851878480
0.609311 1.053697 1.087250 0.000000000000000e+00 1851878480
0.963878 1.435867 0.056813 0.000000000000000e+00 1701537140
0.878262 1.349510 0.170590 0.000000000000000e+00 1701537140
0.957893 1.409275 0.303502 0.000000000000000e+00 1701537140
0.866870 1.317572 0.423226 0.000000000000000e+00 1701537140
0.970014 1.398708 0.552130 0.000000000000000e+00 1701537140
0.986084 1.402447 0.675611 0.000000000000000e+00 1851878480
0.919299 1.331784 0.802693 0.000000000000000e+00 1851878480
0.782800 1.198032 0.938492 0.000000000000000e+00 1851878480
0.614810 1.035046 1.086757 0.000000000000000e+00 1851878480
0.950277 1.402388 0.052204 0.000000000000000e+00 1701537140
0.918468 1.363355 0.172942 0.000000000000000e+00 1701537140
0.963419 1.392661 0.302027 0.000000000000000e+00 1701537140
0.904799 1.329433 0.423622 0.000000000000000e+00 1701537140
0.971559 1.378517 0.550891 0.000000000000000e+00 1701537140
0.982184 1.377396 0.674706 0.000000000000000e+00 1851878480
0.916718 1.307501 0.802183 0.000000000000000e+00 1851878480
0.783655 1.176058 0.938151 0.000000000000000e+00 1851878480
0.620150 1.016177 1.086286 0.000000000000000e+00 1851878480
0.942094 1.362677 0.173387 0.000000000000000e+00 1701537140
0.966749 1.374019 0.300357 0.000000000000000e+00 1701537140
0.929053 1.329273 0.423296 0.000000000000000e+00 1701537140
0.962448 1.348602 0.549399 0.000000000000000e+00 1701537140
0.977920 1.351856 0.673797 0.000000000000000e+00 1851878480
0.914431 1.283337 0.801660 0.000000000000000e+00 1851878480
0.783855 1.153374 0.937858 0.000000000000000e+00 1851878480
0.625323 0.997087 1.085838 0.000000000000000e+00 1851878480
0.949454 1.347489 0.171933 0.000000000000000e+00 1701537140
0.957598 1.344024 0.297601 0.000000000000000e+00 1701537140
0.949454 1.325768 0.422770 0.000000000000000e+00 1701537140
0.880927 1.252675 0.546195 0.000000000000000e+00 1851878480
0.973188 1.325724 0.672887 0.000000000000000e+00 1851878480
0.912488 1.259342 0.801122 0.000000000000000e+00 1851878480
0.784827 1.131273 0.937513 0.000000000000000e+00 1851878480
0.630338 0.977777 1.085410 0.000000000000000e+00 1851878480
0.968556 1.342902 0.171858 0.000000000000000e+00 1701537140
0.946416 1.311963 0.294647 0.000000000000000e+00 1701537140
0.959044 1.312513 0.421654 0.000000000000000e+00 1701537140
0.904577 1.251871 0.545433 0.000000000000000e+00 1851878480
0.968291 1.299268 0.671971 0.000000000000000e+00 1851878480
0.910827 1.235461 0.800571 0.000000000000000e+00 1851878480
0.784608 1.107958 0.937254 0.000000000000000e+00 1851878480
0.635216 0.958264 1.085003 0.000000000000000e+00 1851878480
0.971294 1.323488 0.169848 0.000000000000000e+00 1701537140
0.885295 1.234003 0.287314 0.000000000000000e+00 1701537140
0.970517 1.300970 0.420640 0.000000000000000e+00 1701537140
0.928056 1.251047 0.544675 0.000000000000000e+00 1851878480
0.964589 1.273738 0.671040 0.000000000000000e+00 1851878480
0.909396 1.211651 0.800009 0.000000000000000e+00 1851878480
0.784047 1.084195 0.937022 0.000000000000000e+00 1851878480
0.639972 0.938558 1.084613 0.000000000000000e+00 1851878480
0.844880 1.185549 0.152432 0.000000000000000e+00 1851878480
0.970021 1.289388 0.292696 0.000000000000000e+00 1701537140
0.964388 1.273193 0.418640 0.000000000000000e+00 1701537140
0.950878 1.249753 0.543909 0.000000000000000e+00 1851878480
0.961778 1.248872 0.670096 0.000000000000000e+00 1851878480
0.908045 1.187773 0.799443 0.000000000000000e+00 1851878480
0.783046 1.059884 0.936822 0.000000000000000e+00 1851878480
0.644660 0.918707 1.084235 0.000000000000000e+00 1851878480
0.869277 1.185216 0.152913 0.000000000000000e+00 1851878480
0.964262 1.261862 0.290169 0.000000000000000e+00 1701537140
0.904617 1.195439 0.413601 0.000000000000000e+00 1851878480
0.972606 1.247572 0.543123 0.000000000000000e+00 1851878480
0.959336 1.224193 0.669145 0.000000000000000e+00 1851878480
0.906755 1.163811 0.798872 0.000000000000000e+00 1851878480
0.781860 1.035258 0.936638 0.000000000000000e+00 1851878480
0.649211 0.898643 1.083877 0.000000000000000e+00 1851878480
0.893087 1.184487 0.153336 0.000000000000000e+00 1851878480
0.898181 1.177995 0.282273 0.000000000000000e+00 1851878480
0.928395 1.194904 0.413246 0.000000000000000e+00 1851878480
0.978702 1.230873 0.541952 0.000000000000000e+00 1851878480
0.956919 1.199387 0.668187 0.000000000000000e+00 1851878480
0.905388 1.139637 0.798303 0.000000000000000e+00 1851878480
0.780555 1.010376 0.936465 0.000000000000000e+00 1851878480
0.653236 0.877999 1.083578 0.000000000000000e+00 1851878480
0.916027 1.183082 0.153664 0.000000000000000e+00 1851878480
0.921800 1.177263 0.282297 0.000000000000000e+00 1851878480
0.951654 1.194018 0.412871 0.000000000000000e+00 1851878480
0.970738 1.200866 0.540420 0.000000000000000e+00 1851878480
0.954521 1.174441 0.667224 0.000000000000000e+00 1851878480
0.903710 1.115019 0.797745 0.000000000000000e+00 1851878480
0.779093 0.985192 0.936304 0.000000000000000e+00 1851878480
0.655880 0.855940 1.083427 0.000000000000000e+00 1851878480
0.926495 1.170089 0.152487 0.000000000000000e+00 1851878480
0.944458 1.175765 0.282245 0.000000000000000e+00 1851878480
0.972946 1.191407 0.412392 0.000000000000000e+00 1851878480
0.967155 1.174791 0.538988 0.000000000000000e+00 1851878480
0.952182 1.149392 0.666256 0.000000000000000e+00 1851878480
0.905259 1.093327 0.797061 0.000000000000000e+00 1851878480
0.777485 0.959714 0.936156 0.000000000000000e+00 1851878480
0.659338 0.834551 1.083198 0.000000000000000e+00 1851878480
0.916572 1.137813 0.148813 0.000000000000000e+00 1851878480
0.952550 1.160587 0.280888 0.000000000000000e+00 1851878480
0.969739 1.165617 0.410497 0.000000000000000e+00 1851878480
0.964116 1.149066 0.537560 0.000000000000000e+00 1851878480
0.949855 1.124199 0.665281 0.000000000000000e+00 1851878480
0.905752 1.070507 0.796416 0.000000000000000e+00 1851878480
0.775780 0.933987 0.936016 0.000000000000000e+00 1851878480
0.660433 0.810780 1.083217 0.000000000000000e+00 1851878480
0.911513 1.109917 0.145706 0.000000000000000e+00 1851878480
0.943271 1.128804 0.277949 0.000000000000000e+00 1851878480
0.962816 1.136105 0.408371 0.000000000000000e+00 1851878480
0.961514 1.123593 0.536134 0.000000000000000e+00 1851878480
0.947613 1.098928 0.664300 0.000000000000000e+00 1851878480
0.906259 1.047571 0.795770 0.000000000000000e+00 1851878480
0.773938 0.907969 0.935888 0.000000000000000e+00 1851878480
0.661049 0.786413 1.083292 0.000000000000000e+00 1851878480
0.938519 1.101125 0.275398 0.000000000000000e+00 1851878480
0.958628 1.109012 0.406388 0.000000000000000e+00 1851878480
0.959312 1.098342 0.534709 0.000000000000000e+00 1851878480
0.945404 1.073528 0.663314 0.000000000000000e+00 1851878480
0.906771 1.024510 0.795123 0.000000000000000e+00 1851878480
0.772042 0.881735 0.935766 0.000000000000000e+00 1851878480
0.661254 0.761505 1.083415 0.000000000000000e+00 1851878480
0.934591 1.074051 0.272903 0.000000000000000e+00 1851878480
0.955160 1.082434 0.404434 0.000000000000000e+00 1851878480
0.957518 1.073326 0.533285 0.000000000000000e+00 1851878480
0.943929 1.048681 0.662317 0.000000000000000e+00 1851878480
0.907306 1.001338 0.794474 0.000000000000000e+00 1851878480
0.770091 0.855281 0.935650 0.000000000000000e+00 1851878480
0.644623 0.719911 1.085278 0.000000000000000e+00 1851878480
0.931452 1.047565 0.270462 0.000000000000000e+00 1851878480
0.952613 1.056578 0.402520 0.000000000000000e+00 1851878480
0.955988 1.048416 0.531860 0.000000000000000e+00 1851878480
0.945035 1.026212 0.661303 0.000000000000000e+00 1851878480
0.907860 0.978056 0.793822 0.000000000000000e+00 1851878480
0.768008 0.828534 0.935545 0.000000000000000e+00 1851878480
0.646097 0.695870 1.085282 0.000000000000000e+00 1851878480
0.929005 1.021577 0.268067 0.000000000000000e+00 1851878480
0.950524 1.031001 0.400621 0.000000000000000e+00 1851878480
0.954615 1.023499 0.530429 0.000000000000000e+00 1851878480
0.945228 1.002713 0.660289 0.000000000000000e+00 1851878480
0.908416 0.954638 0.793170 0.000000000000000e+00 1851878480
0.765936 0.801622 0.935441 0.000000000000000e+00 1851878480
0.647677 0.671796 1.085282 0.000000000000000e+00 1851878480
0.926655 0.995515 0.265663 0.000000000000000e+00 1851878480
0.948561 1.005383 0.398715 0.000000000000000e+00 1851878480
0.952915 0.998102 0.528980 0.000000000000000e+00 1851878480
0.945439 0.979093 0.659270 0.000000000000000e+00 1851878480
0.908970 0.931081 0.792517 0.000000000000000e+00 1851878480
0.763770 0.774443 0.935346 0.000000000000000e+00 1851878480
0.649262 0.647593 1.085287 0.000000000000000e+00 1851878480
0.924145 0.969126 0.263226 0.000000000000000e+00 1851878480
0.946500 0.979505 0.396789 0.000000000000000e+00 1851878480
0.952039 0.973363 0.527545 0.000000000000000e+00 1851878480
0.945708 0.955390 0.658246 0.000000000000000e+00 1851878480
0.909530 0.907393 0.791862 0.000000000000000e+00 1851878480
0.761528 0.747011 0.935258 0.000000000000000e+00 1851878480
0.650914 0.623321 1.085291 0.000000000000000e+00 1851878480
0.921970 0.942897 0.260802 0.000000000000000e+00 1851878480
0.944318 0.953336 0.394842 0.000000000000000e+00 1851878480
0.952183 0.949490 0.526130 0.000000000000000e+00 1851878480
0.945972 0.931541 0.657217 0.000000000000000e+00 1851878480
0.910092 0.883567 0.791205 0.000000000000000e+00 1851878480
0.759247 0.719361 0.935175 0.000000000000000e+00 1851878480
0.652567 0.598913 1.085302 0.000000000000000e+00 1851878480
0.920553 0.917255 0.258432 0.000000000000000e+00 1851878480
0.941671 0.926530 0.392852 0.000000000000000e+00 1851878480
0.952034 0.925179 0.524698 0.000000000000000e+00 1851878480
0.946253 0.907567 0.656183 0.000000000000000e+00 1851878480
0.910649 0.859594 0.790548 0.000000000000000e+00 1851878480
0.709001 0.642815 0.938450 0.000000000000000e+00 1851878480
0.654169 0.574314 1.085323 0.000000000000000e+00 1851878480
0.919807 0.892125 0.256109 0.000000000000000e+00 1851878480
0.941356 0.901899 0.390994 0.000000000000000e+00 1851878480
0.951793 0.900626 0.523255 0.000000000000000e+00 1851878480
0.946548 0.883461 0.655144 0.000000000000000e+00 1851878480
0.911213 0.835486 0.789889 0.000000000000000e+00 1851878480
0.712137 0.620038 0.937990 0.000000000000000e+00 1851878480
0.655700 0.549502 1.085358 0.000000000000000e+00 1851878480
0.919443 0.867227 0.253806 0.000000000000000e+00 1851878480
0.942117 0.878214 0.389190 0.000000000000000e+00 1851878480
0.951539 0.875911 0.521803 0.000000000000000e+00 1851878480
0.946835 0.859206 0.654100 0.000000000000000e+00 1851878480
0.911777 0.811237 0.789229 0.000000000000000e+00 1851878480
0.715301 0.597175 0.937530 0.000000000000000e+00 1851878480
0.659120 0.526498 1.085204 0.000000000000000e+00 1851878480
0.919123 0.842215 0.251490 0.000000000000000e+00 1851878480
0.942321 0.853814 0.387339 0.000000000000000e+00 1851878480
0.951282 0.851037 0.520341 0.000000000000000e+00 1851878480
0.947113 0.834790 0.653051 0.000000000000000e+00 1851878480
0.912328 0.786824 0.788568 0.000000000000000e+00 1851878480
0.718494 0.574215 0.937071 0.000000000000000e+00 1851878480
0.658746 0.499432 1.085449 0.000000000000000e+00 1851878480
0.918738 0.816981 0.249151 0.000000000000000e+00 1851878480
0.942396 0.829132 0.385467 0.000000000000000e+00 1851878480
0.951024 0.826004 0.518870 0.000000000000000e+00 1851878480
0.947401 0.810234 0.651997 0.000000000000000e+00 1851878480
0.912880 0.762262 0.787906 0.000000000000000e+00 1851878480
0.721715 0.551160 0.936613 0.000000000000000e+00 1851878480
0.659919 0.473809 1.085540 0.000000000000000e+00 1851878480
0.918326 0.791560 0.246791 0.000000000000000e+00 1851878480
0.942403 0.804226 0.383578 0.000000000000000e+00 1851878480
0.950763 0.800812 0.517389 0.000000000000000e+00 1851878480
0.947688 0.785525 0.650938 0.000000000000000e+00 1851878480
0.913446 0.737566 0.787242 0.000000000000000e+00 1851878480
0.725010 0.528056 0.936153 0.000000000000000e+00 1851878480
0.660953 0.447886 1.085652 0.000000000000000e+00 1851878480
0.917864 0.765925 0.244410 0.000000000000000e+00 1851878480
0.942381 0.779134 0.381675 0.000000000000000e+00 1851878480
0.950507 0.775464 0.515899 0.000000000000000e+00 1851878480
0.947962 0.760650 0.649873 0.000000000000000e+00 1851878480
0.914002 0.712706 0.786576 0.000000000000000e+00 1851878480
0.728293 0.504815 0.935696 0.000000000000000e+00 1851878480
0.661846 0.421657 1.085785 0.000000000000000e+00 1851878480
0.917411 0.740134 0.242011 0.000000000000000e+00 1851878480
0.942320 0.753843 0.379755 0.000000000000000e+00 1851878480
0.950245 0.749949 0.514400 0.000000000000000e+00 1851878480
0.948242 0.735624 0.648804 0.000000000000000e+00 1851878480
0.914573 0.687709 0.785909 0.000000000000000e+00 1851878480
0.731615 0.481487 0.935239 0.000000000000000e+00 1851878480
0.662678 0.395201 1.085932 0.000000000000000e+00 1851878480
0.916928 0.714147 0.239592 0.000000000000000e+00 1851878480
0.942233 0.728364 0.377820 0.000000000000000e+00 1851878480
0.949983 0.724271 0.512891 0.000000000000000e+00 1851878480
0.948523 0.710442 0.647728 0.000000000000000e+00 1851878480
0.915173 0.662587 0.785240 0.000000000000000e+00 1851878480
0.734921 0.458013 0.934787 0.000000000000000e+00 1851878480
0.663489 0.368560 1.086087 0.000000000000000e+00 1851878480
0.916378 0.687925 0.237148 0.000000000000000e+00 1851878480
0.942122 0.702700 0.375870 0.000000000000000e+00 1851878480
0.949724 0.698433 0.511372 0.000000000000000e+00 1851878480
0.948800 0.685101 0.646648 0.000000000000000e+00 1851878480
0.915707 0.637241 0.784571 0.000000000000000e+00 1851878480
0.737835 0.433993 0.934364 0.000000000000000e+00 1851878480
0.664299 0.341755 1.086249 0.000000000000000e+00 1851878480
0.915805 0.661503 0.234683 0.000000000000000e+00 1851878480
0.941989 0.676844 0.373905 0.000000000000000e+00 1851878480
0.949462 0.672422 0.509843 0.000000000000000e+00 1851878480
0.949076 0.659593 0.645561 0.000000000000000e+00 1851878480
0.913793 0.609097 0.783987 0.000000000000000e+00 1851878480
0.740399 0.409453 0.933968 0.000000000000000e+00 1851878480
0.665101 0.314767 1.086418 0.000000000000000e+00 1851878480
0.915209 0.634883 0.232197 0.000000000000000e+00 1851878480
0.941846 0.650809 0.371925 0.000000000000000e+00 1851878480
0.949197 0.646236 0.508304 0.000000000000000e+00 1851878480
0.949316 0.633882 0.644469 0.000000000000000e+00 1851878480
0.913558 0.582577 0.783342 0.000000000000000e+00 1851878480
0.742667 0.384447 0.933596 0.000000000000000e+00 1851878480
0.665908 0.287616 1.086594 0.000000000000000e+00 1851878480
0.914570 0.608039 0.229688 0.000000000000000e+00 1851878480
0.941690 0.624589 0.369930 0.000000000000000e+00 1851878480
0.948934 0.619881 0.506755 0.000000000000000e+00 1851878480
0.949530 0.607978 0.643371 0.000000000000000e+00 1851878480
0.913326 0.555883 0.782695 0.000000000000000e+00 1851878480
0.744718 0.359056 0.933242 0.000000000000000e+00 1851878480
0.666698 0.260272 1.086779 0.000000000000000e+00 1851878480
0.913915 0.581000 0.227158 0.000000000000000e+00 1851878480
0.941518 0.598180 0.367919 0.000000000000000e+00 1851878480
0.948670 0.593351 0.505196 0.000000000000000e+00 1851878480
0.949736 0.581895 0.642268 0.000000000000000e+00 1851878480
0.913152 0.529077 0.782044 0.000000000000000e+00 1851878480
0.746757 0.333496 0.932891 0.000000000000000e+00 1851878480
0.667431 0.232689 1.086977 0.000000000000000e+00 1851878480
0.913244 0.553762 0.224606 0.000000000000000e+00 1851878480
0.941338 0.571589 0.365893 0.000000000000000e+00 1851878480
0.948405 0.566644 0.503626 0.000000000000000e+00 1851878480
0.898934 0.499606 0.641152 0.000000000000000e+00 1851878480
0.913516 0.502687 0.781372 0.000000000000000e+00 1851878480
0.748584 0.307545 0.932558 0.000000000000000e+00 1851878480
0.668093 0.204850 1.087189 0.000000000000000e+00 1851878480
0.912519 0.526281 0.222029 0.000000000000000e+00 1851878480
0.941150 0.544811 0.363852 0.000000000000000e+00 1851878480
0.948142 0.539760 0.502046 0.000000000000000e+00 1851878480
0.900700 0.474563 0.640023 0.000000000000000e+00 1851878480
0.913901 0.476145 0.780698 0.000000000000000e+00 1851878480
0.750420 0.281441 0.932227 0.000000000000000e+00 1851878480
0.668654 0.176717 1.087419 0.000000000000000e+00 1851878480
0.911786 0.498607 0.219432 0.000000000000000e+00 1851878480
0.940958 0.517853 0.361796 0.000000000000000e+00 1851878480
0.947879 0.512699 0.500455 0.000000000000000e+00 1851878480
0.901699 0.448517 0.638888 0.000000000000000e+00 1851878480
0.914298 0.449446 0.780022 0.000000000000000e+00 1851878480
0.752140 0.255049 0.931906 0.000000000000000e+00 1851878480
0.669101 0.148274 1.087668 0.000000000000000e+00 1851878480
0.911024 0.470709 0.216811 0.000000000000000e+00 1851878480
0.940768 0.490712 0.359725 0.000000000000000e+00 1851878480
0.885852 0.416555 0.496649 0.000000000000000e+00 1851878480
0.902281 0.421830 0.637747 0.000000000000000e+00 1851878480
0.914698 0.422570 0.779344 0.000000000000000e+00 1851878480
0.753757 0.228370 0.931596 0.000000000000000e+00 1851878480
0.669393 0.119463 1.087941 0.000000000000000e+00 1851878480
0.911514 0.444015 0.214301 0.000000000000000e+00 1851878480
0.940576 0.463385 0.357638 0.000000000000000e+00 1851878480
0.886969 0.390252 0.495061 0.000000000000000e+00 1851878480
0.902792 0.394886 0.636600 0.000000000000000e+00 1851878480
0.915152 0.395575 0.778663 0.000000000000000e+00 1851878480
0.755212 0.201336 0.931300 0.000000000000000e+00 1851878480
0.669536 0.090288 1.088237 0.000000000000000e+00 1851878480
0.913005 0.418267 0.211879 0.000000000000000e+00 1851878480
0.940385 0.435872 0.355536 0.000000000000000e+00 1851878480
0.887690 0.363329 0.493449 0.000000000000000e+00 1851878480
0.903425 0.367901 0.635447 0.000000000000000e+00 1851878480
0.915640 0.368436 0.777978 0.000000000000000e+00 1851878480
0.756580 0.174025 0.931012 0.000000000000000e+00 1851878480
0.669512 0.060724 1.088558 0.000000000000000e+00 1851878480
0.914233 0.392056 0.209411 0.000000000000000e+00 1851878480
0.872251 0.331212 0.348534 0.000000000000000e+00 1851878480
0.888328 0.336133 0.491823 0.000000000000000e+00 1851878480
0.904240 0.340941 0.634287 0.000000000000000e+00 1851878480
0.916455 0.341489 0.777281 0.000000000000000e+00 1851878480
0.757715 0.146270 0.930743 0.000000000000000e+00 1851878480
0.669294 0.030734 1.088907 0.000000000000000e+00 1851878480
0.915222 0.365401 0.206898 0.000000000000000e+00 1851878480
0.872560 0.303421 0.346400 0.000000000000000e+00 1851878480
0.889123 0.308933 0.490192 0.000000000000000e+00 1851878480
0.905275 0.314053 0.633123 0.000000000000000e+00 1851878480
0.916966 0.314011 0.776592 0.000000000000000e+00 1851878480
0.758642 0.118090 0.930492 0.000000000000000e+00 1851878480
0.668893 0.000324 1.089282 0.000000000000000e+00 1851878480
0.915865 0.338172 0.204328 0.000000000000000e+00 1851878480
0.873042 0.275637 0.344263 0.000000000000000e+00 1851878480
0.890151 0.281816 0.488559 0.000000000000000e+00 1851878480
0.906523 0.287231 0.631952 0.000000000000000e+00 1851878480
0.917084 0.285890 0.775915 0.000000000000000e+00 1851878480
0.759344 0.089459 0.930259 0.000000000000000e+00 1851878480
0.668366 -0.030449 1.089679 0.000000000000000e+00 1851878480
0.916173 0.310373 0.201701 0.000000000000000e+00 1851878480
0.873828 0.248014 0.342133 0.000000000000000e+00 1851878480
0.891427 0.254806 0.486925 0.000000000000000e+00 1851878480
0.907850 0.260322 0.630776 0.000000000000000e+00 1851878480
0.917075 0.257426 0.775239 0.000000000000000e+00 1851878480
0.759830 0.060378 0.930044 0.000000000000000e+00 1851878480
0.667797 -0.061488 1.090089 0.000000000000000e+00 1851878480
0.916244 0.282113 0.199028 0.000000000000000e+00 1851878480
0.874957 0.220606 0.340013 0.000000000000000e+00 1851878480
0.892902 0.227849 0.485288 0.000000000000000e+00 1851878480
0.909204 0.233267 0.629593 0.000000000000000e+00 1851878480
0.916998 0.228687 0.774564 0.000000000000000e+00 1851878480
0.760108 0.030857 0.929846 0.000000000000000e+00 1851878480
0.667260 -0.092707 1.090503 0.000000000000000e+00 1851878480
0.916147 0.253454 0.196315 0.000000000000000e+00 1851878480
0.876279 0.193232 0.337890 0.000000000000000e+00 1851878480
0.894477 0.200824 0.483644 0.000000000000000e+00 1851878480
0.910643 0.206124 0.628405 0.000000000000000e+00 1851878480
0.916862 0.199672 0.773888 0.000000000000000e+00 1851878480
0.760160 0.000858 0.929666 0.000000000000000e+00 1851878480
0.666791 -0.124075 1.090918 0.000000000000000e+00 1851878480
0.916058 0.224602 0.193581 0.000000000000000e+00 1851878480
0.877694 0.165782 0.335760 0.000000000000000e+00 1851878480
0.896073 0.173643 0.481990 0.000000000000000e+00 1851878480
0.911982 0.178681 0.627209 0.000000000000000e+00 1851878480
0.916681 0.170395 0.773212 0.000000000000000e+00 1851878480
0.759970 -0.029643 0.929506 0.000000000000000e+00 1851878480
0.666553 -0.155394 1.091318 0.000000000000000e+00 1851878480
0.915912 0.195477 0.190818 0.000000000000000e+00 1851878480
0.879121 0.138158 0.333614 0.000000000000000e+00 1851878480
0.897656 0.146262 0.480324 0.000000000000000e+00 1851878480
0.913336 0.151066 0.626008 0.000000000000000e+00 1851878480
0.916477 0.140881 0.772534 0.000000000000000e+00 1851878480
0.759615 -0.060561 0.929359 0.000000000000000e+00 1851878480
0.666472 -0.186752 1.091709 0.000000000000000e+00 1851878480
0.915724 0.166093 0.188028 0.000000000000000e+00 1851878480
0.880530 0.110325 0.331452 0.000000000000000e+00 1851878480
0.899222 0.118673 0.478647 0.000000000000000e+00 1851878480
0.914644 0.123207 0.624799 0.000000000000000e+00 1851878480
0.916234 0.111105 0.771855 0.000000000000000e+00 1851878480
0.759146 -0.091841 0.929224 0.000000000000000e+00 1851878480
0.666480 -0.218228 1.092099 0.000000000000000e+00 1851878480
0.915550 0.136514 0.185217 0.000000000000000e+00 1851878480
0.881885 0.082235 0.329269 0.000000000000000e+00 1851878480
0.900709 0.090800 0.476955 0.000000000000000e+00 1851878480
0.915904 0.095097 0.623584 0.000000000000000e+00 1851878480
0.915970 0.081088 0.771175 0.000000000000000e+00 1851878480
0.758601 -0.123443 0.929097 0.000000000000000e+00 1851878480
0.666573 -0.249831 1.092489 0.000000000000000e+00 1851878480
0.915315 0.106646 0.182376 0.000000000000000e+00 1851878480
0.883214 0.053917 0.327068 0.000000000000000e+00 1851878480
0.902177 0.062710 0.475251 0.000000000000000e+00 1851878480
0.917151 0.066774 0.622362 0.000000000000000e+00 1851878480
0.915711 0.050855 0.770491 0.000000000000000e+00 1851878480
0.758031 -0.155309 0.928975 0.000000000000000e+00 1851878480
0.666744 -0.281570 1.092880 0.000000000000000e+00 1851878480
0.915051 0.076529 0.179508 0.000000000000000e+00 1851878480
0.884449 0.025292 0.324843 0.000000000000000e+00 1851878480
0.903560 0.034325 0.473533 0.000000000000000e+00 1851878480
0.918341 0.038185 0.621133 0.000000000000000e+00 1851878480
0.915430 0.020379 0.769807 0.000000000000000e+00 1851878480
0.757472 -0.187395 0.928854 0.000000000000000e+00 1851878480
0.666991 -0.313440 1.093271 0.000000000000000e+00 1851878480
0.914681 0.046056 0.176604 0.000000000000000e+00 1851878480
0.885662 -0.003566 0.322599 0.000000000000000e+00 1851878480
0.904916 0.005702 0.471801 0.000000000000000e+00 1851878480
0.919498 0.009348 0.619897 0.000000000000000e+00 1851878480
0.915167 -0.010308 0.769118 0.000000000000000e+00 1851878480
0.756858 -0.219793 0.928741 0.000000000000000e+00 1851878480
0.667340 -0.345426 1.093660 0.000000000000000e+00 1851878480
0.914279 0.015317 0.173671 0.000000000000000e+00 1851878480
0.886785 -0.032742 0.320330 0.000000000000000e+00 1851878480
0.906193 -0.023221 0.470053 0.000000000000000e+00 1851878480
0.920612 -0.019749 0.618653 0.000000000000000e+00 1851878480
0.914922 -0.041202 0.768427 0.000000000000000e+00 1851878480
0.756143 -0.252562 0.928637 0.000000000000000e+00 1851878480
0.671702 -0.372655 1.093634 0.000000000000000e+00 1851878480
0.913757 -0.015801 0.170700 0.000000000000000e+00 1851878480
