# .PCD v0.7 - Point Cloud Data file format
VERSION 0.7
FIELDS x y z rgb label
SIZE 4 4 4 4 4
TYPE F F F F U
COUNT 1 1 1 1 1
WIDTH 783
HEIGHT 1
VIEWPOINT 0 0 0 1 0 0 0
POINTS 783
DATA ascii
0.935910 -0.436095 0.341338 0.000000000000000e+00 1851878480
0.888916 -0.382145 0.431449 0.000000000000000e+00 1851878480
0.908128 -0.407250 0.526895 0.000000000000000e+00 1851878480
0.920925 -0.424670 0.620697 0.000000000000000e+00 1851878480
0.945809 -0.456469 0.713137 0.000000000000000e+00 1851878480
0.924227 -0.432913 0.807458 0.000000000000000e+00 1851878480
1.061701 -0.598642 0.886762 0.000000000000000e+00 1768716611
0.765213 -0.248131 1.015649 0.000000000000000e+00 1851878480
0.587084 -0.038783 1.146689 0.000000000000000e+00 1851878480
0.905369 -0.395204 0.147103 0.000000000000000e+00 1851878480
0.886990 -0.394358 0.241470 0.000000000000000e+00 1851878480
0.935534 -0.454224 0.342185 0.000000000000000e+00 1851878480
0.889498 -0.401766 0.432063 0.000000000000000e+00 1851878480
0.906770 -0.424444 0.527064 0.000000000000000e+00 1851878480
0.925401 -0.448698 0.620629 0.000000000000000e+00 1851878480
0.942069 -0.470595 0.712807 0.000000000000000e+00 1851878480
0.913058 -0.438420 0.807401 0.000000000000000e+00 1851878480
1.056077 -0.609728 0.886277 0.000000000000000e+00 1768716611
0.790029 -0.297368 1.010737 0.000000000000000e+00 1851878480
0.591373 -0.065067 1.143932 0.000000000000000e+00 1851878480
0.903617 -0.411893 0.148346 0.000000000000000e+00 1851878480
0.874795 -0.398734 0.240839 0.000000000000000e+00 1851878480
0.927166 -0.462793 0.342090 0.000000000000000e+00 1851878480
0.884703 -0.414900 0.432238 0.000000000000000e+00 1851878480
0.902898 -0.438558 0.527117 0.000000000000000e+00 1851878480
0.927398 -0.469607 0.620539 0.000000000000000e+00 1851878480
0.953134 -0.502069 0.712069 0.000000000000000e+00 1851878480
0.923876 -0.469815 0.805940 0.000000000000000e+00 1851878480
1.042232 -0.611105 0.886614 0.000000000000000e+00 1768716611
0.797602 -0.325847 1.008204 0.000000000000000e+00 1851878480
0.594403 -0.089658 1.141414 0.000000000000000e+00 1851878480
0.903515 -0.430422 0.149886 0.000000000000000e+00 1851878480
0.873445 -0.415887 0.241855 0.000000000000000e+00 1851878480
0.930892 -0.485542 0.343394 0.000000000000000e+00 1851878480
0.884838 -0.433751 0.432801 0.000000000000000e+00 1851878480
0.898365 -0.451823 0.527137 0.000000000000000e+00 1851878480
0.925475 -0.485768 0.620415 0.000000000000000e+00 1851878480
0.949399 -0.515940 0.711743 0.000000000000000e+00 1851878480
0.925428 -0.490092 0.805078 0.000000000000000e+00 1851878480
1.046769 -0.634031 0.885122 0.000000000000000e+00 1768716611
0.781653 -0.326622 1.008868 0.000000000000000e+00 1851878480
0.614067 -0.133462 1.136067 0.000000000000000e+00 1851878480
0.923258 -0.472143 0.155156 0.000000000000000e+00 1851878480
0.882427 -0.444987 0.244427 0.000000000000000e+00 1851878480
0.950061 -0.526120 0.346472 0.000000000000000e+00 1851878480
0.890240 -0.458608 0.433775 0.000000000000000e+00 1851878480
0.895246 -0.466668 0.527215 0.000000000000000e+00 1851878480
0.915925 -0.492953 0.620226 0.000000000000000e+00 1851878480
0.952447 -0.537623 0.711231 0.000000000000000e+00 1851878480
0.933772 -0.518109 0.803793 0.000000000000000e+00 1851878480
1.033948 -0.636614 0.885357 0.000000000000000e+00 1768716611
0.793055 -0.359221 1.005846 0.000000000000000e+00 1851878480
0.598410 -0.135888 1.136788 0.000000000000000e+00 1851878480
0.918873 -0.485272 0.155843 0.000000000000000e+00 1851878480
0.882093 -0.463025 0.245566 0.000000000000000e+00 1851878480
0.934749 -0.526331 0.345546 0.000000000000000e+00 1851878480
0.879087 -0.464083 0.433424 0.000000000000000e+00 1851878480
0.916035 -0.509102 0.528338 0.000000000000000e+00 1851878480
0.925268 -0.521996 0.620193 0.000000000000000e+00 1851878480
0.946124 -0.548305 0.710976 0.000000000000000e+00 1851878480
0.930543 -0.532515 0.803244 0.000000000000000e+00 1851878480
1.017165 -0.634683 0.885978 0.000000000000000e+00 1768716611
0.787920 -0.372453 1.005064 0.000000000000000e+00 1851878480
0.599791 -0.158023 1.134609 0.000000000000000e+00 1851878480
0.916885 -0.501121 0.156968 0.000000000000000e+00 1851878480
0.879001 -0.477757 0.246275 0.000000000000000e+00 1851878480
0.937435 -0.547368 0.346691 0.000000000000000e+00 1851878480
0.888132 -0.492840 0.434670 0.000000000000000e+00 1851878480
0.903547 -0.512831 0.527995 0.000000000000000e+00 1851878480
0.917190 -0.530753 0.620012 0.000000000000000e+00 1851878480
0.955583 -0.577081 0.710294 0.000000000000000e+00 1851878480
0.918229 -0.536409 0.803267 0.000000000000000e+00 1851878480
1.018381 -0.653511 0.884829 0.000000000000000e+00 1768716611
0.799460 -0.404735 1.002062 0.000000000000000e+00 1851878480
0.599239 -0.177781 1.132774 0.000000000000000e+00 1851878480
0.914856 -0.516822 0.158071 0.000000000000000e+00 1851878480
0.891533 -0.510317 0.249324 0.000000000000000e+00 1851878480
0.958163 -0.588909 0.349895 0.000000000000000e+00 1851878480
0.888129 -0.510992 0.435189 0.000000000000000e+00 1851878480
0.897040 -0.523450 0.527911 0.000000000000000e+00 1851878480
0.928037 -0.561124 0.619988 0.000000000000000e+00 1851878480
0.943537 -0.581047 0.710194 0.000000000000000e+00 1851878480
0.917454 -0.553518 0.802568 0.000000000000000e+00 1851878480
0.993742 -0.642727 0.886211 0.000000000000000e+00 1768716611
0.799194 -0.423276 1.000652 0.000000000000000e+00 1851878480
0.608109 -0.208132 1.129365 0.000000000000000e+00 1851878480
0.902605 -0.520704 0.157253 0.000000000000000e+00 1851878480
0.880099 -0.515275 0.248753 0.000000000000000e+00 1851878480
0.951604 -0.598978 0.349952 0.000000000000000e+00 1851878480
0.893976 -0.535675 0.436162 0.000000000000000e+00 1851878480
0.903318 -0.548567 0.528381 0.000000000000000e+00 1851878480
0.924758 -0.575178 0.619844 0.000000000000000e+00 1851878480
0.940747 -0.595564 0.709844 0.000000000000000e+00 1851878480
0.918598 -0.572689 0.801753 0.000000000000000e+00 1851878480
0.991955 -0.658059 0.885359 0.000000000000000e+00 1768716611
0.812003 -0.456495 0.997523 0.000000000000000e+00 1851878480
0.609824 -0.230125 1.127184 0.000000000000000e+00 1851878480
0.902058 -0.537978 0.158608 0.000000000000000e+00 1851878480
0.884888 -0.538638 0.250605 0.000000000000000e+00 1851878480
0.954289 -0.619477 0.351057 0.000000000000000e+00 1851878480
0.889718 -0.548728 0.436330 0.000000000000000e+00 1851878480
0.901226 -0.564018 0.528481 0.000000000000000e+00 1851878480
0.926999 -0.595386 0.619745 0.000000000000000e+00 1851878480
0.944609 -0.617499 0.709318 0.000000000000000e+00 1851878480
0.936533 -0.610647 0.799908 0.000000000000000e+00 1768716611
0.981355 -0.663371 0.885365 0.000000000000000e+00 1768716611
0.803108 -0.464984 0.997279 0.000000000000000e+00 1851878480
0.595049 -0.233414 1.127780 0.000000000000000e+00 1851878480
0.908482 -0.563035 0.161240 0.000000000000000e+00 1851878480
0.885785 -0.557434 0.251858 0.000000000000000e+00 1851878480
0.955823 -0.638528 0.352020 0.000000000000000e+00 1851878480
0.887661 -0.564193 0.436665 0.000000000000000e+00 1851878480
0.907687 -0.588983 0.528949 0.000000000000000e+00 1851878480
0.930104 -0.616415 0.619652 0.000000000000000e+00 1851878480
0.952707 -0.644014 0.708684 0.000000000000000e+00 1851878480
0.946226 -0.639007 0.798583 0.000000000000000e+00 1768716611
0.966384 -0.663817 0.885791 0.000000000000000e+00 1768716611
0.797511 -0.477158 0.996603 0.000000000000000e+00 1851878480
0.616379 -0.277123 1.122353 0.000000000000000e+00 1851878480
0.901056 -0.572286 0.161288 0.000000000000000e+00 1851878480
0.889159 -0.578871 0.253466 0.000000000000000e+00 1851878480
0.969546 -0.671070 0.354355 0.000000000000000e+00 1851878480
0.888716 -0.583042 0.437237 0.000000000000000e+00 1851878480
0.915608 -0.615371 0.529474 0.000000000000000e+00 1851878480
0.935943 -0.640333 0.619581 0.000000000000000e+00 1851878480
0.946529 -0.654392 0.708426 0.000000000000000e+00 1851878480
0.929795 -0.638029 0.798865 0.000000000000000e+00 1851878480
0.960253 -0.674188 0.885364 0.000000000000000e+00 1768716611
0.795301 -0.493050 0.995489 0.000000000000000e+00 1851878480
0.610112 -0.289752 1.121550 0.000000000000000e+00 1851878480
0.912296 -0.602419 0.164768 0.000000000000000e+00 1851878480
0.886532 -0.593470 0.254169 0.000000000000000e+00 1851878480
0.955339 -0.672275 0.353510 0.000000000000000e+00 1851878480
0.889691 -0.601672 0.437795 0.000000000000000e+00 1851878480
0.912386 -0.629172 0.529511 0.000000000000000e+00 1851878480
0.922366 -0.642532 0.619341 0.000000000000000e+00 1851878480
0.948783 -0.674079 0.707949 0.000000000000000e+00 1851878480
0.927765 -0.653094 0.798266 0.000000000000000e+00 1851878480
0.945334 -0.674806 0.885778 0.000000000000000e+00 1768716611
0.816240 -0.534428 0.991366 0.000000000000000e+00 1851878480
0.602822 -0.301205 1.120923 0.000000000000000e+00 1851878480
0.906777 -0.613631 0.165141 0.000000000000000e+00 1851878480
0.894044 -0.619196 0.256359 0.000000000000000e+00 1851878480
0.955830 -0.689790 0.354323 0.000000000000000e+00 1851878480
0.889099 -0.618440 0.438223 0.000000000000000e+00 1851878480
0.916951 -0.651487 0.529881 0.000000000000000e+00 1851878480
0.929269 -0.667364 0.619276 0.000000000000000e+00 1851878480
0.939571 -0.680994 0.707770 0.000000000000000e+00 1851878480
0.918140 -0.659716 0.798129 0.000000000000000e+00 1851878480
0.940422 -0.686510 0.885235 0.000000000000000e+00 1768716611
0.787399 -0.520729 0.993736 0.000000000000000e+00 1851878480
0.590784 -0.307411 1.121083 0.000000000000000e+00 1851878480
0.910416 -0.634933 0.167182 0.000000000000000e+00 1851878480
0.894183 -0.636607 0.257444 0.000000000000000e+00 1851878480
0.965094 -0.716821 0.356114 0.000000000000000e+00 1851878480
0.902742 -0.650719 0.439751 0.000000000000000e+00 1851878480
0.906802 -0.657501 0.529610 0.000000000000000e+00 1851878480
0.922565 -0.677087 0.619092 0.000000000000000e+00 1851878480
0.932196 -0.689932 0.707541 0.000000000000000e+00 1851878480
0.914459 -0.672851 0.797633 0.000000000000000e+00 1851878480
0.917378 -0.678355 0.886413 0.000000000000000e+00 1768716611
0.808470 -0.561783 0.989634 0.000000000000000e+00 1851878480
0.599102 -0.335856 1.117901 0.000000000000000e+00 1851878480
0.903089 -0.644014 0.167200 0.000000000000000e+00 1851878480
0.902389 -0.662716 0.259702 0.000000000000000e+00 1851878480
0.974283 -0.743537 0.357882 0.000000000000000e+00 1851878480
0.891443 -0.655506 0.439332 0.000000000000000e+00 1851878480
0.915026 -0.683553 0.530129 0.000000000000000e+00 1851878480
0.929970 -0.702146 0.619029 0.000000000000000e+00 1851878480
0.929717 -0.704181 0.707187 0.000000000000000e+00 1851878480
0.932431 -0.709456 0.795838 0.000000000000000e+00 1851878480
0.820424 -0.590132 0.894555 0.000000000000000e+00 1851878480
0.790308 -0.559869 0.990615 0.000000000000000e+00 1851878480
0.591326 -0.346614 1.117374 0.000000000000000e+00 1851878480
0.913254 -0.672202 0.170397 0.000000000000000e+00 1851878480
0.893614 -0.670167 0.259450 0.000000000000000e+00 1851878480
0.963120 -0.747947 0.357354 0.000000000000000e+00 1851878480
0.907633 -0.690126 0.441038 0.000000000000000e+00 1851878480
0.920497 -0.706405 0.530524 0.000000000000000e+00 1851878480
0.936899 -0.726483 0.618961 0.000000000000000e+00 1851878480
0.953679 -0.746939 0.706163 0.000000000000000e+00 1851878480
0.928570 -0.722128 0.795362 0.000000000000000e+00 1851878480
0.802143 -0.587986 0.895234 0.000000000000000e+00 1851878480
0.809153 -0.597989 0.986841 0.000000000000000e+00 1851878480
0.589116 -0.363346 1.115945 0.000000000000000e+00 1851878480
0.906443 -0.681699 0.170485 0.000000000000000e+00 1851878480
0.900953 -0.695013 0.261550 0.000000000000000e+00 1851878480
0.972691 -0.774751 0.359141 0.000000000000000e+00 1851878480
0.908405 -0.707812 0.441540 0.000000000000000e+00 1851878480
0.917019 -0.719440 0.530529 0.000000000000000e+00 1851878480
0.942006 -0.748660 0.618876 0.000000000000000e+00 1851878480
0.948815 -0.758294 0.705873 0.000000000000000e+00 1851878480
0.930356 -0.740802 0.794552 0.000000000000000e+00 1851878480
0.817292 -0.621831 0.892777 0.000000000000000e+00 1851878480
0.808027 -0.614336 0.985647 0.000000000000000e+00 1851878480
0.575589 -0.367860 1.116363 0.000000000000000e+00 1851878480
0.910443 -0.702851 0.172523 0.000000000000000e+00 1851878480
0.919734 -0.731931 0.265301 0.000000000000000e+00 1851878480
0.984829 -0.804078 0.361200 0.000000000000000e+00 1851878480
0.931973 -0.749794 0.443792 0.000000000000000e+00 1851878480
0.925692 -0.745416 0.531053 0.000000000000000e+00 1851878480
0.939662 -0.762697 0.618724 0.000000000000000e+00 1851878480
0.951713 -0.777899 0.705389 0.000000000000000e+00 1851878480
0.927258 -0.754134 0.794036 0.000000000000000e+00 1851878480
0.818929 -0.640957 0.891597 0.000000000000000e+00 1851878480
0.822861 -0.647591 0.982430 0.000000000000000e+00 1851878480
0.579592 -0.391089 1.113944 0.000000000000000e+00 1851878480
0.895750 -0.703774 0.171165 0.000000000000000e+00 1851878480
0.922026 -0.750918 0.266627 0.000000000000000e+00 1851878480
0.985193 -0.820600 0.361933 0.000000000000000e+00 1851878480
0.927260 -0.761259 0.443855 0.000000000000000e+00 1851878480
0.933778 -0.770549 0.531546 0.000000000000000e+00 1851878480
0.938085 -0.777474 0.618576 0.000000000000000e+00 1851878480
0.937842 -0.779556 0.705324 0.000000000000000e+00 1851878480
0.930806 -0.774449 0.793130 0.000000000000000e+00 1851878480
0.824661 -0.664290 0.890046 0.000000000000000e+00 1851878480
0.804687 -0.645588 0.983422 0.000000000000000e+00 1851878480
0.563914 -0.393321 1.114713 0.000000000000000e+00 1851878480
0.902376 -0.727531 0.173647 0.000000000000000e+00 1851878480
0.911242 -0.755908 0.266042 0.000000000000000e+00 1851878480
0.991250 -0.843044 0.363288 0.000000000000000e+00 1851878480
0.915867 -0.765610 0.443400 0.000000000000000e+00 1851878480
0.938450 -0.791865 0.531888 0.000000000000000e+00 1851878480
0.939609 -0.795440 0.618455 0.000000000000000e+00 1851878480
0.941592 -0.799880 0.704820 0.000000000000000e+00 1851878480
0.918468 -0.777861 0.793162 0.000000000000000e+00 1851878480
0.809896 -0.665844 0.890400 0.000000000000000e+00 1851878480
0.799866 -0.657760 0.982719 0.000000000000000e+00 1851878480
0.550852 -0.398381 1.115057 0.000000000000000e+00 1851878480
0.911640 -0.753897 0.176583 0.000000000000000e+00 1851878480
0.912483 -0.773603 0.267194 0.000000000000000e+00 1851878480
0.979692 -0.846765 0.362682 0.000000000000000e+00 1851878480
0.905585 -0.771172 0.443027 0.000000000000000e+00 1851878480
0.942567 -0.812433 0.532201 0.000000000000000e+00 1851878480
0.956091 -0.828990 0.618469 0.000000000000000e+00 1851878480
0.960315 -0.835763 0.703951 0.000000000000000e+00 1851878480
0.923494 -0.799525 0.792176 0.000000000000000e+00 1851878480
0.820618 -0.694168 0.888403 0.000000000000000e+00 1851878480
0.799420 -0.674463 0.981470 0.000000000000000e+00 1851878480
0.528946 -0.394245 1.116813 0.000000000000000e+00 1851878480
0.912338 -0.771009 0.177961 0.000000000000000e+00 1851878480
0.911342 -0.788685 0.267989 0.000000000000000e+00 1851878480
0.945934 -0.827303 0.359621 0.000000000000000e+00 1851878480
0.890241 -0.771469 0.442265 0.000000000000000e+00 1851878480
0.947837 -0.834052 0.532560 0.000000000000000e+00 1851878480
0.943471 -0.831857 0.618217 0.000000000000000e+00 1851878480
0.940155 -0.830762 0.704037 0.000000000000000e+00 1851878480
0.926900 -0.819336 0.791291 0.000000000000000e+00 1851878480
0.811036 -0.701115 0.888282 0.000000000000000e+00 1851878480
0.789907 -0.681634 0.981366 0.000000000000000e+00 1851878480
0.522548 -0.406381 1.116085 0.000000000000000e+00 1851878480
0.898989 -0.773282 0.176813 0.000000000000000e+00 1851878480
0.877877 -0.770025 0.264119 0.000000000000000e+00 1851878480
1.003268 -0.902915 0.366605 0.000000000000000e+00 1701537140
0.884206 -0.781529 0.442210 0.000000000000000e+00 1851878480
0.928580 -0.830038 0.531866 0.000000000000000e+00 1851878480
0.944102 -0.848529 0.618084 0.000000000000000e+00 1851878480
0.956894 -0.864158 0.703224 0.000000000000000e+00 1851878480
0.927557 -0.836154 0.790571 0.000000000000000e+00 1851878480
0.824257 -0.731667 0.886077 0.000000000000000e+00 1851878480
0.781005 -0.689448 0.981186 0.000000000000000e+00 1851878480
0.514165 -0.416429 1.115677 0.000000000000000e+00 1851878480
0.911074 -0.802126 0.180197 0.000000000000000e+00 1851878480
0.959783 -0.871079 0.276833 0.000000000000000e+00 1701537140
1.016640 -0.932260 0.368718 0.000000000000000e+00 1701537140
0.921358 -0.836176 0.445437 0.000000000000000e+00 1701537140
0.923896 -0.841204 0.531792 0.000000000000000e+00 1851878480
0.952027 -0.872613 0.618017 0.000000000000000e+00 1851878480
0.951119 -0.874049 0.702958 0.000000000000000e+00 1851878480
0.930498 -0.855214 0.789722 0.000000000000000e+00 1851878480
0.812811 -0.736582 0.886133 0.000000000000000e+00 1851878480
0.773290 -0.698485 0.980859 0.000000000000000e+00 1851878480
0.500229 -0.420763 1.116151 0.000000000000000e+00 1851878480
0.889684 -0.796042 0.177605 0.000000000000000e+00 1851878480
0.967521 -0.894723 0.278850 0.000000000000000e+00 1701537140
1.004857 -0.935490 0.368058 0.000000000000000e+00 1701537140
0.945243 -0.876640 0.447639 0.000000000000000e+00 1701537140
0.900856 -0.833498 0.530933 0.000000000000000e+00 1851878480
0.955797 -0.892242 0.617911 0.000000000000000e+00 1851878480
0.962514 -0.901498 0.702282 0.000000000000000e+00 1851878480
0.929744 -0.870358 0.789091 0.000000000000000e+00 1851878480
0.811776 -0.752178 0.885243 0.000000000000000e+00 1851878480
0.774555 -0.716685 0.979420 0.000000000000000e+00 1851878480
0.487231 -0.426112 1.116473 0.000000000000000e+00 1851878480
0.878015 -0.800134 0.176743 0.000000000000000e+00 1851878480
0.941398 -0.883549 0.276012 0.000000000000000e+00 1701537140
0.938718 -0.883237 0.361448 0.000000000000000e+00 1701537140
0.945288 -0.892379 0.448021 0.000000000000000e+00 1701537140
0.896083 -0.844605 0.530849 0.000000000000000e+00 1851878480
0.962289 -0.914502 0.617829 0.000000000000000e+00 1851878480
0.949147 -0.903504 0.702198 0.000000000000000e+00 1851878480
0.914879 -0.871064 0.789268 0.000000000000000e+00 1851878480
0.816258 -0.773290 0.883860 0.000000000000000e+00 1851878480
0.769711 -0.728564 0.978746 0.000000000000000e+00 1851878480
0.478264 -0.435595 1.116160 0.000000000000000e+00 1851878480
0.979080 -0.919661 0.195817 0.000000000000000e+00 1701537140
0.935552 -0.893209 0.276072 0.000000000000000e+00 1701537140
0.988341 -0.949260 0.367499 0.000000000000000e+00 1701537140
0.930664 -0.893138 0.447287 0.000000000000000e+00 1701537140
0.933251 -0.898186 0.532546 0.000000000000000e+00 1701537140
0.966642 -0.934419 0.617726 0.000000000000000e+00 1851878480
0.959212 -0.929285 0.701558 0.000000000000000e+00 1851878480
0.924698 -0.896805 0.788038 0.000000000000000e+00 1851878480
0.810606 -0.784010 0.883397 0.000000000000000e+00 1851878480
0.750762 -0.726167 0.979810 0.000000000000000e+00 1851878480
0.476011 -0.451840 1.114799 0.000000000000000e+00 1851878480
0.960551 -0.916173 0.193687 0.000000000000000e+00 1701537140
0.929071 -0.902206 0.276035 0.000000000000000e+00 1701537140
0.980506 -0.956585 0.367260 0.000000000000000e+00 1701537140
0.913169 -0.891085 0.446334 0.000000000000000e+00 1701537140
0.946829 -0.927451 0.533233 0.000000000000000e+00 1701537140
0.945905 -0.928935 0.617384 0.000000000000000e+00 1851878480
0.963367 -0.948906 0.701061 0.000000000000000e+00 1851878480
0.934885 -0.922701 0.786795 0.000000000000000e+00 1851878480
0.807180 -0.796933 0.882737 0.000000000000000e+00 1851878480
0.746114 -0.738241 0.979114 0.000000000000000e+00 1851878480
0.457392 -0.451604 1.115999 0.000000000000000e+00 1851878480
0.967569 -0.938657 0.196057 0.000000000000000e+00 1701537140
0.918913 -0.907493 0.275470 0.000000000000000e+00 1701537140
0.982139 -0.973412 0.368045 0.000000000000000e+00 1701537140
0.917781 -0.911311 0.447046 0.000000000000000e+00 1701537140
0.966561 -0.962622 0.534176 0.000000000000000e+00 1701537140
0.934800 -0.933244 0.617131 0.000000000000000e+00 1851878480
0.979214 -0.980072 0.700294 0.000000000000000e+00 1851878480
0.937732 -0.941049 0.785975 0.000000000000000e+00 1851878480
0.789489 -0.795566 0.883353 0.000000000000000e+00 1851878480
0.731462 -0.740298 0.979642 0.000000000000000e+00 1851878480
0.438327 -0.451037 1.117260 0.000000000000000e+00 1851878480
1.012510 -0.996677 0.121440 0.000000000000000e+00 1701537140
0.946008 -0.932230 0.193391 0.000000000000000e+00 1701537140
0.892278 -0.896360 0.272570 0.000000000000000e+00 1701537140
0.966917 -0.973316 0.366993 0.000000000000000e+00 1701537140
0.897646 -0.906729 0.445889 0.000000000000000e+00 1701537140
0.953717 -0.965033 0.533733 0.000000000000000e+00 1701537140
0.916496 -0.930435 0.616805 0.000000000000000e+00 1851878480
0.973070 -0.989104 0.700040 0.000000000000000e+00 1851878480
0.964185 -0.982703 0.783836 0.000000000000000e+00 1851878480
0.797342 -0.819648 0.881693 0.000000000000000e+00 1851878480
0.730753 -0.756246 0.978470 0.000000000000000e+00 1851878480
0.443165 -0.474249 1.114811 0.000000000000000e+00 1851878480
1.012482 -1.011532 0.122768 0.000000000000000e+00 1701537140
0.949387 -0.950895 0.195098 0.000000000000000e+00 1701537140
0.880813 -0.900504 0.271818 0.000000000000000e+00 1701537140
0.961578 -0.983110 0.367010 0.000000000000000e+00 1701537140
0.888492 -0.913170 0.445556 0.000000000000000e+00 1701537140
0.945723 -0.972303 0.533493 0.000000000000000e+00 1701537140
0.903534 -0.933032 0.616527 0.000000000000000e+00 1851878480
0.980797 -1.011818 0.699468 0.000000000000000e+00 1851878480
0.938971 -0.972967 0.784596 0.000000000000000e+00 1851878480
0.787050 -0.825650 0.881649 0.000000000000000e+00 1851878480
0.726380 -0.768494 0.977750 0.000000000000000e+00 1851878480
0.417734 -0.467511 1.117049 0.000000000000000e+00 1851878480
1.030480 -1.044222 0.127833 0.000000000000000e+00 1701537140
0.935854 -0.952626 0.193835 0.000000000000000e+00 1701537140
0.857385 -0.892892 0.269378 0.000000000000000e+00 1701537140
1.008675 -1.044560 0.372683 0.000000000000000e+00 1701537140
0.867880 -0.908347 0.444361 0.000000000000000e+00 1701537140
0.843840 -0.887226 0.529277 0.000000000000000e+00 1701537140
0.896454 -0.941472 0.616304 0.000000000000000e+00 1851878480
0.983858 -1.029772 0.699005 0.000000000000000e+00 1851878480
0.950358 -0.999338 0.783314 0.000000000000000e+00 1851878480
0.792309 -0.846917 0.880234 0.000000000000000e+00 1851878480
0.704195 -0.763260 0.979184 0.000000000000000e+00 1851878480
0.408498 -0.476805 1.116781 0.000000000000000e+00 1851878480
1.017202 -1.045697 0.126373 0.000000000000000e+00 1701537140
0.969606 -1.001125 0.200810 0.000000000000000e+00 1701537140
0.857712 -0.908761 0.270282 0.000000000000000e+00 1701537140
1.019090 -1.069429 0.374375 0.000000000000000e+00 1701537140
0.843830 -0.900311 0.442908 0.000000000000000e+00 1701537140
0.935359 -0.992362 0.533242 0.000000000000000e+00 1701537140
0.882678 -0.943365 0.616013 0.000000000000000e+00 1851878480
1.006742 -1.066944 0.698095 0.000000000000000e+00 1851878480
0.954163 -1.018095 0.782459 0.000000000000000e+00 1851878480
0.780142 -0.851054 0.880357 0.000000000000000e+00 1851878480
0.700969 -0.776637 0.978327 0.000000000000000e+00 1851878480
0.383197 -0.470485 1.118976 0.000000000000000e+00 1851878480
1.031247 -1.074090 0.130569 0.000000000000000e+00 1701537140
0.954869 -1.001539 0.199317 0.000000000000000e+00 1701537140
0.829304 -0.896523 0.267146 0.000000000000000e+00 1701537140
1.008275 -1.073415 0.373771 0.000000000000000e+00 1701537140
0.835260 -0.907525 0.442612 0.000000000000000e+00 1701537140
0.938310 -1.010253 0.533455 0.000000000000000e+00 1701537140
0.963383 -1.037067 0.616651 0.000000000000000e+00 1701537140
0.981340 -1.056925 0.698279 0.000000000000000e+00 1851878480
0.953093 -1.031994 0.781879 0.000000000000000e+00 1851878480
0.784800 -0.871529 0.879007 0.000000000000000e+00 1851878480
0.685709 -0.778316 0.978916 0.000000000000000e+00 1851878480
0.380517 -0.486209 1.117703 0.000000000000000e+00 1851878480
1.014657 -1.072311 0.128411 0.000000000000000e+00 1701537140
0.963378 -1.024722 0.201854 0.000000000000000e+00 1701537140
0.810994 -0.894310 0.265430 0.000000000000000e+00 1701537140
1.011050 -1.090598 0.374623 0.000000000000000e+00 1701537140
0.812532 -0.901056 0.441256 0.000000000000000e+00 1701537140
0.925690 -1.012980 0.533008 0.000000000000000e+00 1701537140
0.971287 -1.059474 0.616575 0.000000000000000e+00 1701537140
0.989088 -1.079077 0.697715 0.000000000000000e+00 1851878480
0.971144 -1.064234 0.780252 0.000000000000000e+00 1851878480
0.745404 -0.849463 0.881500 0.000000000000000e+00 1851878480
0.693325 -0.802068 0.976770 0.000000000000000e+00 1851878480
0.366812 -0.491269 1.118115 0.000000000000000e+00 1851878480
1.005366 -1.077726 0.127758 0.000000000000000e+00 1701537140
0.944894 -1.021533 0.199702 0.000000000000000e+00 1701537140
0.811798 -0.910631 0.266384 0.000000000000000e+00 1701537140
0.994464 -1.089035 0.373392 0.000000000000000e+00 1701537140
0.806965 -0.911258 0.441178 0.000000000000000e+00 1701537140
0.889585 -0.993214 0.531566 0.000000000000000e+00 1701537140
0.980777 -1.083227 0.616515 0.000000000000000e+00 1701537140
0.991486 -1.095928 0.697273 0.000000000000000e+00 1851878480
0.962121 -1.070260 0.780115 0.000000000000000e+00 1851878480
0.742236 -0.862415 0.880831 0.000000000000000e+00 1851878480
0.663863 -0.790210 0.979048 0.000000000000000e+00 1851878480
0.357593 -0.500664 1.117845 0.000000000000000e+00 1851878480
1.004164 -1.090974 0.128764 0.000000000000000e+00 1701537140
0.969506 -1.060030 0.204992 0.000000000000000e+00 1701537140
0.793240 -0.908315 0.264629 0.000000000000000e+00 1701537140
1.013701 -1.121845 0.375990 0.000000000000000e+00 1701537140
0.786040 -0.906760 0.439953 0.000000000000000e+00 1701537140
0.895836 -1.014209 0.531909 0.000000000000000e+00 1701537140
0.966170 -1.083808 0.616212 0.000000000000000e+00 1701537140
0.987593 -1.106675 0.696971 0.000000000000000e+00 1851878480
0.964398 -1.087059 0.779362 0.000000000000000e+00 1851878480
0.738957 -0.875205 0.880175 0.000000000000000e+00 1851878480
0.654898 -0.798062 0.978880 0.000000000000000e+00 1851878480
0.335711 -0.498048 1.119488 0.000000000000000e+00 1851878480
0.983535 -1.082992 0.042469 0.000000000000000e+00 1701537140
0.983749 -1.085718 0.125818 0.000000000000000e+00 1701537140
0.976201 -1.080986 0.207164 0.000000000000000e+00 1701537140
0.787019 -0.917864 0.264591 0.000000000000000e+00 1701537140
0.981373 -1.105325 0.373072 0.000000000000000e+00 1701537140
0.779986 -0.916536 0.439832 0.000000000000000e+00 1701537140
0.945225 -1.075975 0.534066 0.000000000000000e+00 1701537140
0.969770 -1.101730 0.616090 0.000000000000000e+00 1701537140
0.999512 -1.132355 0.696323 0.000000000000000e+00 1851878480
0.970633 -1.107490 0.778400 0.000000000000000e+00 1851878480
0.731400 -0.883897 0.879889 0.000000000000000e+00 1851878480
0.654507 -0.814017 0.977699 0.000000000000000e+00 1851878480
0.340806 -0.521016 1.117061 0.000000000000000e+00 1851878480
0.982290 -1.096164 0.043645 0.000000000000000e+00 1701537140
0.971492 -1.088395 0.124547 0.000000000000000e+00 1701537140
0.957290 -1.077385 0.204921 0.000000000000000e+00 1701537140
0.775495 -0.922379 0.263811 0.000000000000000e+00 1701537140
0.975275 -1.113882 0.372953 0.000000000000000e+00 1701537140
0.751270 -0.904898 0.438027 0.000000000000000e+00 1701537140
0.950284 -1.095287 0.534350 0.000000000000000e+00 1701537140
0.971440 -1.117711 0.615947 0.000000000000000e+00 1701537140
0.998219 -1.145383 0.695967 0.000000000000000e+00 1851878480
0.966504 -1.118024 0.778001 0.000000000000000e+00 1851878480
0.715800 -0.885033 0.880294 0.000000000000000e+00 1851878480
0.642952 -0.819409 0.977839 0.000000000000000e+00 1851878480
0.298525 -0.499421 1.121754 0.000000000000000e+00 1851878480
1.001666 -1.128840 0.049692 0.000000000000000e+00 1701537140
0.958550 -1.090481 0.123135 0.000000000000000e+00 1701537140
0.946072 -1.081205 0.204000 0.000000000000000e+00 1701537140
0.745641 -0.909700 0.260491 0.000000000000000e+00 1701537140
0.962842 -1.116477 0.372156 0.000000000000000e+00 1701537140
0.754494 -0.923472 0.438586 0.000000000000000e+00 1701537140
0.940291 -1.100348 0.533997 0.000000000000000e+00 1701537140
0.974810 -1.135184 0.615821 0.000000000000000e+00 1701537140
0.984320 -1.146552 0.695882 0.000000000000000e+00 1851878480
0.976936 -1.142131 0.776822 0.000000000000000e+00 1851878480
0.708418 -0.893928 0.879991 0.000000000000000e+00 1851878480
0.628916 -0.822526 0.978268 0.000000000000000e+00 1851878480
0.293385 -0.512802 1.120865 0.000000000000000e+00 1851878480
1.004817 -1.145911 0.051867 0.000000000000000e+00 1701537140
0.925991 -1.074143 0.117729 0.000000000000000e+00 1701537140
0.939175 -1.089137 0.203815 0.000000000000000e+00 1701537140
0.931494 -1.098917 0.286968 0.000000000000000e+00 1701537140
0.995946 -1.161654 0.376185 0.000000000000000e+00 1701537140
0.912602 -1.086402 0.450578 0.000000000000000e+00 1701537140
0.959709 -1.132847 0.534878 0.000000000000000e+00 1701537140
0.957406 -1.133200 0.615480 0.000000000000000e+00 1701537140
0.985569 -1.161884 0.695469 0.000000000000000e+00 1851878480
0.965997 -1.146189 0.776791 0.000000000000000e+00 1851878480
0.717601 -0.918189 0.878280 0.000000000000000e+00 1851878480
0.620257 -0.830695 0.978065 0.000000000000000e+00 1851878480
0.288573 -0.526442 1.119933 0.000000000000000e+00 1851878480
0.979530 -1.136196 0.047316 0.000000000000000e+00 1701537140
0.923612 -1.086365 0.118469 0.000000000000000e+00 1701537140
0.796279 -0.969794 0.180422 0.000000000000000e+00 1701537140
0.942666 -1.123650 0.289253 0.000000000000000e+00 1701537140
0.994949 -1.174727 0.376584 0.000000000000000e+00 1701537140
0.921440 -1.109069 0.451520 0.000000000000000e+00 1701537140
0.947088 -1.135372 0.534408 0.000000000000000e+00 1701537140
0.974127 -1.162906 0.615489 0.000000000000000e+00 1701537140
0.998538 -1.187954 0.694809 0.000000000000000e+00 1851878480
0.983282 -1.176347 0.775260 0.000000000000000e+00 1851878480
0.695902 -0.913774 0.879197 0.000000000000000e+00 1851878480
0.610707 -0.838049 0.977966 0.000000000000000e+00 1851878480
0.264769 -0.522556 1.121825 0.000000000000000e+00 1851878480
1.007530 -1.176363 0.055315 0.000000000000000e+00 1701537140
0.918214 -1.095720 0.118586 0.000000000000000e+00 1701537140
0.780724 -0.970425 0.178803 0.000000000000000e+00 1701537140
0.939564 -1.134996 0.289560 0.000000000000000e+00 1701537140
1.014130 -1.206353 0.379108 0.000000000000000e+00 1701537140
0.929414 -1.130761 0.452392 0.000000000000000e+00 1701537140
0.928525 -1.132488 0.533686 0.000000000000000e+00 1701537140
0.976127 -1.178808 0.615346 0.000000000000000e+00 1701537140
1.001159 -1.204296 0.694372 0.000000000000000e+00 1851878480
0.986687 -1.193498 0.774473 0.000000000000000e+00 1851878480
0.686911 -0.921165 0.879032 0.000000000000000e+00 1851878480
0.594178 -0.839029 0.978675 0.000000000000000e+00 1851878480
0.241076 -0.518937 1.123688 0.000000000000000e+00 1851878480
0.999585 -1.182830 0.054832 0.000000000000000e+00 1701537140
0.903152 -1.096111 0.116741 0.000000000000000e+00 1701537140
0.779291 -0.984203 0.179581 0.000000000000000e+00 1701537140
0.941636 -1.151048 0.290570 0.000000000000000e+00 1701537140
1.006191 -1.212816 0.378758 0.000000000000000e+00 1701537140
0.937115 -1.152036 0.453236 0.000000000000000e+00 1701537140
0.928874 -1.147039 0.533755 0.000000000000000e+00 1701537140
0.982073 -1.198218 0.615243 0.000000000000000e+00 1701537140
1.000543 -1.217574 0.694004 0.000000000000000e+00 1851878480
0.978432 -1.199896 0.774303 0.000000000000000e+00 1851878480
0.673449 -0.924496 0.879242 0.000000000000000e+00 1851878480
0.587096 -0.848701 0.978287 0.000000000000000e+00 1851878480
0.232407 -0.529141 1.123323 0.000000000000000e+00 1851878480
0.984521 -1.182753 0.052675 0.000000000000000e+00 1701537140
0.887564 -1.096105 0.114791 0.000000000000000e+00 1701537140
0.757938 -0.979606 0.176974 0.000000000000000e+00 1701537140
0.931490 -1.155849 0.289896 0.000000000000000e+00 1701537140
0.997736 -1.218820 0.378350 0.000000000000000e+00 1701537140
0.913623 -1.144742 0.451784 0.000000000000000e+00 1701537140
0.914110 -1.147760 0.533188 0.000000000000000e+00 1701537140
0.970686 -1.201735 0.614956 0.000000000000000e+00 1701537140
0.999184 -1.230109 0.693651 0.000000000000000e+00 1851878480
0.987672 -1.222170 0.773216 0.000000000000000e+00 1851878480
0.665018 -0.932445 0.879027 0.000000000000000e+00 1851878480
0.570158 -0.849446 0.979036 0.000000000000000e+00 1851878480
0.214730 -0.531199 1.124284 0.000000000000000e+00 1851878480
0.997569 -1.208506 0.057088 0.000000000000000e+00 1701537140
0.874149 -1.098179 0.113279 0.000000000000000e+00 1701537140
0.738479 -0.976890 0.174690 0.000000000000000e+00 1701537140
0.915123 -1.155042 0.288369 0.000000000000000e+00 1701537140
0.996512 -1.231396 0.378698 0.000000000000000e+00 1701537140
0.880296 -1.128726 0.449610 0.000000000000000e+00 1701537140
0.910547 -1.158693 0.533087 0.000000000000000e+00 1701537140
0.969172 -1.214219 0.614772 0.000000000000000e+00 1701537140
0.999034 -1.243677 0.693274 0.000000000000000e+00 1851878480
0.969661 -1.219710 0.773557 0.000000000000000e+00 1851878480
0.662236 -0.945487 0.878340 0.000000000000000e+00 1851878480
0.551698 -0.848921 0.979952 0.000000000000000e+00 1851878480
0.208326 -0.543480 1.123588 0.000000000000000e+00 1851878480
0.995432 -1.220220 0.057933 0.000000000000000e+00 1701537140
0.864989 -1.104191 0.112621 0.000000000000000e+00 1701537140
0.811722 -1.058498 0.188052 0.000000000000000e+00 1701537140
0.940778 -1.192230 0.292574 0.000000000000000e+00 1701537140
0.978663 -1.228936 0.377297 0.000000000000000e+00 1701537140
0.771532 -1.045125 0.441915 0.000000000000000e+00 1701537140
0.740994 -1.020409 0.526025 0.000000000000000e+00 1701537140
0.972800 -1.231260 0.614641 0.000000000000000e+00 1701537140
1.003300 -1.261130 0.692808 0.000000000000000e+00 1851878480
0.964102 -1.228525 0.773245 0.000000000000000e+00 1851878480
0.658751 -0.957847 0.877716 0.000000000000000e+00 1851878480
0.555039 -0.867994 0.978368 0.000000000000000e+00 1851878480
0.187227 -0.542613 1.125041 0.000000000000000e+00 1851878480
1.006708 -1.244021 0.061885 0.000000000000000e+00 1701537140
1.040060 -1.276731 0.148865 0.000000000000000e+00 1701537140
0.956769 -1.204051 0.213441 0.000000000000000e+00 1701537140
0.945520 -1.210320 0.293908 0.000000000000000e+00 1701537140
0.998700 -1.260516 0.379861 0.000000000000000e+00 1701537140
0.765787 -1.054754 0.441768 0.000000000000000e+00 1701537140
0.722988 -1.019263 0.525316 0.000000000000000e+00 1701537140
0.972920 -1.245059 0.614472 0.000000000000000e+00 1701537140
0.996315 -1.268435 0.692572 0.000000000000000e+00 1851878480
0.964846 -1.242938 0.772608 0.000000000000000e+00 1851878480
0.657370 -0.972030 0.876919 0.000000000000000e+00 1851878480
0.537313 -0.868230 0.979195 0.000000000000000e+00 1851878480
0.158752 -0.535334 1.127555 0.000000000000000e+00 1851878480
1.010741 -1.261112 0.064130 0.000000000000000e+00 1701537140
1.024213 -1.275784 0.146779 0.000000000000000e+00 1701537140
0.958005 -1.218906 0.214550 0.000000000000000e+00 1701537140
0.921887 -1.203002 0.291377 0.000000000000000e+00 1701537140
1.001340 -1.276324 0.380593 0.000000000000000e+00 1701537140
0.771886 -1.074895 0.442483 0.000000000000000e+00 1701537140
0.697379 -1.011481 0.524285 0.000000000000000e+00 1701537140
0.969512 -1.255652 0.614263 0.000000000000000e+00 1701537140
0.989460 -1.275858 0.692331 0.000000000000000e+00 1851878480
0.974931 -1.265533 0.771493 0.000000000000000e+00 1851878480
0.624021 -0.957890 0.878762 0.000000000000000e+00 1851878480
0.517682 -0.866889 0.980230 0.000000000000000e+00 1851878480
0.154666 -0.549772 1.126519 0.000000000000000e+00 1851878480
1.006573 -1.270756 0.064459 0.000000000000000e+00 1701537140
1.020305 -1.285598 0.147076 0.000000000000000e+00 1701537140
0.969822 -1.243112 0.217422 0.000000000000000e+00 1701537140
0.911800 -1.207863 0.290686 0.000000000000000e+00 1701537140
0.995583 -1.284606 0.380441 0.000000000000000e+00 1701537140
0.935052 -1.233674 0.454644 0.000000000000000e+00 1701537140
0.700580 -1.029320 0.524458 0.000000000000000e+00 1701537140
0.954809 -1.256253 0.613929 0.000000000000000e+00 1701537140
0.987186 -1.287318 0.691998 0.000000000000000e+00 1851878480
0.964431 -1.269843 0.771439 0.000000000000000e+00 1851878480
0.618792 -0.968731 0.878280 0.000000000000000e+00 1851878480
0.509141 -0.875407 0.980003 0.000000000000000e+00 1851878480
0.130289 -0.546374 1.128419 0.000000000000000e+00 1851878480
1.008007 -1.285352 0.066071 0.000000000000000e+00 1701537140
1.009994 -1.289700 0.146090 0.000000000000000e+00 1701537140
0.948050 -1.237339 0.214656 0.000000000000000e+00 1701537140
0.946862 -1.252501 0.296102 0.000000000000000e+00 1701537140
0.977966 -1.282450 0.379050 0.000000000000000e+00 1701537140
0.944028 -1.255219 0.455540 0.000000000000000e+00 1701537140
0.686654 -1.032022 0.523911 0.000000000000000e+00 1701537140
0.964506 -1.278319 0.613860 0.000000000000000e+00 1701537140
0.981270 -1.295542 0.691737 0.000000000000000e+00 1851878480
0.986897 -1.303013 0.769703 0.000000000000000e+00 1851878480
0.616969 -0.982520 0.877520 0.000000000000000e+00 1851878480
0.487954 -0.872899 0.981202 0.000000000000000e+00 1851878480
0.109906 -0.546622 1.129732 0.000000000000000e+00 1851878480
0.997251 -1.289094 0.064860 0.000000000000000e+00 1701537140
1.035927 -1.325821 0.152299 0.000000000000000e+00 1701537140
0.943035 -1.246495 0.214692 0.000000000000000e+00 1701537140
0.941701 -1.261502 0.296059 0.000000000000000e+00 1701537140
0.958393 -1.278701 0.377456 0.000000000000000e+00 1701537140
0.940538 -1.265715 0.455523 0.000000000000000e+00 1701537140
0.670214 -1.032601 0.523256 0.000000000000000e+00 1701537140
0.971778 -1.298098 0.613764 0.000000000000000e+00 1701537140
0.993543 -1.319581 0.691115 0.000000000000000e+00 1851878480
0.980820 -1.311072 0.769427 0.000000000000000e+00 1851878480
0.606287 -0.988558 0.877486 0.000000000000000e+00 1851878480
0.487573 -0.888570 0.980053 0.000000000000000e+00 1851878480
0.083997 -0.542205 1.131829 0.000000000000000e+00 1851878480
1.003657 -1.307951 0.067592 0.000000000000000e+00 1701537140
1.029248 -1.332996 0.152012 0.000000000000000e+00 1701537140
0.933182 -1.251393 0.213915 0.000000000000000e+00 1701537140
0.917433 -1.253867 0.293432 0.000000000000000e+00 1701537140
0.914574 -1.254025 0.373344 0.000000000000000e+00 1701537140
0.925299 -1.265983 0.454649 0.000000000000000e+00 1701537140
0.653893 -1.033377 0.522602 0.000000000000000e+00 1701537140
0.956087 -1.297852 0.613413 0.000000000000000e+00 1701537140
0.994170 -1.333351 0.690726 0.000000000000000e+00 1851878480
0.973608 -1.318144 0.769209 0.000000000000000e+00 1851878480
0.603131 -1.001119 0.876840 0.000000000000000e+00 1851878480
0.470496 -0.889775 0.980781 0.000000000000000e+00 1851878480
0.078092 -0.555181 1.131051 0.000000000000000e+00 1851878480
0.985194 -1.304964 0.064598 0.000000000000000e+00 1701537140
1.012699 -1.331568 0.149766 0.000000000000000e+00 1701537140
0.817794 -1.164428 0.195581 0.000000000000000e+00 1701537140
0.933578 -1.281354 0.296249 0.000000000000000e+00 1701537140
0.903763 -1.258241 0.372662 0.000000000000000e+00 1701537140
0.897560 -1.255560 0.452865 0.000000000000000e+00 1701537140
0.667676 -1.060180 0.523205 0.000000000000000e+00 1701537140
0.954883 -1.310166 0.613221 0.000000000000000e+00 1701537140
0.982824 -1.336757 0.690571 0.000000000000000e+00 1851878480
0.967422 -1.326104 0.768937 0.000000000000000e+00 1851878480
0.579789 -0.996329 0.877828 0.000000000000000e+00 1851878480
0.456386 -0.893618 0.981171 0.000000000000000e+00 1851878480
0.040074 -0.540661 1.134854 0.000000000000000e+00 1851878480
0.991812 -1.323863 0.067351 0.000000000000000e+00 1701537140
1.010749 -1.342898 0.150403 0.000000000000000e+00 1701537140
0.817528 -1.178244 0.196423 0.000000000000000e+00 1701537140
0.927154 -1.289211 0.296018 0.000000000000000e+00 1701537140
0.901402 -1.269752 0.372851 0.000000000000000e+00 1701537140
0.928125 -1.295337 0.455307 0.000000000000000e+00 1701537140
0.936973 -1.305533 0.534491 0.000000000000000e+00 1701537140
0.962827 -1.330248 0.613130 0.000000000000000e+00 1701537140
1.007273 -1.370788 0.689722 0.000000000000000e+00 1851878480
0.949664 -1.324188 0.769244 0.000000000000000e+00 1851878480
0.554603 -0.990134 0.878955 0.000000000000000e+00 1851878480
0.439923 -0.895524 0.981818 0.000000000000000e+00 1851878480
0.029126 -0.549456 1.134787 0.000000000000000e+00 1851878480
0.995911 -1.340453 0.069509 0.000000000000000e+00 1701537140
0.997988 -1.344869 0.148902 0.000000000000000e+00 1701537140
0.807427 -1.183529 0.195626 0.000000000000000e+00 1701537140
0.952110 -1.323866 0.299990 0.000000000000000e+00 1701537140
0.869142 -1.255712 0.369946 0.000000000000000e+00 1701537140
0.932810 -1.312675 0.455865 0.000000000000000e+00 1701537140
0.954734 -1.333954 0.535251 0.000000000000000e+00 1701537140
0.938169 -1.322467 0.612670 0.000000000000000e+00 1701537140
0.996519 -1.374610 0.689555 0.000000000000000e+00 1851878480
0.957151 -1.343793 0.768288 0.000000000000000e+00 1851878480
0.546865 -0.998896 0.878671 0.000000000000000e+00 1851878480
0.440907 -0.912276 0.980528 0.000000000000000e+00 1851878480
-0.005004 -0.538685 1.138003 0.000000000000000e+00 1851878480
0.979902 -1.339696 0.067065 0.000000000000000e+00 1701537140
0.981829 -1.343995 0.146731 0.000000000000000e+00 1701537140
0.807901 -1.197889 0.196572 0.000000000000000e+00 1701537140
0.965287 -1.348197 0.302365 0.000000000000000e+00 1701537140
0.872773 -1.272369 0.370746 0.000000000000000e+00 1701537140
0.932893 -1.326001 0.456085 0.000000000000000e+00 1701537140
0.954470 -1.346878 0.535255 0.000000000000000e+00 1701537140
0.931580 -1.330139 0.612411 0.000000000000000e+00 1701537140
0.971037 -1.366051 0.689665 0.000000000000000e+00 1851878480
0.961731 -1.360805 0.767482 0.000000000000000e+00 1851878480
0.543604 -1.011432 0.878029 0.000000000000000e+00 1851878480
0.409759 -0.901924 0.982792 0.000000000000000e+00 1851878480
-0.015489 -0.548032 1.137859 0.000000000000000e+00 1851878480
0.986824 -1.358579 0.069841 0.000000000000000e+00 1701537140
0.954540 -1.333752 0.142379 0.000000000000000e+00 1701537140
0.803861 -1.208337 0.196764 0.000000000000000e+00 1701537140
0.947959 -1.346585 0.300649 0.000000000000000e+00 1701537140
0.853083 -1.269265 0.369137 0.000000000000000e+00 1701537140
0.922918 -1.330792 0.455574 0.000000000000000e+00 1701537140
0.949667 -1.355923 0.535066 0.000000000000000e+00 1701537140
0.932952 -1.344496 0.612241 0.000000000000000e+00 1701537140
0.968140 -1.376629 0.689342 0.000000000000000e+00 1851878480
0.965738 -1.377223 0.766709 0.000000000000000e+00 1851878480
0.529062 -1.014485 0.878288 0.000000000000000e+00 1851878480
0.397168 -0.907317 0.982997 0.000000000000000e+00 1851878480
-0.056127 -0.532229 1.141958 0.000000000000000e+00 1851878480
0.973776 -1.360410 0.068063 0.000000000000000e+00 1701537140
1.026163 -1.407391 0.157400 0.000000000000000e+00 1701537140
0.810033 -1.227385 0.198629 0.000000000000000e+00 1701537140
0.941872 -1.354513 0.300433 0.000000000000000e+00 1701537140
0.865669 -1.293332 0.370846 0.000000000000000e+00 1701537140
0.896676 -1.322010 0.453887 0.000000000000000e+00 1701537140
0.935110 -1.356800 0.534466 0.000000000000000e+00 1701537140
0.914469 -1.342203 0.611841 0.000000000000000e+00 1701537140
0.987502 -1.405725 0.688603 0.000000000000000e+00 1851878480
0.955605 -1.381760 0.766634 0.000000000000000e+00 1851878480
0.510291 -1.014093 0.878878 0.000000000000000e+00 1851878480
0.364590 -0.896161 0.985391 0.000000000000000e+00 1851878480
-0.086990 -0.524859 1.144660 0.000000000000000e+00 1851878480
0.970413 -1.370465 0.068479 0.000000000000000e+00 1701537140
1.035305 -1.427700 0.160147 0.000000000000000e+00 1701537140
0.819342 -1.248933 0.200996 0.000000000000000e+00 1701537140
0.942896 -1.368364 0.301159 0.000000000000000e+00 1701537140
0.846879 -1.291078 0.369324 0.000000000000000e+00 1701537140
0.882740 -1.323660 0.453086 0.000000000000000e+00 1701537140
0.963306 -1.393265 0.535651 0.000000000000000e+00 1701537140
0.894935 -1.339159 0.611425 0.000000000000000e+00 1701537140
0.983853 -1.415495 0.688297 0.000000000000000e+00 1851878480
0.958150 -1.396827 0.765936 0.000000000000000e+00 1851878480
0.524052 -1.040700 0.876891 0.000000000000000e+00 1851878480
0.358614 -0.907212 0.984861 0.000000000000000e+00 1851878480
-0.107325 -0.526390 1.145872 0.000000000000000e+00 1851878480
0.946700 -1.363458 0.064283 0.000000000000000e+00 1701537140
1.036941 -1.441580 0.161412 0.000000000000000e+00 1701537140
0.822281 -1.265001 0.202302 0.000000000000000e+00 1701537140
0.935912 -1.375507 0.300812 0.000000000000000e+00 1701537140
0.855059 -1.311268 0.370566 0.000000000000000e+00 1701537140
0.937156 -1.381878 0.457203 0.000000000000000e+00 1701537140
0.938553 -1.385675 0.534620 0.000000000000000e+00 1701537140
0.959840 -1.405861 0.611991 0.000000000000000e+00 1851878480
0.954826 -1.404343 0.688456 0.000000000000000e+00 1851878480
0.949418 -1.402530 0.765791 0.000000000000000e+00 1851878480
0.478762 -1.018593 0.879565 0.000000000000000e+00 1851878480
0.337466 -0.905800 0.985985 0.000000000000000e+00 1851878480
-0.139094 -0.518669 1.148669 0.000000000000000e+00 1851878480
0.930620 -1.362978 0.061818 0.000000000000000e+00 1701537140
1.029804 -1.448095 0.160959 0.000000000000000e+00 1701537140
0.824014 -1.279973 0.203399 0.000000000000000e+00 1701537140
0.947250 -1.397746 0.302892 0.000000000000000e+00 1701537140
0.836470 -1.309291 0.369059 0.000000000000000e+00 1701537140
0.927387 -1.386758 0.456692 0.000000000000000e+00 1701537140
0.927259 -1.389313 0.534149 0.000000000000000e+00 1701537140
0.956273 -1.415739 0.611761 0.000000000000000e+00 1851878480
0.980297 -1.438018 0.687614 0.000000000000000e+00 1851878480
0.938182 -1.406211 0.765766 0.000000000000000e+00 1851878480
0.492849 -1.045335 0.877560 0.000000000000000e+00 1851878480
0.331277 -0.916718 0.985477 0.000000000000000e+00 1851878480
-0.180869 -0.503031 1.152837 0.000000000000000e+00 1851878480
0.903158 -1.353186 0.056792 0.000000000000000e+00 1701537140
1.021434 -1.453602 0.160260 0.000000000000000e+00 1701537140
0.987790 -1.428477 0.230976 0.000000000000000e+00 1701537140
0.944723 -1.408457 0.303122 0.000000000000000e+00 1701537140
1.015414 -1.468914 0.387741 0.000000000000000e+00 1701537140
0.944106 -1.413299 0.458080 0.000000000000000e+00 1701537140
0.932496 -1.406479 0.534365 0.000000000000000e+00 1701537140
0.950174 -1.423529 0.611500 0.000000000000000e+00 1851878480
0.941009 -1.418705 0.687951 0.000000000000000e+00 1851878480
0.949886 -1.428574 0.764631 0.000000000000000e+00 1851878480
0.479944 -1.049964 0.877676 0.000000000000000e+00 1851878480
0.323232 -0.926115 0.985172 0.000000000000000e+00 1851878480
-0.230418 -0.481433 1.158054 0.000000000000000e+00 1851878480
0.885299 -1.351496 0.053937 0.000000000000000e+00 1701537140
1.039446 -1.480782 0.164672 0.000000000000000e+00 1701537140
0.980159 -1.434795 0.230475 0.000000000000000e+00 1701537140
0.966974 -1.439289 0.306624 0.000000000000000e+00 1701537140
1.012332 -1.478793 0.387786 0.000000000000000e+00 1701537140
0.927415 -1.412498 0.457064 0.000000000000000e+00 1701537140
0.897911 -1.391257 0.532915 0.000000000000000e+00 1701537140
0.960993 -1.445008 0.611437 0.000000000000000e+00 1851878480
0.955141 -1.442902 0.687319 0.000000000000000e+00 1851878480
0.939989 -1.433319 0.764540 0.000000000000000e+00 1851878480
0.457247 -1.046751 0.878552 0.000000000000000e+00 1851878480
0.296193 -0.920219 0.986914 0.000000000000000e+00 1851878480
-0.288314 -0.453525 1.164388 0.000000000000000e+00 1851878480
0.869567 -1.351656 0.051561 0.000000000000000e+00 1701537140
1.024161 -1.480562 0.162616 0.000000000000000e+00 1701537140
0.984855 -1.451169 0.231978 0.000000000000000e+00 1701537140
0.941061 -1.430895 0.303747 0.000000000000000e+00 1701537140
1.006953 -1.486787 0.387593 0.000000000000000e+00 1701537140
0.927463 -1.425302 0.457247 0.000000000000000e+00 1701537140
0.902089 -1.407539 0.533081 0.000000000000000e+00 1701537140
0.946121 -1.445653 0.611067 0.000000000000000e+00 1851878480
