# .PCD v0.7 - Point Cloud Data file format
VERSION 0.7
FIELDS x y z rgb label
SIZE 4 4 4 4 4
TYPE F F F F U
COUNT 1 1 1 1 1
WIDTH 755
HEIGHT 1
VIEWPOINT 0 0 0 1 0 0 0
POINTS 755
DATA ascii
-2.746628 0.657588 -13.830933 0.000000000000000e+00 1851878480
-2.622296 -0.927326 -12.999525 0.000000000000000e+00 1851878480
-2.610394 -0.615625 -12.940520 0.000000000000000e+00 1851878480
-2.602447 -0.305559 -12.901125 0.000000000000000e+00 1851878480
-2.595399 0.000000 -12.866187 0.000000000000000e+00 1851878480
-2.709129 0.318085 -13.429981 0.000000000000000e+00 1851878480
-2.775527 0.654569 -13.759138 0.000000000000000e+00 1851878480
-2.650183 -0.923386 -12.936360 0.000000000000000e+00 1851878480
-2.638033 -0.612981 -12.877051 0.000000000000000e+00 1851878480
-2.630207 -0.304271 -12.838852 0.000000000000000e+00 1851878480
-2.624146 0.000000 -12.809265 0.000000000000000e+00 1851878480
-2.736439 0.316560 -13.357403 0.000000000000000e+00 1851878480
-2.804241 0.651602 -13.688366 0.000000000000000e+00 1851878480
-2.677727 -0.919451 -12.873217 0.000000000000000e+00 1851878480
-2.665478 -0.610375 -12.814330 0.000000000000000e+00 1851878480
-2.657784 -0.303002 -12.777338 0.000000000000000e+00 1851878480
-2.652664 0.000000 -12.752726 0.000000000000000e+00 1851878480
-2.763594 0.315065 -13.286019 0.000000000000000e+00 1851878480
-2.832730 0.648674 -13.618392 0.000000000000000e+00 1851878480
-2.705038 -0.915558 -12.810607 0.000000000000000e+00 1851878480
-2.692778 -0.607816 -12.752548 0.000000000000000e+00 1851878480
-2.685189 -0.301752 -12.716605 0.000000000000000e+00 1851878480
-2.680978 0.000000 -12.696661 0.000000000000000e+00 1851878480
-2.790632 0.313602 -13.215969 0.000000000000000e+00 1851878480
-2.860919 0.645769 -13.548836 0.000000000000000e+00 1851878480
-2.732188 -0.911730 -12.748864 0.000000000000000e+00 1851878480
-2.719913 -0.605299 -12.691586 0.000000000000000e+00 1851878480
-2.712455 -0.300526 -12.656787 0.000000000000000e+00 1851878480
-2.709038 0.000000 -12.640840 0.000000000000000e+00 1851878480
-2.817620 0.312177 -13.147504 0.000000000000000e+00 1851878480
-2.888831 0.642891 -13.479789 0.000000000000000e+00 1851878480
-2.759174 -0.907961 -12.687905 0.000000000000000e+00 1851878480
-2.746869 -0.602817 -12.631322 0.000000000000000e+00 1851878480
-2.739496 -0.299311 -12.597415 0.000000000000000e+00 1851878480
-2.736890 0.000000 -12.585431 0.000000000000000e+00 1851878480
-2.844584 0.310792 -13.080657 0.000000000000000e+00 1851878480
-2.916440 0.640030 -13.411080 0.000000000000000e+00 1851878480
-2.785992 -0.904249 -12.627688 0.000000000000000e+00 1851878480
-2.773703 -0.600382 -12.571991 0.000000000000000e+00 1851878480
-2.766447 -0.298122 -12.539102 0.000000000000000e+00 1851878480
-2.764537 0.000000 -12.530444 0.000000000000000e+00 1851878480
-2.871561 0.309449 -13.015536 0.000000000000000e+00 1851878480
-2.943817 0.637204 -13.343042 0.000000000000000e+00 1851878480
-2.812695 -0.900610 -12.568439 0.000000000000000e+00 1851878480
-2.800367 -0.597983 -12.513355 0.000000000000000e+00 1851878480
-2.793174 -0.296945 -12.481214 0.000000000000000e+00 1851878480
-2.791935 0.000000 -12.475678 0.000000000000000e+00 1851878480
-2.898580 0.308150 -12.952216 0.000000000000000e+00 1851878480
-2.971033 0.634426 -13.275969 0.000000000000000e+00 1851878480
-2.839228 -0.897021 -12.509848 0.000000000000000e+00 1851878480
-2.826893 -0.595622 -12.455499 0.000000000000000e+00 1851878480
-2.819802 -0.295791 -12.424255 0.000000000000000e+00 1851878480
-2.819150 0.000000 -12.421379 0.000000000000000e+00 1851878480
-2.925615 0.306890 -12.890471 0.000000000000000e+00 1851878480
-2.998108 0.631697 -13.209885 0.000000000000000e+00 1851878480
-2.865644 -0.893497 -12.452122 0.000000000000000e+00 1851878480
-2.853296 -0.593304 -12.398464 0.000000000000000e+00 1851878480
-2.846273 -0.294653 -12.367949 0.000000000000000e+00 1851878480
-2.846114 0.000000 -12.367258 0.000000000000000e+00 1851878480
-2.952641 0.305665 -12.830152 0.000000000000000e+00 1851878480
-3.025094 0.629027 -13.144982 0.000000000000000e+00 1851878480
-2.891928 -0.890032 -12.395167 0.000000000000000e+00 1851878480
-2.879543 -0.591019 -12.342084 0.000000000000000e+00 1851878480
-2.872665 -0.293540 -12.312606 0.000000000000000e+00 1851878480
-2.872869 0.000000 -12.313478 0.000000000000000e+00 1851878480
-2.979647 0.304471 -12.771141 0.000000000000000e+00 1851878480
-3.052033 0.626422 -13.081398 0.000000000000000e+00 1851878480
-4.054151 -1.643458 -17.142786 0.000000000000000e+00 1701537140
-2.918082 -0.886625 -12.338971 0.000000000000000e+00 1851878480
-2.905699 -0.588779 -12.286613 0.000000000000000e+00 1851878480
-2.898915 -0.292443 -12.257926 0.000000000000000e+00 1851878480
-2.899430 0.000000 -12.260105 0.000000000000000e+00 1851878480
-3.006580 0.303304 -12.713181 0.000000000000000e+00 1851878480
-3.078919 0.623879 -13.019065 0.000000000000000e+00 1851878480
-4.089738 -1.637015 -17.063322 0.000000000000000e+00 1701537140
-2.944128 -0.883279 -12.283577 0.000000000000000e+00 1851878480
-2.931694 -0.586569 -12.231697 0.000000000000000e+00 1851878480
-2.925157 -0.291376 -12.204423 0.000000000000000e+00 1851878480
-2.925811 0.000000 -12.207150 0.000000000000000e+00 1851878480
-3.033432 0.302161 -12.656171 0.000000000000000e+00 1851878480
-3.105746 0.621393 -12.957881 0.000000000000000e+00 1851878480
-4.125903 -1.630975 -16.987999 0.000000000000000e+00 1701537140
-2.970024 -0.879978 -12.228779 0.000000000000000e+00 1851878480
-2.957645 -0.584410 -12.177814 0.000000000000000e+00 1851878480
-2.951243 -0.290322 -12.151452 0.000000000000000e+00 1851878480
-2.952000 0.000000 -12.154571 0.000000000000000e+00 1851878480
-3.060189 0.301040 -12.600027 0.000000000000000e+00 1851878480
-3.132531 0.618966 -12.897889 0.000000000000000e+00 1851878480
-2.982203 -1.164414 -12.119430 0.000000000000000e+00 1851878480
-2.995839 -0.876744 -12.174848 0.000000000000000e+00 1851878480
-2.983423 -0.582276 -12.124391 0.000000000000000e+00 1851878480
-2.977412 -0.289305 -12.099960 0.000000000000000e+00 1851878480
-2.978034 0.000000 -12.102488 0.000000000000000e+00 1851878480
-3.086741 0.299928 -12.544265 0.000000000000000e+00 1851878480
-3.159229 0.616588 -12.838852 0.000000000000000e+00 1851878480
-3.272645 0.957752 -13.299764 0.000000000000000e+00 1851878480
-3.008591 -1.160500 -12.069674 0.000000000000000e+00 1851878480
-3.021476 -0.873544 -12.121364 0.000000000000000e+00 1851878480
-3.009222 -0.580202 -12.072203 0.000000000000000e+00 1851878480
-3.003458 -0.288304 -12.049082 0.000000000000000e+00 1851878480
-3.003888 0.000000 -12.050806 0.000000000000000e+00 1851878480
-3.110175 0.298548 -12.477202 0.000000000000000e+00 1851878480
-3.185762 0.614241 -12.780437 0.000000000000000e+00 1851878480
-3.292922 0.952023 -13.210334 0.000000000000000e+00 1851878480
-3.034845 -1.156638 -12.020403 0.000000000000000e+00 1851878480
-3.047063 -0.870414 -12.068796 0.000000000000000e+00 1851878480
-3.034873 -0.578155 -12.020514 0.000000000000000e+00 1851878480
-3.029671 -0.287345 -11.999910 0.000000000000000e+00 1851878480
-3.029622 0.000000 -11.999716 0.000000000000000e+00 1851878480
-3.137147 0.297538 -12.425600 0.000000000000000e+00 1851878480
-3.212132 0.611924 -12.722601 0.000000000000000e+00 1851878480
-3.315537 0.947106 -13.132171 0.000000000000000e+00 1851878480
-3.060998 -1.152839 -11.971746 0.000000000000000e+00 1851878480
-3.072495 -0.867323 -12.016713 0.000000000000000e+00 1851878480
-3.060554 -0.576168 -11.970011 0.000000000000000e+00 1851878480
-3.055806 -0.286404 -11.951441 0.000000000000000e+00 1851878480
-3.055188 0.000000 -11.949026 0.000000000000000e+00 1851878480
-3.003745 0.281524 -11.747829 0.000000000000000e+00 1768716611
-3.238283 0.609626 -12.665120 0.000000000000000e+00 1851878480
-3.339943 0.942819 -13.062719 0.000000000000000e+00 1851878480
-3.087008 -1.149087 -11.923526 0.000000000000000e+00 1851878480
-3.097859 -0.864292 -11.965438 0.000000000000000e+00 1851878480
-3.086132 -0.574213 -11.920145 0.000000000000000e+00 1851878480
-3.081927 -0.285486 -11.903905 0.000000000000000e+00 1851878480
-3.080694 0.000000 -11.899141 0.000000000000000e+00 1851878480
-3.037948 0.281412 -11.734036 0.000000000000000e+00 1768716611
-3.264110 0.607328 -12.607585 0.000000000000000e+00 1851878480
-3.365392 0.938933 -12.998781 0.000000000000000e+00 1851878480
-3.112942 -1.145402 -11.875961 0.000000000000000e+00 1851878480
-3.123052 -0.861292 -11.914534 0.000000000000000e+00 1851878480
-3.111601 -0.572288 -11.870848 0.000000000000000e+00 1851878480
-3.107926 -0.284580 -11.856827 0.000000000000000e+00 1851878480
-3.106025 0.000000 -11.849577 0.000000000000000e+00 1851878480
-3.072409 0.281328 -11.721330 0.000000000000000e+00 1768716611
-3.289712 0.605046 -12.550344 0.000000000000000e+00 1851878480
-3.391319 0.935276 -12.937980 0.000000000000000e+00 1851878480
-3.138737 -1.141762 -11.828800 0.000000000000000e+00 1851878480
-3.148064 -0.858317 -11.863951 0.000000000000000e+00 1851878480
-3.136872 -0.570375 -11.821774 0.000000000000000e+00 1851878480
-3.133786 -0.283685 -11.810143 0.000000000000000e+00 1851878480
-3.131297 0.000000 -11.800763 0.000000000000000e+00 1851878480
-3.107347 0.281292 -11.710502 0.000000000000000e+00 1768716611
-3.315120 0.602786 -12.493526 0.000000000000000e+00 1851878480
-3.417695 0.931832 -12.880097 0.000000000000000e+00 1851878480
-3.164480 -1.138194 -11.782351 0.000000000000000e+00 1851878480
-3.172732 -0.855325 -11.813077 0.000000000000000e+00 1851878480
-3.161916 -0.568470 -11.772807 0.000000000000000e+00 1851878480
-3.159309 -0.282783 -11.763102 0.000000000000000e+00 1851878480
-3.156436 0.000000 -11.752402 0.000000000000000e+00 1851878480
-3.143081 0.281330 -11.702677 0.000000000000000e+00 1768716611
-3.340366 0.600553 -12.437230 0.000000000000000e+00 1851878480
-3.444437 0.928573 -12.824719 0.000000000000000e+00 1851878480
-3.190094 -1.134672 -11.736319 0.000000000000000e+00 1851878480
-3.196976 -0.852295 -11.761637 0.000000000000000e+00 1851878480
-3.186573 -0.566544 -11.723363 0.000000000000000e+00 1851878480
-3.184405 -0.281866 -11.715388 0.000000000000000e+00 1851878480
-3.181533 0.000000 -11.704823 0.000000000000000e+00 1851878480
-3.180207 0.281494 -11.699943 0.000000000000000e+00 1768716611
-3.365468 0.598350 -12.381516 0.000000000000000e+00 1851878480
-3.472308 0.925697 -12.774578 0.000000000000000e+00 1851878480
-3.215632 -1.131209 -11.690855 0.000000000000000e+00 1851878480
-3.220752 -0.849215 -11.709469 0.000000000000000e+00 1851878480
-3.210528 -0.564542 -11.672297 0.000000000000000e+00 1851878480
-3.208982 -0.280925 -11.666675 0.000000000000000e+00 1851878480
-3.206495 0.000000 -11.657633 0.000000000000000e+00 1851878480
-3.218867 0.281791 -11.702613 0.000000000000000e+00 1768716611
-3.390387 0.596168 -12.326198 0.000000000000000e+00 1851878480
-3.501528 0.923247 -12.730267 0.000000000000000e+00 1851878480
-3.241061 -1.127793 -11.645832 0.000000000000000e+00 1851878480
-3.243803 -0.846020 -11.655685 0.000000000000000e+00 1851878480
-3.233874 -0.562482 -11.620008 0.000000000000000e+00 1851878480
-3.232983 -0.279958 -11.616805 0.000000000000000e+00 1851878480
-3.231444 0.000000 -11.611275 0.000000000000000e+00 1851878480
-3.242542 0.280786 -11.651155 0.000000000000000e+00 1768716611
-3.415112 0.594005 -12.271234 0.000000000000000e+00 1851878480
-3.531741 0.921117 -12.690310 0.000000000000000e+00 1851878480
-3.266366 -1.124418 -11.601184 0.000000000000000e+00 1851878480
-3.266243 -0.842743 -11.600743 0.000000000000000e+00 1851878480
-3.256646 -0.560372 -11.566660 0.000000000000000e+00 1851878480
-3.256392 -0.278963 -11.565757 0.000000000000000e+00 1851878480
-3.256318 0.000000 -11.565495 0.000000000000000e+00 1851878480
-3.272150 0.280313 -11.621726 0.000000000000000e+00 1768716611
-3.439619 0.591857 -12.216525 0.000000000000000e+00 1851878480
-3.564007 0.919571 -12.658315 0.000000000000000e+00 1851878480
-3.291554 -1.121086 -11.556931 0.000000000000000e+00 1851878480
-3.288206 -0.839423 -11.545174 0.000000000000000e+00 1851878480
-3.278803 -0.558209 -11.512158 0.000000000000000e+00 1851878480
-3.279306 -0.277950 -11.513926 0.000000000000000e+00 1851878480
-3.281153 0.000000 -11.520412 0.000000000000000e+00 1851878480
-3.306853 0.280285 -11.610644 0.000000000000000e+00 1768716611
-3.463937 0.589727 -12.162182 0.000000000000000e+00 1851878480
-3.597957 0.918497 -12.632736 0.000000000000000e+00 1851878480
-3.316579 -1.117778 -11.512875 0.000000000000000e+00 1851878480
-3.310056 -0.836150 -11.490232 0.000000000000000e+00 1851878480
-3.299645 -0.555873 -11.454094 0.000000000000000e+00 1851878480
-3.301357 -0.276888 -11.460034 0.000000000000000e+00 1851878480
-3.305991 0.000000 -11.476122 0.000000000000000e+00 1851878480
-3.403193 0.285430 -11.813541 0.000000000000000e+00 1851878480
-3.488084 0.587618 -12.108225 0.000000000000000e+00 1851878480
-3.633071 0.917747 -12.611519 0.000000000000000e+00 1851878480
-3.341457 -1.114499 -11.469082 0.000000000000000e+00 1851878480
-3.331198 -0.832776 -11.433871 0.000000000000000e+00 1851878480
-3.318912 -0.553328 -11.391699 0.000000000000000e+00 1851878480
-3.322735 -0.275795 -11.404820 0.000000000000000e+00 1851878480
-3.330710 0.000000 -11.432194 0.000000000000000e+00 1851878480
-3.426824 0.284435 -11.762094 0.000000000000000e+00 1851878480
-3.512072 0.585532 -12.054694 0.000000000000000e+00 1851878480
-3.669814 0.917428 -12.596122 0.000000000000000e+00 1851878480
-3.366124 -1.111229 -11.425329 0.000000000000000e+00 1851878480
-3.352091 -0.829417 -11.377699 0.000000000000000e+00 1851878480
-3.338396 -0.550877 -11.331214 0.000000000000000e+00 1851878480
-3.343958 -0.274714 -11.350096 0.000000000000000e+00 1851878480
-3.355167 0.000000 -11.388142 0.000000000000000e+00 1851878480
-3.450198 0.283442 -11.710696 0.000000000000000e+00 1851878480
-3.535890 0.583466 -12.001551 0.000000000000000e+00 1851878480
-3.706918 0.917213 -12.582057 0.000000000000000e+00 1851878480
-3.390564 -1.107960 -11.381546 0.000000000000000e+00 1851878480
-3.372528 -0.826022 -11.321002 0.000000000000000e+00 1851878480
-3.354717 -0.547963 -11.261213 0.000000000000000e+00 1851878480
-3.364397 -0.273594 -11.293709 0.000000000000000e+00 1851878480
-3.379095 0.000000 -11.343047 0.000000000000000e+00 1851878480
-3.473364 0.282455 -11.659492 0.000000000000000e+00 1851878480
-3.555989 0.580839 -11.936849 0.000000000000000e+00 1851878480
-3.745699 0.917422 -12.573675 0.000000000000000e+00 1851878480
-3.414649 -1.104652 -11.337318 0.000000000000000e+00 1851878480
-3.381273 -0.819867 -11.226502 0.000000000000000e+00 1851878480
-3.369978 -0.544941 -11.188999 0.000000000000000e+00 1851878480
-3.383308 -0.272376 -11.233256 0.000000000000000e+00 1851878480
-3.402018 0.000000 -11.295377 0.000000000000000e+00 1851878480
-3.496349 0.281476 -11.608575 0.000000000000000e+00 1851878480
-3.585885 0.579854 -11.905854 0.000000000000000e+00 1851878480
-3.784518 0.917643 -12.565354 0.000000000000000e+00 1851878480
-3.437171 -1.100919 -11.288687 0.000000000000000e+00 1851878480
-3.405868 -0.817647 -11.185877 0.000000000000000e+00 1851878480
-3.396461 -0.543781 -11.154979 0.000000000000000e+00 1851878480
-3.401353 -0.271115 -11.171048 0.000000000000000e+00 1851878480
-3.423969 0.000000 -11.245327 0.000000000000000e+00 1851878480
-3.519320 0.280518 -11.558487 0.000000000000000e+00 1851878480
-3.615361 0.578827 -11.873913 0.000000000000000e+00 1851878480
-3.824620 0.918177 -12.561185 0.000000000000000e+00 1851878480
-3.457460 -1.096561 -11.233629 0.000000000000000e+00 1851878480
-3.444584 -0.818835 -11.191793 0.000000000000000e+00 1851878480
-3.436691 -0.544828 -11.166147 0.000000000000000e+00 1851878480
-3.418664 -0.269823 -11.107574 0.000000000000000e+00 1851878480
-3.445102 0.000000 -11.193476 0.000000000000000e+00 1851878480
-3.542249 0.279577 -11.509116 0.000000000000000e+00 1851878480
-3.645790 0.577977 -11.845532 0.000000000000000e+00 1851878480
-3.864834 0.918735 -12.557226 0.000000000000000e+00 1851878480
-3.483906 -1.094231 -11.199302 0.000000000000000e+00 1851878480
-3.430487 -0.807574 -11.027583 0.000000000000000e+00 1701537140
-3.479542 -0.546271 -11.185273 0.000000000000000e+00 1851878480
-3.436402 -0.268592 -11.046597 0.000000000000000e+00 1851878480
-3.465426 0.000000 -11.139895 0.000000000000000e+00 1851878480
-3.565150 0.278655 -11.460467 0.000000000000000e+00 1851878480
-3.677085 0.577284 -11.820290 0.000000000000000e+00 1851878480
-3.906331 0.919593 -12.557221 0.000000000000000e+00 1851878480
-3.524401 -1.096326 -11.210159 0.000000000000000e+00 1851878480
-3.442719 -0.802675 -10.950354 0.000000000000000e+00 1701537140
-3.445136 -0.535678 -10.958042 0.000000000000000e+00 1701537140
-3.475608 -0.269050 -11.054965 0.000000000000000e+00 1851878480
-3.484634 0.000000 -11.083672 0.000000000000000e+00 1851878480
-3.588316 0.277774 -11.413459 0.000000000000000e+00 1851878480
-3.712077 0.577184 -11.807108 0.000000000000000e+00 1851878480
-3.947879 0.920454 -12.557132 0.000000000000000e+00 1851878480
-3.567619 -1.099230 -11.229154 0.000000000000000e+00 1851878480
-3.534029 -0.816139 -11.123427 0.000000000000000e+00 1701537140
-3.476030 -0.535349 -10.940876 0.000000000000000e+00 1701537140
-3.517940 -0.269740 -11.072786 0.000000000000000e+00 1851878480
-3.502524 0.000000 -11.024267 0.000000000000000e+00 1851878480
-3.611554 0.276918 -11.367440 0.000000000000000e+00 1851878480
-3.751202 0.577729 -11.806985 0.000000000000000e+00 1851878480
-3.990889 0.921645 -12.561403 0.000000000000000e+00 1851878480
-3.482805 -1.063012 -10.848710 0.000000000000000e+00 1701537140
-3.509588 -0.802877 -10.932135 0.000000000000000e+00 1701537140
-3.508608 -0.535287 -10.929083 0.000000000000000e+00 1701537140
-3.508239 -0.266468 -10.927934 0.000000000000000e+00 1701537140
-3.517406 0.000000 -10.956491 0.000000000000000e+00 1851878480
-3.634717 0.276075 -11.321904 0.000000000000000e+00 1851878480
-3.787585 0.577849 -11.798080 0.000000000000000e+00 1851878480
-4.034097 0.922867 -12.565948 0.000000000000000e+00 1851878480
-3.506774 -1.060371 -10.811227 0.000000000000000e+00 1701537140
-3.552789 -0.805199 -10.953091 0.000000000000000e+00 1701537140
-3.534850 -0.534274 -10.897783 0.000000000000000e+00 1701537140
-3.515154 -0.264510 -10.837062 0.000000000000000e+00 1701537140
-3.529605 0.000000 -10.881615 0.000000000000000e+00 1851878480
-3.657754 0.275240 -11.276692 0.000000000000000e+00 1851878480
-3.824096 0.577992 -11.789516 0.000000000000000e+00 1851878480
-4.078813 0.924416 -12.574797 0.000000000000000e+00 1851878480
-3.545970 -1.062350 -10.820759 0.000000000000000e+00 1701537140
-3.596565 -0.807615 -10.975154 0.000000000000000e+00 1701537140
-3.572976 -0.535064 -10.903169 0.000000000000000e+00 1701537140
-3.539348 -0.263878 -10.800551 0.000000000000000e+00 1701537140
-3.546275 0.000000 -10.821689 0.000000000000000e+00 1851878480
-3.680636 0.274412 -11.231700 0.000000000000000e+00 1851878480
-3.860947 0.578189 -11.781931 0.000000000000000e+00 1851878480
-4.124439 0.926150 -12.585996 0.000000000000000e+00 1851878480
-3.572882 -1.060656 -10.792784 0.000000000000000e+00 1701537140
-3.649394 -0.812008 -11.023906 0.000000000000000e+00 1701537140
-3.647469 -0.541241 -11.018090 0.000000000000000e+00 1701537140
-3.656727 -0.270144 -11.046059 0.000000000000000e+00 1701537140
-3.564391 0.000000 -10.767133 0.000000000000000e+00 1851878480
-3.703165 0.273575 -11.186335 0.000000000000000e+00 1851878480
-3.898010 0.578418 -11.774915 0.000000000000000e+00 1851878480
-4.171261 0.928126 -12.600337 0.000000000000000e+00 1851878480
-3.582452 -1.053900 -10.713283 0.000000000000000e+00 1701537140
-3.690609 -0.813769 -11.036724 0.000000000000000e+00 1701537140
-3.688635 -0.542410 -11.030820 0.000000000000000e+00 1701537140
-3.600413 -0.263584 -10.766994 0.000000000000000e+00 1701537140
-3.592605 0.000000 -10.743645 0.000000000000000e+00 1851878480
-3.724829 0.272692 -11.139060 0.000000000000000e+00 1851878480
-3.935538 0.578717 -11.769182 0.000000000000000e+00 1851878480
-4.220051 0.930509 -12.620015 0.000000000000000e+00 1851878480
-3.608220 -1.051997 -10.683104 0.000000000000000e+00 1701537140
-3.731806 -0.815501 -11.049014 0.000000000000000e+00 1701537140
-3.729853 -0.543571 -11.043231 0.000000000000000e+00 1701537140
-3.631757 -0.263503 -10.752792 0.000000000000000e+00 1701537140
-3.629324 0.000000 -10.745590 0.000000000000000e+00 1851878480
-3.745301 0.271741 -11.088970 0.000000000000000e+00 1851878480
-3.973722 0.579112 -11.765271 0.000000000000000e+00 1851878480
-4.270545 0.933230 -12.644095 0.000000000000000e+00 1851878480
-3.649820 -1.054713 -10.699718 0.000000000000000e+00 1701537140
-3.773115 -0.817234 -11.061170 0.000000000000000e+00 1701537140
-3.771109 -0.544722 -11.055288 0.000000000000000e+00 1701537140
-3.674870 -0.264272 -10.773156 0.000000000000000e+00 1701537140
-3.668786 0.000000 -10.755321 0.000000000000000e+00 1851878480
-3.763929 0.270677 -11.034240 0.000000000000000e+00 1851878480
-4.012396 0.579575 -11.762640 0.000000000000000e+00 1851878480
-4.323329 0.936407 -12.674164 0.000000000000000e+00 1851878480
-3.752927 -1.075009 -10.894350 0.000000000000000e+00 1701537140
-3.814449 -0.818950 -11.072944 0.000000000000000e+00 1701537140
-3.812433 -0.545868 -11.067090 0.000000000000000e+00 1701537140
-3.660215 -0.260913 -10.625218 0.000000000000000e+00 1701537140
-3.709162 0.000000 -10.767305 0.000000000000000e+00 1851878480
-3.779299 0.269402 -10.970907 0.000000000000000e+00 1851878480
-4.051643 0.580118 -11.761493 0.000000000000000e+00 1851878480
-4.379470 0.940259 -12.713140 0.000000000000000e+00 1851878480
-3.669105 -1.303984 -10.547611 0.000000000000000e+00 1701537140
-3.792237 -1.076846 -10.901582 0.000000000000000e+00 1701537140
-3.672030 -0.781535 -10.556023 0.000000000000000e+00 1701537140
-3.853892 -0.547017 -11.078822 0.000000000000000e+00 1701537140
-3.696528 -0.261216 -10.626445 0.000000000000000e+00 1701537140
-3.750520 0.000000 -10.781656 0.000000000000000e+00 1851878480
-3.778717 0.267024 -10.862716 0.000000000000000e+00 1851878480
-4.091574 0.580753 -11.762088 0.000000000000000e+00 1851878480
-4.440548 0.945102 -12.765288 0.000000000000000e+00 1851878480
-3.687545 -1.299278 -10.498478 0.000000000000000e+00 1701537140
-3.831500 -1.078648 -10.908318 0.000000000000000e+00 1701537140
-3.704022 -0.781571 -10.545388 0.000000000000000e+00 1701537140
-3.705486 -0.521434 -10.549556 0.000000000000000e+00 1701537140
-3.696229 -0.258951 -10.523201 0.000000000000000e+00 1701537140
-3.792081 0.000000 -10.796093 0.000000000000000e+00 1851878480
-3.774068 0.264404 -10.744808 0.000000000000000e+00 1851878480
-4.131979 0.581450 -11.763786 0.000000000000000e+00 1851878480
-4.508992 0.951424 -12.837144 0.000000000000000e+00 1851878480
-3.707204 -1.295091 -10.453512 0.000000000000000e+00 1701537140
-3.870676 -1.080406 -10.914470 0.000000000000000e+00 1701537140
-3.718001 -0.777846 -10.483960 0.000000000000000e+00 1701537140
-3.728086 -0.520151 -10.512397 0.000000000000000e+00 1701537140
-3.733333 -0.259325 -10.527192 0.000000000000000e+00 1701537140
-3.834379 0.000000 -10.812119 0.000000000000000e+00 1851878480
-3.792193 0.263413 -10.693165 0.000000000000000e+00 1851878480
-4.172832 0.582203 -11.766481 0.000000000000000e+00 1851878480
-4.592475 0.960795 -12.949786 0.000000000000000e+00 1851878480
-3.728019 -1.291386 -10.412412 0.000000000000000e+00 1701537140
-3.909825 -1.082135 -10.920197 0.000000000000000e+00 1701537140
-3.737006 -0.775232 -10.437510 0.000000000000000e+00 1701537140
-3.769473 -0.521493 -10.528193 0.000000000000000e+00 1701537140
-3.777074 -0.260152 -10.549424 0.000000000000000e+00 1701537140
-3.876404 0.000000 -10.826852 0.000000000000000e+00 1851878480
-3.811873 0.262549 -10.646617 0.000000000000000e+00 1851878480
-4.214048 0.582998 -11.769897 0.000000000000000e+00 1851878480
-3.749852 -1.288105 -10.374689 0.000000000000000e+00 1701537140
-3.741719 -1.026962 -10.352188 0.000000000000000e+00 1701537140
-3.759952 -0.773480 -10.402632 0.000000000000000e+00 1701537140
-3.813427 -0.523169 -10.550582 0.000000000000000e+00 1701537140
-3.930856 -0.268483 -10.875472 0.000000000000000e+00 1701537140
-3.918592 0.000000 -10.841541 0.000000000000000e+00 1851878480
-3.832272 0.261750 -10.602719 0.000000000000000e+00 1851878480
-4.255796 0.583858 -11.774481 0.000000000000000e+00 1851878480
-3.772714 -1.285239 -10.340279 0.000000000000000e+00 1701537140
-3.776832 -1.028026 -10.351567 0.000000000000000e+00 1701537140
-3.799080 -0.775066 -10.412544 0.000000000000000e+00 1701537140
-3.785450 -0.515035 -10.375187 0.000000000000000e+00 1701537140
-3.969175 -0.268858 -10.878742 0.000000000000000e+00 1701537140
-3.961184 0.000000 -10.856840 0.000000000000000e+00 1851878480
-3.853465 0.261021 -10.561603 0.000000000000000e+00 1851878480
-4.298031 0.584775 -11.780072 0.000000000000000e+00 1851878480
-3.796013 -1.282581 -10.307493 0.000000000000000e+00 1701537140
-3.784154 -1.021579 -10.275290 0.000000000000000e+00 1701537140
-3.843246 -0.777652 -10.435746 0.000000000000000e+00 1701537140
-3.796978 -0.512371 -10.310111 0.000000000000000e+00 1701537140
-4.007116 -0.269204 -10.880708 0.000000000000000e+00 1701537140
-4.004156 0.000000 -10.872672 0.000000000000000e+00 1851878480
-3.875231 0.260344 -10.522595 0.000000000000000e+00 1851878480
-4.340808 0.585756 -11.786798 0.000000000000000e+00 1851878480
-3.827261 -1.282641 -10.296474 0.000000000000000e+00 1701537140
-3.814029 -1.021285 -10.260875 0.000000000000000e+00 1701537140
-3.892320 -0.781188 -10.471502 0.000000000000000e+00 1701537140
-3.826676 -0.512186 -10.294901 0.000000000000000e+00 1701537140
-4.044844 -0.269533 -10.881838 0.000000000000000e+00 1701537140
-4.047354 0.000000 -10.888588 0.000000000000000e+00 1851878480
-3.897541 0.259717 -10.485549 0.000000000000000e+00 1851878480
-4.384185 0.586807 -11.794767 0.000000000000000e+00 1851878480
-3.865747 -1.285117 -10.304743 0.000000000000000e+00 1701537140
-3.853390 -1.023525 -10.271801 0.000000000000000e+00 1701537140
-3.829533 -0.762404 -10.208207 0.000000000000000e+00 1701537140
-3.869316 -0.513727 -10.314256 0.000000000000000e+00 1701537140
-4.081795 -0.269807 -10.880651 0.000000000000000e+00 1701537140
-4.090775 0.000000 -10.904590 0.000000000000000e+00 1851878480
-3.920549 0.259149 -10.450824 0.000000000000000e+00 1851878480
-4.428218 0.587933 -11.804094 0.000000000000000e+00 1851878480
-3.905145 -1.287867 -10.315063 0.000000000000000e+00 1701537140
-3.896520 -1.026731 -10.292280 0.000000000000000e+00 1701537140
-3.848386 -0.760051 -10.165141 0.000000000000000e+00 1701537140
-4.007452 -0.527827 -10.585297 0.000000000000000e+00 1701537140
-3.855604 -0.252825 -10.184207 0.000000000000000e+00 1701537140
-3.860162 0.000000 -10.196247 0.000000000000000e+00 1851878480
-3.944393 0.258647 -10.418734 0.000000000000000e+00 1851878480
-4.472935 0.589136 -11.814827 0.000000000000000e+00 1851878480
-3.947194 -1.291452 -10.331919 0.000000000000000e+00 1701537140
-4.138765 -1.081949 -10.833362 0.000000000000000e+00 1701537140
-3.875244 -0.759309 -10.143587 0.000000000000000e+00 1701537140
-4.028552 -0.526415 -10.544875 0.000000000000000e+00 1701537140
-3.872620 -0.251935 -10.136718 0.000000000000000e+00 1701537140
-3.883370 0.000000 -10.164856 0.000000000000000e+00 1851878480
-3.968881 0.258197 -10.388685 0.000000000000000e+00 1851878480
-4.518362 0.590419 -11.826970 0.000000000000000e+00 1851878480
-3.993044 -1.296226 -10.358116 0.000000000000000e+00 1701537140
-3.881585 -1.006774 -10.068987 0.000000000000000e+00 1701537140
-3.906273 -0.759398 -10.133029 0.000000000000000e+00 1701537140
-4.049633 -0.525027 -10.504910 0.000000000000000e+00 1701537140
-3.897356 -0.251559 -10.109899 0.000000000000000e+00 1701537140
-3.906893 0.000000 -10.134638 0.000000000000000e+00 1851878480
-3.994614 0.257837 -10.362189 0.000000000000000e+00 1851878480
-4.564510 0.591780 -11.840525 0.000000000000000e+00 1851878480
-4.045053 -1.302922 -10.399470 0.000000000000000e+00 1701537140
-3.904504 -1.004861 -10.038130 0.000000000000000e+00 1701537140
-3.939010 -0.759821 -10.126842 0.000000000000000e+00 1701537140
-4.070664 -0.523659 -10.465314 0.000000000000000e+00 1701537140
-3.925014 -0.251379 -10.090859 0.000000000000000e+00 1701537140
-3.932314 0.000000 -10.109629 0.000000000000000e+00 1851878480
-4.022859 0.257645 -10.342409 0.000000000000000e+00 1851878480
-4.611405 0.593221 -11.855511 0.000000000000000e+00 1851878480
-4.111610 -1.314177 -10.476951 0.000000000000000e+00 1701537140
-3.932191 -1.004206 -10.019768 0.000000000000000e+00 1701537140
-3.974309 -0.760735 -10.127090 0.000000000000000e+00 1701537140
-3.929333 -0.501591 -10.012483 0.000000000000000e+00 1701537140
-3.952345 -0.251183 -10.071120 0.000000000000000e+00 1701537140
-3.958757 0.000000 -10.087461 0.000000000000000e+00 1851878480
-4.054119 0.257651 -10.330456 0.000000000000000e+00 1851878480
-4.659071 0.594745 -11.871958 0.000000000000000e+00 1851878480
-3.960088 -1.003621 -10.002040 0.000000000000000e+00 1701537140
-3.944876 -0.749346 -9.963620 0.000000000000000e+00 1701537140
-3.951065 -0.500521 -9.979251 0.000000000000000e+00 1701537140
-3.990569 -0.251679 -10.079026 0.000000000000000e+00 1701537140
-3.985116 0.000000 -10.065256 0.000000000000000e+00 1851878480
-4.087397 0.257786 -10.323586 0.000000000000000e+00 1851878480
-4.707543 0.596352 -11.889896 0.000000000000000e+00 1851878480
-3.997499 -1.005448 -10.008235 0.000000000000000e+00 1701537140
-3.972214 -0.748838 -9.944930 0.000000000000000e+00 1701537140
-3.979690 -0.500338 -9.963647 0.000000000000000e+00 1701537140
-4.031311 -0.252328 -10.092888 0.000000000000000e+00 1701537140
-4.011248 0.000000 -10.042658 0.000000000000000e+00 1851878480
-4.121896 0.257998 -10.319679 0.000000000000000e+00 1851878480
-4.756837 0.598044 -11.909330 0.000000000000000e+00 1851878480
-4.038686 -1.008199 -10.023485 0.000000000000000e+00 1701537140
-4.001024 -0.748620 -9.930014 0.000000000000000e+00 1701537140
-4.008118 -0.500138 -9.947619 0.000000000000000e+00 1701537140
-4.003757 -0.248726 -9.936795 0.000000000000000e+00 1851878480
-4.037012 0.000000 -10.019330 0.000000000000000e+00 1851878480
-4.157462 0.258275 -10.318271 0.000000000000000e+00 1851878480
-4.807042 0.599829 -11.930444 0.000000000000000e+00 1851878480
-4.080593 -1.011098 -10.040038 0.000000000000000e+00 1701537140
-4.036174 -0.749590 -9.930750 0.000000000000000e+00 1701537140
-4.048075 -0.501374 -9.960031 0.000000000000000e+00 1701537140
-4.028509 -0.248406 -9.911890 0.000000000000000e+00 1851878480
-4.062405 0.000000 -9.995288 0.000000000000000e+00 1851878480
-4.194165 0.258620 -10.319476 0.000000000000000e+00 1851878480
-4.858430 0.601740 -11.953857 0.000000000000000e+00 1851878480
-4.123942 -1.014317 -10.059609 0.000000000000000e+00 1701537140
-4.077305 -0.751654 -9.945848 0.000000000000000e+00 1701537140
-4.089324 -0.502754 -9.975166 0.000000000000000e+00 1701537140
-4.053987 -0.248136 -9.888967 0.000000000000000e+00 1851878480
-4.087653 0.000000 -9.971089 0.000000000000000e+00 1851878480
-4.234076 0.259159 -10.328260 0.000000000000000e+00 1851878480
-4.911326 0.603814 -11.980291 0.000000000000000e+00 1851878480
-4.169102 -1.017940 -10.083014 0.000000000000000e+00 1701537140
-4.119062 -0.753809 -9.961991 0.000000000000000e+00 1701537140
-4.067058 -0.496367 -9.836220 0.000000000000000e+00 1851878480
-4.080478 -0.247935 -9.868675 0.000000000000000e+00 1851878480
-4.112760 0.000000 -9.946750 0.000000000000000e+00 1851878480
-4.277195 0.259888 -10.344440 0.000000000000000e+00 1851878480
-4.966263 0.606111 -12.010956 0.000000000000000e+00 1851878480
-4.215296 -1.021771 -10.108296 0.000000000000000e+00 1701537140
-4.092325 -0.743497 -9.813412 0.000000000000000e+00 1851878480
-4.091974 -0.495794 -9.812570 0.000000000000000e+00 1851878480
-4.107116 -0.247748 -9.848879 0.000000000000000e+00 1851878480
-4.137753 0.000000 -9.922346 0.000000000000000e+00 1851878480
-4.328843 0.261123 -10.380583 0.000000000000000e+00 1851878480
-5.023853 0.608703 -12.047219 0.000000000000000e+00 1851878480
-4.263511 -1.026042 -10.137737 0.000000000000000e+00 1701537140
-4.117372 -0.742680 -9.790248 0.000000000000000e+00 1851878480
-4.118119 -0.495382 -9.792025 0.000000000000000e+00 1851878480
-4.133766 -0.247566 -9.829230 0.000000000000000e+00 1851878480
-4.162837 0.000000 -9.898355 0.000000000000000e+00 1851878480
-4.380407 0.262337 -10.415692 0.000000000000000e+00 1851878480
-5.083908 0.611559 -12.088470 0.000000000000000e+00 1851878480
-4.170829 -0.996595 -9.834253 0.000000000000000e+00 1851878480
-4.143423 -0.742061 -9.769635 0.000000000000000e+00 1851878480
-4.144936 -0.495059 -9.773201 0.000000000000000e+00 1851878480
-4.160395 -0.247388 -9.809652 0.000000000000000e+00 1851878480
-4.187872 0.000000 -9.874441 0.000000000000000e+00 1851878480
-4.410123 0.262237 -10.398476 0.000000000000000e+00 1851878480
-5.146870 0.614728 -12.135628 0.000000000000000e+00 1851878480
-4.196536 -0.995661 -9.812430 0.000000000000000e+00 1851878480
-4.170172 -0.741581 -9.750786 0.000000000000000e+00 1851878480
-4.171779 -0.494749 -9.754543 0.000000000000000e+00 1851878480
-4.186963 -0.247211 -9.790048 0.000000000000000e+00 1851878480
-4.213034 0.000000 -9.851007 0.000000000000000e+00 1851878480
-4.439688 0.262132 -10.380975 0.000000000000000e+00 1851878480
-5.213517 0.618294 -12.190359 0.000000000000000e+00 1851878480
-4.223317 -0.995004 -9.793257 0.000000000000000e+00 1851878480
-4.196909 -0.741113 -9.732020 0.000000000000000e+00 1851878480
-4.198530 -0.494438 -9.735781 0.000000000000000e+00 1851878480
-4.213415 -0.247032 -9.770296 0.000000000000000e+00 1851878480
-4.238457 0.000000 -9.828364 0.000000000000000e+00 1851878480
-4.469651 0.262055 -10.364470 0.000000000000000e+00 1851878480
-5.286661 0.622581 -12.258998 0.000000000000000e+00 1851878480
-4.250262 -0.994402 -9.774558 0.000000000000000e+00 1851878480
-4.223549 -0.740641 -9.713127 0.000000000000000e+00 1851878480
-4.225194 -0.494124 -9.716910 0.000000000000000e+00 1851878480
-4.239683 -0.246846 -9.750231 0.000000000000000e+00 1851878480
-4.264135 0.000000 -9.806463 0.000000000000000e+00 1851878480
-4.499952 0.262000 -10.348785 0.000000000000000e+00 1851878480
-5.369643 0.627964 -12.348862 0.000000000000000e+00 1851878480
-4.277133 -0.993800 -9.755788 0.000000000000000e+00 1851878480
-4.250068 -0.740161 -9.694057 0.000000000000000e+00 1851878480
-4.251757 -0.493808 -9.697910 0.000000000000000e+00 1851878480
-4.265635 -0.246648 -9.729564 0.000000000000000e+00 1851878480
-4.290361 0.000000 -9.785961 0.000000000000000e+00 1851878480
-4.530789 0.261979 -10.334358 0.000000000000000e+00 1851878480
-5.463767 0.634573 -12.462406 0.000000000000000e+00 1851878480
-4.303880 -0.993187 -9.736835 0.000000000000000e+00 1851878480
-4.276430 -0.739667 -9.674733 0.000000000000000e+00 1851878480
-4.278230 -0.493490 -9.678805 0.000000000000000e+00 1851878480
-4.291208 -0.246432 -9.708168 0.000000000000000e+00 1851878480
-4.318256 0.000000 -9.769359 0.000000000000000e+00 1851878480
-4.562526 0.262013 -10.321980 0.000000000000000e+00 1851878480
-5.586519 0.644400 -12.638598 0.000000000000000e+00 1851878480
-4.330485 -0.992559 -9.717663 0.000000000000000e+00 1851878480
-4.302640 -0.739160 -9.655179 0.000000000000000e+00 1851878480
-4.304637 -0.493174 -9.659662 0.000000000000000e+00 1851878480
-4.316623 -0.246213 -9.686558 0.000000000000000e+00 1851878480
-4.349173 0.000000 -9.759599 0.000000000000000e+00 1851878480
-4.596029 0.262150 -10.313548 0.000000000000000e+00 1851878480
-4.356959 -0.991919 -9.698295 0.000000000000000e+00 1851878480
-4.328719 -0.738645 -9.635433 0.000000000000000e+00 1851878480
-4.330885 -0.492847 -9.640256 0.000000000000000e+00 1851878480
-4.343004 -0.246054 -9.667231 0.000000000000000e+00 1851878480
-4.377965 0.000000 -9.745053 0.000000000000000e+00 1700951363
-4.631629 0.262406 -10.309690 0.000000000000000e+00 1851878480
-4.383300 -0.991265 -9.678729 0.000000000000000e+00 1851878480
-4.354651 -0.738118 -9.615470 0.000000000000000e+00 1851878480
-4.357087 -0.492525 -9.620849 0.000000000000000e+00 1851878480
-4.371034 -0.245991 -9.651645 0.000000000000000e+00 1851878480
-4.404704 0.000000 -9.725992 0.000000000000000e+00 1700951363
-4.670029 0.262818 -10.311852 0.000000000000000e+00 1851878480
-4.409448 -0.990586 -9.658849 0.000000000000000e+00 1851878480
-4.380357 -0.737567 -9.595126 0.000000000000000e+00 1851878480
-4.383209 -0.492202 -9.601375 0.000000000000000e+00 1851878480
-4.405241 -0.246278 -9.649634 0.000000000000000e+00 1700951363
-4.431360 0.000000 -9.706848 0.000000000000000e+00 1700951363
-4.712347 0.263447 -10.322348 0.000000000000000e+00 1851878480
-4.435420 -0.989886 -9.638685 0.000000000000000e+00 1851878480
-4.405749 -0.736977 -9.574207 0.000000000000000e+00 1851878480
-4.409745 -0.491934 -9.582892 0.000000000000000e+00 1851878480
-4.432778 -0.246192 -9.632943 0.000000000000000e+00 1700951363
-4.458048 0.000000 -9.687860 0.000000000000000e+00 1700951363
-4.756871 0.264192 -10.337235 0.000000000000000e+00 1851878480
-4.461153 -0.989150 -9.618114 0.000000000000000e+00 1851878480
-4.430901 -0.736362 -9.552891 0.000000000000000e+00 1851878480
-4.437631 -0.491824 -9.567399 0.000000000000000e+00 1851878480
-4.460295 -0.246108 -9.616264 0.000000000000000e+00 1700951363
-4.486241 0.000000 -9.672202 0.000000000000000e+00 1700951363
-4.802647 0.264998 -10.354364 0.000000000000000e+00 1851878480
-4.486568 -0.988363 -9.596972 0.000000000000000e+00 1851878480
-4.455941 -0.735742 -9.531461 0.000000000000000e+00 1851878480
-4.467097 -0.491893 -9.555324 0.000000000000000e+00 1851878480
-4.487793 -0.246027 -9.599593 0.000000000000000e+00 1700951363
-4.514924 0.000000 -9.657626 0.000000000000000e+00 1700951363
-4.849588 0.265861 -10.373490 0.000000000000000e+00 1851878480
-4.511757 -0.987546 -9.575477 0.000000000000000e+00 1851878480
-4.481488 -0.735221 -9.511235 0.000000000000000e+00 1851878480
-4.512144 -0.493671 -9.576297 0.000000000000000e+00 1851878480
-4.515406 -0.245955 -9.583220 0.000000000000000e+00 1700951363
-4.543598 0.000000 -9.643054 0.000000000000000e+00 1700951363
-4.896039 0.266688 -10.391054 0.000000000000000e+00 1851878480
-4.537017 -0.986764 -9.554247 0.000000000000000e+00 1851878480
-4.509013 -0.735035 -9.495275 0.000000000000000e+00 1851878480
-4.539890 -0.493550 -9.560296 0.000000000000000e+00 1851878480
-4.543574 -0.245916 -9.568054 0.000000000000000e+00 1700951363
-4.572296 0.000000 -9.628539 0.000000000000000e+00 1700951363
-4.941076 0.267431 -10.405131 0.000000000000000e+00 1851878480
-4.537904 -0.735079 -9.482204 0.000000000000000e+00 1851878480
-4.567966 -0.493471 -9.545022 0.000000000000000e+00 1851878480
-4.572558 -0.245924 -9.554617 0.000000000000000e+00 1700951363
-4.600965 0.000000 -9.613974 0.000000000000000e+00 1700951363
-4.985312 0.268123 -10.417090 0.000000000000000e+00 1851878480
-4.566966 -0.735158 -9.469485 0.000000000000000e+00 1851878480
-4.595980 -0.493390 -9.529645 0.000000000000000e+00 1851878480
-4.601543 -0.245935 -9.541181 0.000000000000000e+00 1700951363
-4.630973 0.000000 -9.602201 0.000000000000000e+00 1700951363
-5.028757 0.268767 -10.426996 0.000000000000000e+00 1851878480
-4.596168 -0.735264 -9.457032 0.000000000000000e+00 1851878480
-4.623819 -0.493296 -9.513927 0.000000000000000e+00 1851878480
-4.630532 -0.245947 -9.527740 0.000000000000000e+00 1700951363
-4.660998 0.000000 -9.590425 0.000000000000000e+00 1700951363
-5.072250 0.269408 -10.436614 0.000000000000000e+00 1851878480
-4.625545 -0.735403 -9.444914 0.000000000000000e+00 1851878480
-4.652006 -0.493244 -9.498945 0.000000000000000e+00 1851878480
-4.659653 -0.245968 -9.514561 0.000000000000000e+00 1700951363
-4.691038 0.000000 -9.578646 0.000000000000000e+00 1700951363
-5.116401 0.270079 -10.447195 0.000000000000000e+00 1851878480
-4.655164 -0.735585 -9.433261 0.000000000000000e+00 1851878480
-4.680226 -0.493201 -9.484046 0.000000000000000e+00 1851878480
-4.689529 -0.246031 -9.502898 0.000000000000000e+00 1700951363
-4.721113 0.000000 -9.566900 0.000000000000000e+00 1700951363
-5.161763 0.270807 -10.459837 0.000000000000000e+00 1851878480
-4.685152 -0.735830 -9.422318 0.000000000000000e+00 1851878480
-4.709076 -0.493230 -9.470431 0.000000000000000e+00 1851878480
-4.720108 -0.246133 -9.492618 0.000000000000000e+00 1700951363
-4.770025 0.000000 -9.593005 0.000000000000000e+00 1851878480
-5.208325 0.271591 -10.474473 0.000000000000000e+00 1851878480
-4.715609 -0.736152 -9.412257 0.000000000000000e+00 1851878480
-4.738757 -0.493348 -9.458461 0.000000000000000e+00 1851878480
-4.750562 -0.246228 -9.482023 0.000000000000000e+00 1700951363
-4.802333 0.000000 -9.585357 0.000000000000000e+00 1851878480
-5.256153 0.272434 -10.491171 0.000000000000000e+00 1851878480
-4.746553 -0.736552 -9.403100 0.000000000000000e+00 1851878480
-4.768453 -0.493472 -9.446484 0.000000000000000e+00 1851878480
-4.781040 -0.246326 -9.471420 0.000000000000000e+00 1700951363
-4.834781 0.000000 -9.577883 0.000000000000000e+00 1851878480
-5.305374 0.273341 -10.510145 0.000000000000000e+00 1851878480
-4.777926 -0.737020 -9.394710 0.000000000000000e+00 1851878480
-4.799806 -0.493768 -9.437731 0.000000000000000e+00 1851878480
-4.811614 -0.246430 -9.460948 0.000000000000000e+00 1700951363
-4.867528 0.000000 -9.570890 0.000000000000000e+00 1851878480
-5.356884 0.274357 -10.533099 0.000000000000000e+00 1851878480
-4.809791 -0.737565 -9.387194 0.000000000000000e+00 1851878480
-4.832064 -0.494159 -9.430664 0.000000000000000e+00 1851878480
-4.843029 -0.246578 -9.452066 0.000000000000000e+00 1700951363
-4.900421 0.000000 -9.564075 0.000000000000000e+00 1851878480
-5.412592 0.275577 -10.563673 0.000000000000000e+00 1851878480
-4.841923 -0.738151 -9.380089 0.000000000000000e+00 1851878480
-4.864374 -0.494554 -9.423583 0.000000000000000e+00 1851878480
-4.874536 -0.246731 -9.443268 0.000000000000000e+00 1700951363
-4.933868 0.000000 -9.558210 0.000000000000000e+00 1851878480
-5.475131 0.277131 -10.606780 0.000000000000000e+00 1851878480
-4.874444 -0.738796 -9.373621 0.000000000000000e+00 1851878480
-4.896737 -0.494955 -9.416491 0.000000000000000e+00 1851878480
-4.906873 -0.246926 -9.435983 0.000000000000000e+00 1700951363
-4.967494 0.000000 -9.552557 0.000000000000000e+00 1851878480
-5.552037 0.279393 -10.676641 0.000000000000000e+00 1851878480
-4.907192 -0.739474 -9.367472 0.000000000000000e+00 1851878480
-4.929150 -0.495360 -9.409388 0.000000000000000e+00 1851878480
-4.939335 -0.247128 -9.428831 0.000000000000000e+00 1700951363
-5.001316 0.000000 -9.547149 0.000000000000000e+00 1851878480
-5.658255 0.283097 -10.801198 0.000000000000000e+00 1851878480
-4.940167 -0.740185 -9.361621 0.000000000000000e+00 1851878480
-4.961618 -0.495771 -9.402270 0.000000000000000e+00 1851878480
-4.971654 -0.247322 -9.421288 0.000000000000000e+00 1700951363
-5.035351 0.000000 -9.541996 0.000000000000000e+00 1851878480
-6.534591 -1.298854 -12.293089 0.000000000000000e+00 1701537140
-4.973393 -0.740932 -9.356112 0.000000000000000e+00 1851878480
-4.994140 -0.496187 -9.395143 0.000000000000000e+00 1851878480
-5.004431 -0.247539 -9.414502 0.000000000000000e+00 1700951363
-5.069530 0.000000 -9.536967 0.000000000000000e+00 1851878480
-6.556336 -1.295830 -12.244748 0.000000000000000e+00 1701537140
-5.006775 -0.741700 -9.350757 0.000000000000000e+00 1851878480
-5.026718 -0.496609 -9.388003 0.000000000000000e+00 1851878480
-5.037392 -0.247765 -9.407936 0.000000000000000e+00 1700951363
-5.103912 0.000000 -9.532171 0.000000000000000e+00 1851878480
-6.578621 -1.292958 -12.197826 0.000000000000000e+00 1701537140
-5.040407 -0.742504 -9.345728 0.000000000000000e+00 1851878480
-5.060172 -0.497116 -9.382377 0.000000000000000e+00 1851878480
-5.070652 -0.248005 -9.401809 0.000000000000000e+00 1700951363
-5.138471 0.000000 -9.527555 0.000000000000000e+00 1851878480
-6.601971 -1.290337 -12.153247 0.000000000000000e+00 1701537140
-5.074191 -0.743327 -9.340832 0.000000000000000e+00 1851878480
-5.207253 -0.508723 -9.585779 0.000000000000000e+00 1851878480
-5.104678 -0.248282 -9.396954 0.000000000000000e+00 1700951363
-5.172903 0.000000 -9.522544 0.000000000000000e+00 1851878480
-6.629488 -1.288567 -12.116635 0.000000000000000e+00 1701537140
-5.108197 -0.744181 -9.336189 0.000000000000000e+00 1851878480
-5.240555 -0.509152 -9.578099 0.000000000000000e+00 1851878480
-5.138736 -0.248560 -9.392007 0.000000000000000e+00 1700951363
-5.207687 0.000000 -9.518027 0.000000000000000e+00 1851878480
-6.893415 -1.332527 -12.509273 0.000000000000000e+00 1701537140
-5.142398 -0.745060 -9.331756 0.000000000000000e+00 1851878480
-5.273911 -0.509586 -9.570408 0.000000000000000e+00 1851878480
-5.172775 -0.248836 -9.386880 0.000000000000000e+00 1700951363
-5.243262 0.000000 -9.514790 0.000000000000000e+00 1851878480
-6.943746 -1.334956 -12.511190 0.000000000000000e+00 1701537140
-5.176805 -0.745966 -9.327529 0.000000000000000e+00 1851878480
-5.307327 -0.510026 -9.562702 0.000000000000000e+00 1851878480
-5.207384 -0.249138 -9.382627 0.000000000000000e+00 1700951363
-5.279150 0.000000 -9.511934 0.000000000000000e+00 1851878480
-6.975964 -1.333908 -12.480380 0.000000000000000e+00 1701537140
-5.211362 -0.746890 -9.323410 0.000000000000000e+00 1851878480
-5.333588 -0.509782 -9.542079 0.000000000000000e+00 1851878480
-5.242184 -0.249449 -9.378552 0.000000000000000e+00 1700951363
-5.315585 0.000000 -9.509871 0.000000000000000e+00 1851878480
-7.007986 -1.332845 -12.449359 0.000000000000000e+00 1701537140
-5.246130 -0.747841 -9.319505 0.000000000000000e+00 1851878480
-5.354428 -0.509029 -9.511891 0.000000000000000e+00 1851878480
-5.277065 -0.249762 -9.374458 0.000000000000000e+00 1700951363
-5.353144 0.000000 -9.509610 0.000000000000000e+00 1851878480
-6.862516 -1.298229 -12.105390 0.000000000000000e+00 1701537140
-5.281019 -0.748806 -9.315648 0.000000000000000e+00 1851878480
-5.375185 -0.508282 -9.481755 0.000000000000000e+00 1851878480
-5.313111 -0.250129 -9.372260 0.000000000000000e+00 1700951363
-5.392428 0.000000 -9.512173 0.000000000000000e+00 1851878480
-6.880733 -1.294793 -12.052649 0.000000000000000e+00 1701537140
-5.316123 -0.749798 -9.311996 0.000000000000000e+00 1851878480
-5.398212 -0.507760 -9.455789 0.000000000000000e+00 1851878480
-5.350513 -0.250558 -9.372237 0.000000000000000e+00 1700951363
-5.433314 0.000000 -9.517275 0.000000000000000e+00 1851878480
-6.783196 -1.269736 -11.799006 0.000000000000000e+00 1701537140
-5.351336 -0.750802 -9.308361 0.000000000000000e+00 1851878480
-5.421419 -0.507266 -9.430268 0.000000000000000e+00 1851878480
-5.388287 -0.251002 -9.372636 0.000000000000000e+00 1700951363
-5.475434 0.000000 -9.524223 0.000000000000000e+00 1851878480
-6.805163 -1.267206 -11.755023 0.000000000000000e+00 1701537140
-5.386754 -0.751830 -9.304908 0.000000000000000e+00 1851878480
-5.445501 -0.506862 -9.406385 0.000000000000000e+00 1851878480
-5.426531 -0.251465 -9.373618 0.000000000000000e+00 1851878480
-5.518008 0.000000 -9.531632 0.000000000000000e+00 1851878480
-6.828213 -1.264915 -11.713230 0.000000000000000e+00 1701537140
-5.422278 -0.752870 -9.301466 0.000000000000000e+00 1851878480
-5.471073 -0.506606 -9.385168 0.000000000000000e+00 1851878480
-5.454631 -0.251459 -9.356964 0.000000000000000e+00 1851878480
-5.560476 0.000000 -9.538531 0.000000000000000e+00 1851878480
-6.851696 -1.262738 -11.672457 0.000000000000000e+00 1701537140
-5.457997 -0.753932 -9.298171 0.000000000000000e+00 1851878480
-5.497295 -0.506416 -9.365117 0.000000000000000e+00 1851878480
-5.486268 -0.251617 -9.346333 0.000000000000000e+00 1851878480
-5.602940 0.000000 -9.545093 0.000000000000000e+00 1851878480
-6.875471 -1.260648 -11.632456 0.000000000000000e+00 1701537140
-5.493791 -0.755001 -9.294822 0.000000000000000e+00 1851878480
-5.525031 -0.506371 -9.347675 0.000000000000000e+00 1851878480
-5.522912 -0.252003 -9.344090 0.000000000000000e+00 1851878480
-5.645261 0.000000 -9.551090 0.000000000000000e+00 1851878480
-6.929528 -1.264115 -11.643606 0.000000000000000e+00 1701537140
-5.529673 -0.756078 -9.291447 0.000000000000000e+00 1851878480
-5.553835 -0.506430 -9.332046 0.000000000000000e+00 1851878480
