# .PCD v0.7 - Point Cloud Data file format
VERSION 0.7
FIELDS x y z rgb label
SIZE 4 4 4 4 4
TYPE F F F F U
COUNT 1 1 1 1 1
WIDTH 794
HEIGHT 1
VIEWPOINT 0 0 0 1 0 0 0
POINTS 794
DATA ascii
0.865584 2.061145 0.243571 0.000000000000000e+00 1851878480
0.916042 2.087580 0.363169 0.000000000000000e+00 1851878480
0.947120 2.100385 0.479915 0.000000000000000e+00 1851878480
0.929309 2.078482 0.593520 0.000000000000000e+00 1851878480
0.968595 2.097388 0.707394 0.000000000000000e+00 1851878480
0.726504 1.914127 0.832934 0.000000000000000e+00 1851878480
0.351412 1.633870 0.981784 0.000000000000000e+00 1634431585
0.865951 2.042912 0.241759 0.000000000000000e+00 1851878480
0.928591 2.078240 0.362460 0.000000000000000e+00 1851878480
0.966165 2.095834 0.479369 0.000000000000000e+00 1851878480
0.951483 2.076106 0.592710 0.000000000000000e+00 1851878480
0.978297 2.086215 0.706409 0.000000000000000e+00 1851878480
0.741975 1.906007 0.831620 0.000000000000000e+00 1851878480
0.362058 1.620527 0.980613 0.000000000000000e+00 1634431585
0.881367 2.035383 0.241415 0.000000000000000e+00 1851878480
0.921163 2.054579 0.360357 0.000000000000000e+00 1851878480
0.981539 2.088731 0.478678 0.000000000000000e+00 1851878480
0.958444 2.062851 0.591717 0.000000000000000e+00 1851878480
0.989167 2.075899 0.705406 0.000000000000000e+00 1851878480
0.755382 1.896443 0.830404 0.000000000000000e+00 1851878480
0.396818 1.624801 0.977666 0.000000000000000e+00 1634431585
0.887807 2.021444 0.240188 0.000000000000000e+00 1851878480
0.942360 2.051473 0.360250 0.000000000000000e+00 1851878480
0.984907 2.072978 0.477494 0.000000000000000e+00 1851878480
0.973235 2.055279 0.590822 0.000000000000000e+00 1851878480
0.979634 2.050704 0.704730 0.000000000000000e+00 1851878480
0.785347 1.899046 0.828449 0.000000000000000e+00 1851878480
0.427417 1.626246 0.975034 0.000000000000000e+00 1634431585
0.886378 2.001774 0.238174 0.000000000000000e+00 1851878480
0.954812 2.042116 0.359533 0.000000000000000e+00 1851878480
0.985573 2.055203 0.476192 0.000000000000000e+00 1851878480
0.966833 2.032238 0.589655 0.000000000000000e+00 1851878480
0.998869 2.046482 0.703596 0.000000000000000e+00 1851878480
0.784224 1.878924 0.827891 0.000000000000000e+00 1851878480
0.441954 1.616003 0.973591 0.000000000000000e+00 1634431585
0.891725 1.986954 0.236823 0.000000000000000e+00 1851878480
0.956581 2.024968 0.358057 0.000000000000000e+00 1851878480
0.992586 2.042019 0.475151 0.000000000000000e+00 1851878480
0.976412 2.020838 0.588692 0.000000000000000e+00 1851878480
1.019498 2.043388 0.702446 0.000000000000000e+00 1851878480
0.801397 1.872279 0.826517 0.000000000000000e+00 1851878480
0.453359 1.603471 0.972383 0.000000000000000e+00 1634431585
0.895933 1.971266 0.235351 0.000000000000000e+00 1851878480
0.972184 2.017951 0.357563 0.000000000000000e+00 1851878480
1.000259 2.029305 0.474135 0.000000000000000e+00 1851878480
0.986736 2.009997 0.587739 0.000000000000000e+00 1851878480
1.011939 2.019428 0.701732 0.000000000000000e+00 1851878480
0.814570 1.862721 0.825326 0.000000000000000e+00 1851878480
0.466736 1.592428 0.971034 0.000000000000000e+00 1634431585
0.910648 1.963305 0.234930 0.000000000000000e+00 1851878480
0.967792 1.996169 0.355635 0.000000000000000e+00 1851878480
1.013870 2.021003 0.473372 0.000000000000000e+00 1851878480
0.996465 1.998728 0.586780 0.000000000000000e+00 1851878480
1.017257 2.004960 0.700818 0.000000000000000e+00 1851878480
0.810797 1.840473 0.824888 0.000000000000000e+00 1851878480
0.493046 1.591167 0.968740 0.000000000000000e+00 1634431585
0.808305 1.868294 0.222668 0.000000000000000e+00 1701537140
0.984920 1.990323 0.355249 0.000000000000000e+00 1851878480
1.016964 2.004867 0.472158 0.000000000000000e+00 1851878480
1.015580 1.994516 0.585953 0.000000000000000e+00 1851878480
1.039077 2.002891 0.699660 0.000000000000000e+00 1851878480
0.816695 1.825409 0.824021 0.000000000000000e+00 1851878480
0.521000 1.591302 0.966332 0.000000000000000e+00 1634431585
0.844189 1.875737 0.224347 0.000000000000000e+00 1701537140
0.899805 1.907755 0.347439 0.000000000000000e+00 1701537140
1.025491 1.992770 0.471174 0.000000000000000e+00 1851878480
1.022931 1.981507 0.584962 0.000000000000000e+00 1851878480
1.044899 1.988814 0.698741 0.000000000000000e+00 1851878480
0.835180 1.819887 0.822603 0.000000000000000e+00 1851878480
0.602836 1.632723 0.959984 0.000000000000000e+00 1851878480
0.888413 1.889714 0.226900 0.000000000000000e+00 1701537140
0.937043 1.916780 0.348490 0.000000000000000e+00 1701537140
1.035891 1.982090 0.470271 0.000000000000000e+00 1851878480
1.022095 1.962255 0.583850 0.000000000000000e+00 1851878480
1.049868 1.974056 0.697835 0.000000000000000e+00 1851878480
0.835730 1.800722 0.821975 0.000000000000000e+00 1851878480
0.624018 1.628254 0.958088 0.000000000000000e+00 1851878480
0.743998 1.771084 0.087434 0.000000000000000e+00 1701537140
0.894434 1.875055 0.225563 0.000000000000000e+00 1701537140
0.942077 1.901577 0.347195 0.000000000000000e+00 1701537140
0.961744 1.906913 0.465637 0.000000000000000e+00 1701537140
1.019305 1.941414 0.582703 0.000000000000000e+00 1851878480
1.040728 1.948428 0.697128 0.000000000000000e+00 1851878480
0.827001 1.774326 0.821752 0.000000000000000e+00 1851878480
0.630731 1.612713 0.957255 0.000000000000000e+00 1851878480
-0.461129 0.755942 1.196846 0.000000000000000e+00 1851878480
0.784225 1.781722 0.090439 0.000000000000000e+00 1701537140
0.909624 1.867361 0.225165 0.000000000000000e+00 1701537140
0.976204 1.908601 0.348044 0.000000000000000e+00 1701537140
0.997865 1.915605 0.465848 0.000000000000000e+00 1701537140
1.034459 1.934281 0.581824 0.000000000000000e+00 1851878480
1.061277 1.945563 0.695999 0.000000000000000e+00 1851878480
0.828810 1.755922 0.821067 0.000000000000000e+00 1851878480
0.668501 1.621287 0.954157 0.000000000000000e+00 1851878480
-0.406651 0.772329 1.191201 0.000000000000000e+00 1851878480
0.801936 1.775418 0.090481 0.000000000000000e+00 1701537140
0.917798 1.854336 0.224043 0.000000000000000e+00 1701537140
0.986483 1.897496 0.347140 0.000000000000000e+00 1701537140
1.006013 1.902943 0.464824 0.000000000000000e+00 1701537140
1.006846 1.894061 0.580282 0.000000000000000e+00 1851878480
1.049384 1.917588 0.695323 0.000000000000000e+00 1851878480
0.830575 1.737408 0.820384 0.000000000000000e+00 1851878480
0.660564 1.594370 0.954400 0.000000000000000e+00 1851878480
-0.082691 1.000597 1.157921 0.000000000000000e+00 1634431585
0.826627 1.774567 0.091460 0.000000000000000e+00 1701537140
0.948184 1.858460 0.225228 0.000000000000000e+00 1701537140
0.992117 1.882801 0.345887 0.000000000000000e+00 1701537140
1.027230 1.900432 0.464388 0.000000000000000e+00 1701537140
0.955599 1.835056 0.578345 0.000000000000000e+00 1701537140
1.062643 1.909085 0.694298 0.000000000000000e+00 1851878480
0.842904 1.727108 0.819244 0.000000000000000e+00 1851878480
0.673137 1.583426 0.953150 0.000000000000000e+00 1851878480
0.002791 1.043590 1.149111 0.000000000000000e+00 1634431585
0.847696 1.771057 0.091966 0.000000000000000e+00 1701537140
0.962672 1.850430 0.224769 0.000000000000000e+00 1701537140
1.002242 1.871577 0.344967 0.000000000000000e+00 1701537140
1.029058 1.882872 0.463077 0.000000000000000e+00 1701537140
0.959292 1.818577 0.577260 0.000000000000000e+00 1701537140
1.082607 1.905903 0.693187 0.000000000000000e+00 1851878480
0.854441 1.716212 0.818142 0.000000000000000e+00 1851878480
0.704883 1.587693 0.950509 0.000000000000000e+00 1851878480
0.051184 1.057840 1.144112 0.000000000000000e+00 1634431585
0.881968 1.777950 0.094256 0.000000000000000e+00 1701537140
0.963412 1.831694 0.222866 0.000000000000000e+00 1701537140
0.996847 1.848180 0.342872 0.000000000000000e+00 1701537140
1.027347 1.862452 0.461597 0.000000000000000e+00 1701537140
0.990464 1.823736 0.576623 0.000000000000000e+00 1701537140
1.073659 1.879925 0.692460 0.000000000000000e+00 1851878480
0.845060 1.688711 0.817940 0.000000000000000e+00 1851878480
0.699049 1.562220 0.950605 0.000000000000000e+00 1851878480
0.134319 1.100219 1.135556 0.000000000000000e+00 1634431585
0.904647 1.775986 0.095004 0.000000000000000e+00 1701537140
0.967438 1.815459 0.221299 0.000000000000000e+00 1701537140
0.969720 1.807482 0.339110 0.000000000000000e+00 1701537140
1.013748 1.832509 0.459557 0.000000000000000e+00 1701537140
1.007465 1.817849 0.575761 0.000000000000000e+00 1701537140
1.078257 1.864564 0.691552 0.000000000000000e+00 1851878480
0.847750 1.670671 0.817218 0.000000000000000e+00 1851878480
0.721993 1.559666 0.948614 0.000000000000000e+00 1851878480
0.172770 1.107363 1.131589 0.000000000000000e+00 1634431585
0.922376 1.770240 0.095091 0.000000000000000e+00 1701537140
0.809342 1.670778 0.202528 0.000000000000000e+00 1701537140
1.001613 1.813312 0.339827 0.000000000000000e+00 1701537140
0.866349 1.695715 0.451261 0.000000000000000e+00 1701537140
1.002635 1.794586 0.574533 0.000000000000000e+00 1701537140
1.086792 1.852313 0.690593 0.000000000000000e+00 1851878480
0.863152 1.662786 0.815955 0.000000000000000e+00 1851878480
0.724730 1.540935 0.948093 0.000000000000000e+00 1851878480
0.203664 1.108656 1.128401 0.000000000000000e+00 1634431585
0.947396 1.770367 0.096176 0.000000000000000e+00 1701537140
0.920997 1.739406 0.212331 0.000000000000000e+00 1701537140
0.985787 1.781219 0.336892 0.000000000000000e+00 1701537140
0.858472 1.669247 0.449407 0.000000000000000e+00 1701537140
1.014434 1.784556 0.573584 0.000000000000000e+00 1701537140
1.082716 1.829880 0.689792 0.000000000000000e+00 1851878480
0.857130 1.637616 0.815605 0.000000000000000e+00 1851878480
0.741050 1.533155 0.946590 0.000000000000000e+00 1851878480
0.240856 1.115270 1.124574 0.000000000000000e+00 1634431585
0.942132 1.746437 0.093130 0.000000000000000e+00 1701537140
0.928778 1.725750 0.211111 0.000000000000000e+00 1701537140
0.995922 1.769754 0.335940 0.000000000000000e+00 1701537140
0.865215 1.654398 0.448231 0.000000000000000e+00 1701537140
1.035048 1.781682 0.572791 0.000000000000000e+00 1701537140
1.077990 1.806785 0.688994 0.000000000000000e+00 1851878480
0.875608 1.632237 0.814216 0.000000000000000e+00 1851878480
0.740898 1.511982 0.946284 0.000000000000000e+00 1851878480
0.264597 1.111121 1.122130 0.000000000000000e+00 1634431585
0.953801 1.735979 0.092389 0.000000000000000e+00 1701537140
0.941831 1.716329 0.210454 0.000000000000000e+00 1701537140
0.977712 1.735358 0.332782 0.000000000000000e+00 1701537140
0.887301 1.651974 0.447783 0.000000000000000e+00 1701537140
1.034007 1.761285 0.571617 0.000000000000000e+00 1701537140
1.071654 1.782235 0.688209 0.000000000000000e+00 1851878480
0.872901 1.609587 0.813725 0.000000000000000e+00 1851878480
0.766663 1.512004 0.944106 0.000000000000000e+00 1851878480
0.298399 1.115390 1.118661 0.000000000000000e+00 1634431585
0.948935 1.712162 0.089364 0.000000000000000e+00 1701537140
0.980843 1.728015 0.212603 0.000000000000000e+00 1701537140
0.975193 1.713462 0.330825 0.000000000000000e+00 1701537140
0.854160 1.604564 0.444688 0.000000000000000e+00 1701537140
1.031733 1.739774 0.570415 0.000000000000000e+00 1701537140
1.086125 1.774627 0.687174 0.000000000000000e+00 1851878480
0.870105 1.586738 0.813237 0.000000000000000e+00 1851878480
0.773648 1.496655 0.943291 0.000000000000000e+00 1851878480
0.339824 1.126209 1.114414 0.000000000000000e+00 1634431585
0.953657 1.696002 0.087646 0.000000000000000e+00 1701537140
0.941471 1.675970 0.206264 0.000000000000000e+00 1701537140
0.917040 1.645860 0.324479 0.000000000000000e+00 1701537140
0.855562 1.585106 0.443233 0.000000000000000e+00 1701537140
0.990439 1.685974 0.568485 0.000000000000000e+00 1701537140
0.836292 1.548522 0.689195 0.000000000000000e+00 1851878480
0.871231 1.567009 0.812582 0.000000000000000e+00 1851878480
0.772029 1.474111 0.943099 0.000000000000000e+00 1851878480
0.365000 1.123768 1.111839 0.000000000000000e+00 1634431585
0.943366 1.667492 0.083828 0.000000000000000e+00 1701537140
0.968884 1.678315 0.207161 0.000000000000000e+00 1701537140
0.949529 1.652290 0.325239 0.000000000000000e+00 1701537140
0.976682 1.664552 0.447618 0.000000000000000e+00 1701537140
0.991853 1.667080 0.567326 0.000000000000000e+00 1701537140
0.875548 1.560288 0.687826 0.000000000000000e+00 1851878480
0.874416 1.548907 0.811841 0.000000000000000e+00 1851878480
0.780202 1.459641 0.942202 0.000000000000000e+00 1851878480
0.376426 1.109924 1.110679 0.000000000000000e+00 1634431585
0.944957 1.648573 0.081642 0.000000000000000e+00 1701537140
0.971853 1.660623 0.205391 0.000000000000000e+00 1701537140
0.973354 1.651763 0.325328 0.000000000000000e+00 1701537140
0.992570 1.657576 0.446906 0.000000000000000e+00 1701537140
0.996069 1.650438 0.566215 0.000000000000000e+00 1701537140
0.876151 1.539995 0.686900 0.000000000000000e+00 1851878480
0.886527 1.538226 0.810729 0.000000000000000e+00 1851878480
0.796955 1.452373 0.940692 0.000000000000000e+00 1851878480
0.415166 1.119152 1.106723 0.000000000000000e+00 1634431585
0.936981 1.621633 0.078098 0.000000000000000e+00 1701537140
0.812950 1.508193 0.185772 0.000000000000000e+00 1701537140
0.971538 1.629979 0.323376 0.000000000000000e+00 1701537140
1.017762 1.658449 0.446659 0.000000000000000e+00 1701537140
1.011499 1.643153 0.565318 0.000000000000000e+00 1701537140
0.891441 1.531972 0.685812 0.000000000000000e+00 1851878480
0.874139 1.506869 0.810636 0.000000000000000e+00 1851878480
0.809766 1.441829 0.939469 0.000000000000000e+00 1851878480
0.418773 1.098799 1.106375 0.000000000000000e+00 1634431585
0.927912 1.593598 0.074374 0.000000000000000e+00 1701537140
0.808225 1.483091 0.183043 0.000000000000000e+00 1701537140
0.981914 1.618311 0.322392 0.000000000000000e+00 1701537140
0.995136 1.619205 0.444032 0.000000000000000e+00 1701537140
1.000126 1.613282 0.563897 0.000000000000000e+00 1701537140
0.924356 1.538935 0.684539 0.000000000000000e+00 1851878480
0.881365 1.491948 0.809727 0.000000000000000e+00 1851878480
0.807694 1.418620 0.939319 0.000000000000000e+00 1851878480
0.440736 1.094061 1.104149 0.000000000000000e+00 1634431585
0.924460 1.570081 0.071417 0.000000000000000e+00 1701537140
0.794894 1.450586 0.179336 0.000000000000000e+00 1701537140
0.988115 1.603119 0.321069 0.000000000000000e+00 1701537140
0.862027 1.486006 0.435816 0.000000000000000e+00 1701537140
0.884838 1.494868 0.560385 0.000000000000000e+00 1701537140
0.951660 1.541348 0.683336 0.000000000000000e+00 1851878480
0.888829 1.477198 0.808811 0.000000000000000e+00 1851878480
0.798149 1.388870 0.939707 0.000000000000000e+00 1851878480
0.455859 1.083547 1.102630 0.000000000000000e+00 1634431585
0.945078 1.566762 0.071864 0.000000000000000e+00 1701537140
0.911546 1.527980 0.190134 0.000000000000000e+00 1701537140
0.988450 1.582905 0.319262 0.000000000000000e+00 1701537140
0.866666 1.468763 0.434479 0.000000000000000e+00 1701537140
0.907895 1.493458 0.559605 0.000000000000000e+00 1701537140
0.964436 1.531482 0.682290 0.000000000000000e+00 1851878480
0.880778 1.449072 0.808531 0.000000000000000e+00 1851878480
0.807985 1.375638 0.938707 0.000000000000000e+00 1851878480
0.471777 1.073762 1.101035 0.000000000000000e+00 1634431585
0.948913 1.549281 0.069921 0.000000000000000e+00 1701537140
0.954454 1.543601 0.192758 0.000000000000000e+00 1701537140
0.973414 1.549440 0.316186 0.000000000000000e+00 1701537140
0.985515 1.549420 0.438975 0.000000000000000e+00 1701537140
0.949982 1.508550 0.559225 0.000000000000000e+00 1701537140
0.973711 1.518617 0.681281 0.000000000000000e+00 1851878480
0.875879 1.423476 0.808120 0.000000000000000e+00 1851878480
0.797817 1.345025 0.939142 0.000000000000000e+00 1851878480
0.569215 1.135010 1.091081 0.000000000000000e+00 1851878480
0.931949 1.513947 0.064980 0.000000000000000e+00 1701537140
0.950748 1.519577 0.190152 0.000000000000000e+00 1701537140
0.995762 1.547876 0.316161 0.000000000000000e+00 1701537140
1.002280 1.543113 0.438295 0.000000000000000e+00 1701537140
0.978082 1.511865 0.558572 0.000000000000000e+00 1701537140
0.993763 1.515096 0.680168 0.000000000000000e+00 1851878480
0.872924 1.399411 0.807627 0.000000000000000e+00 1851878480
0.815415 1.338444 0.937591 0.000000000000000e+00 1851878480
0.582346 1.123301 1.089780 0.000000000000000e+00 1851878480
0.945058 1.504202 0.064335 0.000000000000000e+00 1701537140
0.962137 1.508434 0.189239 0.000000000000000e+00 1701537140
0.940351 1.479127 0.309707 0.000000000000000e+00 1701537140
1.030048 1.546428 0.438190 0.000000000000000e+00 1701537140
1.000101 1.510072 0.557801 0.000000000000000e+00 1701537140
1.008948 1.507428 0.679107 0.000000000000000e+00 1851878480
0.885649 1.388939 0.806497 0.000000000000000e+00 1851878480
0.819712 1.320245 0.936996 0.000000000000000e+00 1851878480
0.571007 1.090040 1.090995 0.000000000000000e+00 1851878480
0.956637 1.493160 0.063468 0.000000000000000e+00 1701537140
0.968816 1.493211 0.187787 0.000000000000000e+00 1701537140
0.975411 1.488477 0.310722 0.000000000000000e+00 1701537140
1.002669 1.501753 0.435213 0.000000000000000e+00 1701537140
1.008469 1.496442 0.556742 0.000000000000000e+00 1701537140
1.024557 1.500183 0.678045 0.000000000000000e+00 1851878480
0.880466 1.362704 0.806093 0.000000000000000e+00 1851878480
0.820282 1.298681 0.936669 0.000000000000000e+00 1851878480
0.581283 1.075703 1.089997 0.000000000000000e+00 1851878480
0.958456 1.473629 0.061178 0.000000000000000e+00 1701537140
0.850294 1.368575 0.171983 0.000000000000000e+00 1701537140
0.970487 1.463052 0.308410 0.000000000000000e+00 1701537140
1.029705 1.504502 0.435073 0.000000000000000e+00 1701537140
1.007809 1.474831 0.555486 0.000000000000000e+00 1701537140
1.061172 1.511567 0.676797 0.000000000000000e+00 1851878480
0.872070 1.333447 0.805815 0.000000000000000e+00 1851878480
0.831375 1.286366 0.935593 0.000000000000000e+00 1851878480
0.600467 1.069300 1.088090 0.000000000000000e+00 1851878480
0.949175 1.444280 0.057251 0.000000000000000e+00 1701537140
0.866024 1.360558 0.171487 0.000000000000000e+00 1701537140
0.974303 1.445168 0.306817 0.000000000000000e+00 1701537140
1.020707 1.475565 0.433032 0.000000000000000e+00 1701537140
1.009576 1.455253 0.554276 0.000000000000000e+00 1701537140
1.065161 1.494210 0.675849 0.000000000000000e+00 1851878480
0.870954 1.310480 0.805243 0.000000000000000e+00 1851878480
0.814077 1.248644 0.936545 0.000000000000000e+00 1851878480
0.604851 1.049694 1.087707 0.000000000000000e+00 1851878480
0.944783 1.419032 0.054011 0.000000000000000e+00 1701537140
0.871683 1.343693 0.169829 0.000000000000000e+00 1701537140
0.993948 1.441253 0.306556 0.000000000000000e+00 1701537140
0.930147 1.373864 0.426611 0.000000000000000e+00 1701537140
1.030017 1.452248 0.553481 0.000000000000000e+00 1701537140
1.083962 1.490044 0.674773 0.000000000000000e+00 1851878480
0.861856 1.280220 0.804987 0.000000000000000e+00 1851878480
0.836976 1.246810 0.934633 0.000000000000000e+00 1851878480
0.596243 1.018279 1.088663 0.000000000000000e+00 1851878480
0.944763 1.397497 0.051391 0.000000000000000e+00 1701537140
0.925013 1.369179 0.173703 0.000000000000000e+00 1701537140
0.987671 1.414302 0.304093 0.000000000000000e+00 1701537140
0.985920 1.402039 0.427995 0.000000000000000e+00 1701537140
1.030475 1.431407 0.552235 0.000000000000000e+00 1701537140
1.075341 1.461274 0.673930 0.000000000000000e+00 1851878480
0.855199 1.251943 0.804631 0.000000000000000e+00 1851878480
0.814411 1.203918 0.935962 0.000000000000000e+00 1851878480
0.615565 1.012013 1.086757 0.000000000000000e+00 1851878480
0.936835 1.357970 0.172773 0.000000000000000e+00 1701537140
0.992628 1.397253 0.302574 0.000000000000000e+00 1701537140
0.974997 1.370644 0.425792 0.000000000000000e+00 1701537140
1.012619 1.393915 0.550560 0.000000000000000e+00 1701537140
1.073522 1.438458 0.673024 0.000000000000000e+00 1851878480
0.857817 1.231898 0.803905 0.000000000000000e+00 1851878480
0.813686 1.180559 0.935737 0.000000000000000e+00 1851878480
0.609936 0.983022 1.087418 0.000000000000000e+00 1851878480
0.953631 1.351251 0.172424 0.000000000000000e+00 1701537140
0.997080 1.379684 0.301003 0.000000000000000e+00 1701537140
0.999248 1.370878 0.425494 0.000000000000000e+00 1701537140
0.934367 1.301232 0.547449 0.000000000000000e+00 1851878480
1.082104 1.424984 0.672032 0.000000000000000e+00 1851878480
0.866331 1.217149 0.802945 0.000000000000000e+00 1851878480
0.836730 1.178859 0.933826 0.000000000000000e+00 1851878480
0.634808 0.981887 1.084951 0.000000000000000e+00 1851878480
0.969136 1.343427 0.171926 0.000000000000000e+00 1701537140
0.965621 1.329414 0.296311 0.000000000000000e+00 1701537140
1.009099 1.358136 0.424413 0.000000000000000e+00 1701537140
0.950468 1.293822 0.546525 0.000000000000000e+00 1851878480
1.062266 1.385431 0.671256 0.000000000000000e+00 1851878480
0.861475 1.190075 0.802512 0.000000000000000e+00 1851878480
0.838535 1.157699 0.933427 0.000000000000000e+00 1851878480
0.620835 0.944959 1.086480 0.000000000000000e+00 1851878480
0.975435 1.327263 0.170339 0.000000000000000e+00 1701537140
0.924589 1.269927 0.290740 0.000000000000000e+00 1701537140
1.025016 1.350943 0.423667 0.000000000000000e+00 1701537140
0.981778 1.300455 0.545970 0.000000000000000e+00 1851878480
1.056322 1.358356 0.670364 0.000000000000000e+00 1851878480
0.852159 1.158695 0.802252 0.000000000000000e+00 1851878480
0.830321 1.127135 0.933741 0.000000000000000e+00 1851878480
0.627256 0.926723 1.085920 0.000000000000000e+00 1851878480
0.849266 1.189571 0.152955 0.000000000000000e+00 1851878480
0.989859 1.307633 0.294435 0.000000000000000e+00 1701537140
1.037423 1.340571 0.422727 0.000000000000000e+00 1701537140
1.005794 1.300565 0.545251 0.000000000000000e+00 1851878480
1.051496 1.332131 0.669457 0.000000000000000e+00 1851878480
0.849903 1.133655 0.801712 0.000000000000000e+00 1851878480
0.820677 1.095015 0.934157 0.000000000000000e+00 1851878480
0.633298 0.908068 1.085403 0.000000000000000e+00 1851878480
0.874420 1.189960 0.153529 0.000000000000000e+00 1851878480
0.994710 1.290036 0.292855 0.000000000000000e+00 1701537140
0.966732 1.253089 0.417103 0.000000000000000e+00 1851878480
1.020726 1.292365 0.544316 0.000000000000000e+00 1851878480
1.057841 1.316159 0.668467 0.000000000000000e+00 1851878480
0.865241 1.124936 0.800486 0.000000000000000e+00 1851878480
0.826625 1.077302 0.933470 0.000000000000000e+00 1851878480
0.635195 0.885440 1.085318 0.000000000000000e+00 1851878480
0.903084 1.193766 0.154539 0.000000000000000e+00 1851878480
0.916602 1.195144 0.283907 0.000000000000000e+00 1851878480
0.976150 1.239494 0.415959 0.000000000000000e+00 1851878480
1.033767 1.282442 0.543335 0.000000000000000e+00 1851878480
1.060120 1.296322 0.667502 0.000000000000000e+00 1851878480
0.851268 1.088652 0.800399 0.000000000000000e+00 1851878480
0.817125 1.044930 0.933879 0.000000000000000e+00 1851878480
0.636597 0.862230 1.085289 0.000000000000000e+00 1851878480
0.926540 1.192899 0.154936 0.000000000000000e+00 1851878480
0.952356 1.205881 0.285023 0.000000000000000e+00 1851878480
1.000589 1.239986 0.415672 0.000000000000000e+00 1851878480
1.024134 1.251174 0.541779 0.000000000000000e+00 1851878480
1.050349 1.264995 0.666612 0.000000000000000e+00 1851878480
0.843283 1.057748 0.800076 0.000000000000000e+00 1851878480
0.826156 1.029930 0.932980 0.000000000000000e+00 1851878480
0.649156 0.849529 1.084119 0.000000000000000e+00 1851878480
0.930043 1.173423 0.152918 0.000000000000000e+00 1851878480
0.965152 1.195264 0.284102 0.000000000000000e+00 1851878480
1.028810 1.244202 0.415613 0.000000000000000e+00 1851878480
1.019685 1.224583 0.540343 0.000000000000000e+00 1851878480
1.051908 1.244200 0.665643 0.000000000000000e+00 1851878480
0.845053 1.035921 0.799374 0.000000000000000e+00 1851878480
0.808458 0.989335 0.933970 0.000000000000000e+00 1851878480
0.633234 0.809513 1.085884 0.000000000000000e+00 1851878480
0.919853 1.140914 0.149214 0.000000000000000e+00 1851878480
0.975848 1.182673 0.282991 0.000000000000000e+00 1851878480
1.026466 1.219553 0.413792 0.000000000000000e+00 1851878480
1.000866 1.184110 0.538520 0.000000000000000e+00 1851878480
1.043974 1.214217 0.664726 0.000000000000000e+00 1851878480
0.839233 1.006698 0.798961 0.000000000000000e+00 1851878480
0.832865 0.988908 0.931991 0.000000000000000e+00 1851878480
0.656447 0.806934 1.083628 0.000000000000000e+00 1851878480
0.911042 1.109470 0.145648 0.000000000000000e+00 1851878480
0.969106 1.153443 0.280294 0.000000000000000e+00 1851878480
1.014524 1.185566 0.411396 0.000000000000000e+00 1851878480
1.018371 1.178139 0.537638 0.000000000000000e+00 1851878480
1.043568 1.191255 0.663758 0.000000000000000e+00 1851878480
0.853625 0.996776 0.797776 0.000000000000000e+00 1851878480
0.816647 0.949307 0.932879 0.000000000000000e+00 1851878480
0.649959 0.775647 1.084434 0.000000000000000e+00 1851878480
0.982100 1.142939 0.279377 0.000000000000000e+00 1851878480
1.017740 1.165897 0.409873 0.000000000000000e+00 1851878480
1.005439 1.142862 0.535945 0.000000000000000e+00 1851878480
1.050369 1.175135 0.662747 0.000000000000000e+00 1851878480
0.842365 0.961979 0.797567 0.000000000000000e+00 1851878480
0.805648 0.914458 0.933401 0.000000000000000e+00 1851878480
0.660312 0.760585 1.083512 0.000000000000000e+00 1851878480
0.955213 1.093957 0.274797 0.000000000000000e+00 1851878480
1.019562 1.144783 0.408259 0.000000000000000e+00 1851878480
1.014643 1.128795 0.534836 0.000000000000000e+00 1851878480
1.047133 1.149187 0.661786 0.000000000000000e+00 1851878480
0.858095 0.953271 0.796334 0.000000000000000e+00 1851878480
0.802695 0.887221 0.933357 0.000000000000000e+00 1851878480
0.638143 0.713544 1.085946 0.000000000000000e+00 1851878480
0.964112 1.079281 0.273479 0.000000000000000e+00 1851878480
1.007575 1.110111 0.405809 0.000000000000000e+00 1851878480
1.020657 1.111588 0.533638 0.000000000000000e+00 1851878480
1.033649 1.113030 0.660869 0.000000000000000e+00 1851878480
0.863211 0.934183 0.795503 0.000000000000000e+00 1851878480
0.804965 0.864956 0.932948 0.000000000000000e+00 1851878480
0.649011 0.698750 1.084982 0.000000000000000e+00 1851878480
0.949778 1.041872 0.269997 0.000000000000000e+00 1851878480
1.005689 1.085057 0.403946 0.000000000000000e+00 1851878480
1.000736 1.068825 0.531713 0.000000000000000e+00 1851878480
1.032928 1.089154 0.659881 0.000000000000000e+00 1851878480
0.856286 0.903104 0.795124 0.000000000000000e+00 1851878480
0.793337 0.828789 0.933517 0.000000000000000e+00 1851878480
0.640720 0.664878 1.085999 0.000000000000000e+00 1851878480
0.960727 1.029004 0.268847 0.000000000000000e+00 1851878480
1.004684 1.060710 0.402122 0.000000000000000e+00 1851878480
0.985901 1.030715 0.529910 0.000000000000000e+00 1851878480
1.040691 1.073544 0.658852 0.000000000000000e+00 1851878480
0.849443 0.871880 0.794738 0.000000000000000e+00 1851878480
0.791168 0.801771 0.933424 0.000000000000000e+00 1851878480
0.644367 0.642696 1.085792 0.000000000000000e+00 1851878480
0.964215 1.008749 0.266993 0.000000000000000e+00 1851878480
0.999211 1.031781 0.400013 0.000000000000000e+00 1851878480
1.003025 1.024077 0.529000 0.000000000000000e+00 1851878480
1.042868 1.052315 0.657844 0.000000000000000e+00 1851878480
0.864500 0.862339 0.793535 0.000000000000000e+00 1851878480
0.802895 0.788521 0.932358 0.000000000000000e+00 1851878480
0.643878 0.616240 1.086017 0.000000000000000e+00 1851878480
0.949847 0.970630 0.263438 0.000000000000000e+00 1851878480
1.002953 1.011839 0.398455 0.000000000000000e+00 1851878480
1.014136 1.011485 0.527921 0.000000000000000e+00 1851878480
1.040209 1.026118 0.656851 0.000000000000000e+00 1851878480
0.858920 0.832059 0.793099 0.000000000000000e+00 1851878480
0.796166 0.756631 0.932589 0.000000000000000e+00 1851878480
0.640079 0.586269 1.086591 0.000000000000000e+00 1851878480
0.947186 0.943910 0.260965 0.000000000000000e+00 1851878480
0.993324 0.978378 0.396059 0.000000000000000e+00 1851878480
1.007019 0.980534 0.526307 0.000000000000000e+00 1851878480
1.044310 1.006572 0.655828 0.000000000000000e+00 1851878480
0.857858 0.806136 0.792494 0.000000000000000e+00 1851878480
0.754281 0.688801 0.935282 0.000000000000000e+00 1851878480
0.641519 0.561429 1.086629 0.000000000000000e+00 1851878480
0.945198 0.917690 0.258538 0.000000000000000e+00 1851878480
0.994169 0.955233 0.394296 0.000000000000000e+00 1851878480
1.015314 0.964960 0.525137 0.000000000000000e+00 1851878480
1.034776 0.973080 0.654847 0.000000000000000e+00 1851878480
0.865228 0.788638 0.791577 0.000000000000000e+00 1851878480
0.730464 0.638765 0.936708 0.000000000000000e+00 1851878480
0.644059 0.537573 1.086561 0.000000000000000e+00 1851878480
0.937876 0.885899 0.255580 0.000000000000000e+00 1851878480
0.988402 0.925237 0.392106 0.000000000000000e+00 1851878480
0.999343 0.924621 0.523236 0.000000000000000e+00 1851878480
1.047868 0.962451 0.653787 0.000000000000000e+00 1851878480
0.859879 0.758047 0.791125 0.000000000000000e+00 1851878480
0.755097 0.638082 0.934750 0.000000000000000e+00 1851878480
0.645812 0.512778 1.086580 0.000000000000000e+00 1851878480
0.939356 0.862835 0.253449 0.000000000000000e+00 1851878480
0.989598 0.902135 0.390340 0.000000000000000e+00 1851878480
0.998774 0.899719 0.521782 0.000000000000000e+00 1851878480
1.033818 0.923928 0.652805 0.000000000000000e+00 1851878480
0.868385 0.741515 0.790167 0.000000000000000e+00 1851878480
0.756387 0.613400 0.934426 0.000000000000000e+00 1851878480
0.638196 0.478118 1.087574 0.000000000000000e+00 1851878480
0.940014 0.838795 0.251222 0.000000000000000e+00 1851878480
1.004625 0.893120 0.389446 0.000000000000000e+00 1851878480
0.994674 0.871019 0.520210 0.000000000000000e+00 1851878480
1.039819 0.905819 0.651759 0.000000000000000e+00 1851878480
0.863803 0.711354 0.789683 0.000000000000000e+00 1851878480
0.768251 0.599573 0.933367 0.000000000000000e+00 1851878480
0.660912 0.474845 1.085437 0.000000000000000e+00 1851878480
0.954105 0.828463 0.250296 0.000000000000000e+00 1851878480
0.989753 0.853208 0.386628 0.000000000000000e+00 1851878480
1.001383 0.853330 0.518963 0.000000000000000e+00 1851878480
1.040835 0.882446 0.650723 0.000000000000000e+00 1851878480
0.863756 0.685711 0.789034 0.000000000000000e+00 1851878480
0.771328 0.576534 0.932925 0.000000000000000e+00 1851878480
0.649443 0.435804 1.086844 0.000000000000000e+00 1851878480
0.941502 0.790453 0.246739 0.000000000000000e+00 1851878480
0.999597 0.838681 0.385387 0.000000000000000e+00 1851878480
0.994233 0.821104 0.517275 0.000000000000000e+00 1851878480
1.041783 0.858862 0.649681 0.000000000000000e+00 1851878480
0.859450 0.655435 0.788535 0.000000000000000e+00 1851878480
0.762908 0.541262 0.933285 0.000000000000000e+00 1851878480
0.659541 0.419222 1.086024 0.000000000000000e+00 1851878480
0.933497 0.756928 0.243606 0.000000000000000e+00 1851878480
1.008591 0.823231 0.384086 0.000000000000000e+00 1851878480
1.017880 0.820971 0.516552 0.000000000000000e+00 1851878480
1.050347 0.843154 0.648622 0.000000000000000e+00 1851878480
0.851427 0.621013 0.788166 0.000000000000000e+00 1851878480
0.755636 0.506932 0.933568 0.000000000000000e+00 1851878480
0.654077 0.386064 1.086823 0.000000000000000e+00 1851878480
0.932015 0.729993 0.241096 0.000000000000000e+00 1851878480
0.989708 0.778373 0.380946 0.000000000000000e+00 1851878480
1.004631 0.782002 0.514650 0.000000000000000e+00 1851878480
1.035195 0.802272 0.647597 0.000000000000000e+00 1851878480
0.874285 0.619139 0.786694 0.000000000000000e+00 1851878480
0.783747 0.510047 0.931391 0.000000000000000e+00 1851878480
0.654531 0.358985 1.087015 0.000000000000000e+00 1851878480
0.935538 0.708171 0.239070 0.000000000000000e+00 1851878480
0.998869 0.762837 0.379634 0.000000000000000e+00 1851878480
0.988259 0.739389 0.512628 0.000000000000000e+00 1851878480
1.042959 0.785466 0.646531 0.000000000000000e+00 1851878480
0.855067 0.572415 0.786719 0.000000000000000e+00 1851878480
0.772986 0.471680 0.931921 0.000000000000000e+00 1851878480
0.662716 0.340053 1.086413 0.000000000000000e+00 1851878480
0.941270 0.688574 0.237253 0.000000000000000e+00 1851878480
0.999568 0.738232 0.377752 0.000000000000000e+00 1851878480
1.002254 0.728870 0.511583 0.000000000000000e+00 1851878480
1.033966 0.750625 0.645479 0.000000000000000e+00 1851878480
0.860631 0.551922 0.785861 0.000000000000000e+00 1851878480
0.782474 0.454835 0.931047 0.000000000000000e+00 1851878480
0.660449 0.309735 1.086901 0.000000000000000e+00 1851878480
0.936569 0.657726 0.234365 0.000000000000000e+00 1851878480
0.996166 0.709073 0.375581 0.000000000000000e+00 1851878480
1.000157 0.701055 0.510003 0.000000000000000e+00 1851878480
1.037863 0.729410 0.644408 0.000000000000000e+00 1851878480
0.861244 0.525973 0.785178 0.000000000000000e+00 1851878480
0.782841 0.428042 0.930809 0.000000000000000e+00 1851878480
0.662907 0.284349 1.086906 0.000000000000000e+00 1851878480
0.936726 0.631878 0.231950 0.000000000000000e+00 1851878480
0.999891 0.687395 0.373875 0.000000000000000e+00 1851878480
1.005940 0.681576 0.508678 0.000000000000000e+00 1851878480
1.038153 0.704167 0.643334 0.000000000000000e+00 1851878480
0.867078 0.505541 0.784310 0.000000000000000e+00 1851878480
0.788548 0.406905 0.930203 0.000000000000000e+00 1851878480
0.666310 0.259847 1.086819 0.000000000000000e+00 1851878480
0.936152 0.605072 0.229441 0.000000000000000e+00 1851878480
0.996854 0.658256 0.371698 0.000000000000000e+00 1851878480
0.988933 0.637189 0.506569 0.000000000000000e+00 1851878480
1.035784 0.675855 0.642255 0.000000000000000e+00 1851878480
0.873899 0.486091 0.783408 0.000000000000000e+00 1851878480
0.791559 0.382703 0.929787 0.000000000000000e+00 1851878480
0.649189 0.212595 1.088874 0.000000000000000e+00 1851878480
0.940615 0.583570 0.227434 0.000000000000000e+00 1851878480
0.998310 0.633816 0.369813 0.000000000000000e+00 1851878480
0.998962 0.622023 0.505370 0.000000000000000e+00 1851878480
0.992124 0.601981 0.641164 0.000000000000000e+00 1851878480
0.866379 0.450753 0.783003 0.000000000000000e+00 1851878480
0.780079 0.342345 0.930377 0.000000000000000e+00 1851878480
0.667061 0.203706 1.087296 0.000000000000000e+00 1851878480
0.933691 0.549479 0.224230 0.000000000000000e+00 1851878480
0.980533 0.588088 0.366582 0.000000000000000e+00 1851878480
1.003404 0.600661 0.503974 0.000000000000000e+00 1851878480
0.988760 0.571891 0.640059 0.000000000000000e+00 1851878480
0.873327 0.431171 0.782096 0.000000000000000e+00 1851878480
0.790093 0.325544 0.929482 0.000000000000000e+00 1851878480
0.664470 0.172051 1.087855 0.000000000000000e+00 1851878480
0.936713 0.526086 0.222038 0.000000000000000e+00 1851878480
1.008757 0.592808 0.366530 0.000000000000000e+00 1851878480
1.014138 0.586163 0.502793 0.000000000000000e+00 1851878480
1.005371 0.563794 0.638960 0.000000000000000e+00 1851878480
0.866028 0.395617 0.781677 0.000000000000000e+00 1851878480
0.790066 0.297467 0.929284 0.000000000000000e+00 1851878480
0.662745 0.141145 1.088330 0.000000000000000e+00 1851878480
0.930887 0.492737 0.218900 0.000000000000000e+00 1851878480
0.979542 0.533839 0.362452 0.000000000000000e+00 1851878480
0.928275 0.463877 0.498163 0.000000000000000e+00 1851878480
0.985777 0.515236 0.637828 0.000000000000000e+00 1851878480
0.863406 0.365023 0.781094 0.000000000000000e+00 1851878480
0.801812 0.282441 0.928276 0.000000000000000e+00 1851878480
0.660308 0.109210 1.088888 0.000000000000000e+00 1851878480
0.940576 0.476442 0.217377 0.000000000000000e+00 1851878480
0.993291 0.522374 0.361373 0.000000000000000e+00 1851878480
0.932892 0.441789 0.496719 0.000000000000000e+00 1851878480
0.991674 0.494923 0.636711 0.000000000000000e+00 1851878480
0.868652 0.343087 0.780242 0.000000000000000e+00 1851878480
0.794226 0.245501 0.928606 0.000000000000000e+00 1851878480
0.658920 0.078236 1.089344 0.000000000000000e+00 1851878480
0.940401 0.449020 0.214796 0.000000000000000e+00 1851878480
0.991167 0.493043 0.359160 0.000000000000000e+00 1851878480
0.944909 0.427934 0.495537 0.000000000000000e+00 1851878480
0.980506 0.455183 0.635565 0.000000000000000e+00 1851878480
0.856891 0.301719 0.779963 0.000000000000000e+00 1851878480
0.784384 0.205692 0.929094 0.000000000000000e+00 1851878480
0.667086 0.057953 1.088811 0.000000000000000e+00 1851878480
0.925301 0.404555 0.210596 0.000000000000000e+00 1851878480
0.924093 0.389933 0.352261 0.000000000000000e+00 1851878480
0.938399 0.393011 0.493671 0.000000000000000e+00 1851878480
0.985974 0.434055 0.634437 0.000000000000000e+00 1851878480
0.870227 0.288671 0.778835 0.000000000000000e+00 1851878480
0.788642 0.181707 0.928611 0.000000000000000e+00 1851878480
0.666165 0.027138 1.089234 0.000000000000000e+00 1851878480
0.945524 0.399831 0.210163 0.000000000000000e+00 1851878480
0.928889 0.367613 0.350479 0.000000000000000e+00 1851878480
0.932685 0.358718 0.491817 0.000000000000000e+00 1851878480
0.991661 0.413067 0.633305 0.000000000000000e+00 1851878480
0.872705 0.263132 0.778073 0.000000000000000e+00 1851878480
0.800283 0.166094 0.927623 0.000000000000000e+00 1851878480
0.650397 -0.021060 1.091216 0.000000000000000e+00 1851878480
0.932936 0.357688 0.206179 0.000000000000000e+00 1851878480
0.924072 0.334145 0.347986 0.000000000000000e+00 1851878480
0.946278 0.346354 0.490676 0.000000000000000e+00 1851878480
0.988936 0.382266 0.632150 0.000000000000000e+00 1851878480
0.879859 0.242839 0.777154 0.000000000000000e+00 1851878480
0.798058 0.134360 0.927593 0.000000000000000e+00 1851878480
0.655245 -0.045711 1.091052 0.000000000000000e+00 1851878480
0.948404 0.347445 0.205217 0.000000000000000e+00 1851878480
0.929043 0.311706 0.346190 0.000000000000000e+00 1851878480
0.938910 0.309737 0.488735 0.000000000000000e+00 1851878480
0.993380 0.359553 0.631006 0.000000000000000e+00 1851878480
0.871618 0.204534 0.776745 0.000000000000000e+00 1851878480
0.791847 0.097741 0.927840 0.000000000000000e+00 1851878480
0.656717 -0.074455 1.091249 0.000000000000000e+00 1851878480
0.938918 0.308351 0.201516 0.000000000000000e+00 1851878480
0.930054 0.284551 0.344091 0.000000000000000e+00 1851878480
0.942110 0.285124 0.487185 0.000000000000000e+00 1851878480
0.994780 0.333158 0.629849 0.000000000000000e+00 1851878480
0.875141 0.179688 0.775943 0.000000000000000e+00 1851878480
0.794303 0.071004 0.927494 0.000000000000000e+00 1851878480
0.668028 -0.091803 1.090422 0.000000000000000e+00 1851878480
0.937116 0.277868 0.198630 0.000000000000000e+00 1851878480
0.916222 0.239872 0.340869 0.000000000000000e+00 1851878480
0.942992 0.257638 0.485534 0.000000000000000e+00 1851878480
0.980150 0.287755 0.628633 0.000000000000000e+00 1851878480
0.873664 0.148793 0.775304 0.000000000000000e+00 1851878480
0.804674 0.053438 0.926606 0.000000000000000e+00 1851878480
0.659758 -0.132407 1.091656 0.000000000000000e+00 1851878480
0.945715 0.259343 0.196875 0.000000000000000e+00 1851878480
0.926225 0.222797 0.339406 0.000000000000000e+00 1851878480
0.942284 0.228089 0.483810 0.000000000000000e+00 1851878480
0.993990 0.275582 0.627503 0.000000000000000e+00 1851878480
0.867997 0.112703 0.774800 0.000000000000000e+00 1851878480
0.799358 0.017168 0.926800 0.000000000000000e+00 1851878480
0.645057 -0.181015 1.093574 0.000000000000000e+00 1851878480
0.942572 0.226898 0.193798 0.000000000000000e+00 1851878480
0.936068 0.205470 0.337924 0.000000000000000e+00 1851878480
0.950802 0.209262 0.482440 0.000000000000000e+00 1851878480
0.997922 0.251626 0.626336 0.000000000000000e+00 1851878480
0.874832 0.091227 0.773885 0.000000000000000e+00 1851878480
0.806841 -0.004092 0.926117 0.000000000000000e+00 1851878480
0.656818 -0.198328 1.092723 0.000000000000000e+00 1851878480
0.933715 0.187428 0.190051 0.000000000000000e+00 1851878480
0.934194 0.174146 0.335543 0.000000000000000e+00 1851878480
0.937415 0.164225 0.480184 0.000000000000000e+00 1851878480
0.989200 0.212385 0.625111 0.000000000000000e+00 1851878480
0.860661 0.044441 0.773649 0.000000000000000e+00 1851878480
0.799959 -0.042740 0.926424 0.000000000000000e+00 1851878480
0.658238 -0.228172 1.092966 0.000000000000000e+00 1851878480
0.930833 0.154747 0.186946 0.000000000000000e+00 1851878480
0.937092 0.148293 0.333509 0.000000000000000e+00 1851878480
0.943672 0.142355 0.478703 0.000000000000000e+00 1851878480
0.990785 0.185214 0.623920 0.000000000000000e+00 1851878480
0.869856 0.025430 0.772655 0.000000000000000e+00 1851878480
0.795564 -0.078701 0.926562 0.000000000000000e+00 1851878480
0.659884 -0.257952 1.093193 0.000000000000000e+00 1851878480
0.948054 0.145946 0.186103 0.000000000000000e+00 1851878480
0.924954 0.104168 0.330297 0.000000000000000e+00 1851878480
0.948868 0.119084 0.477171 0.000000000000000e+00 1851878480
1.003851 0.171754 0.622777 0.000000000000000e+00 1851878480
0.878902 0.006154 0.771667 0.000000000000000e+00 1851878480
0.801141 -0.102806 0.926020 0.000000000000000e+00 1851878480
0.665818 -0.282700 1.092977 0.000000000000000e+00 1851878480
0.935061 0.100697 0.181800 0.000000000000000e+00 1851878480
0.924412 0.073702 0.327957 0.000000000000000e+00 1851878480
0.943142 0.082411 0.475177 0.000000000000000e+00 1851878480
1.000560 0.138353 0.621552 0.000000000000000e+00 1851878480
0.866395 -0.039535 0.771364 0.000000000000000e+00 1851878480
0.793349 -0.143432 0.926397 0.000000000000000e+00 1851878480
0.657258 -0.325402 1.094297 0.000000000000000e+00 1851878480
0.934134 0.069695 0.178846 0.000000000000000e+00 1851878480
0.927417 0.047325 0.325877 0.000000000000000e+00 1851878480
0.947068 0.057225 0.473571 0.000000000000000e+00 1851878480
1.002825 0.111491 0.620347 0.000000000000000e+00 1851878480
0.879513 -0.054141 0.770245 0.000000000000000e+00 1851878480
0.791950 -0.176527 0.926338 0.000000000000000e+00 1851878480
0.664105 -0.349426 1.094001 0.000000000000000e+00 1851878480
0.932669 0.037801 0.175804 0.000000000000000e+00 1851878480
0.941436 0.034277 0.324653 0.000000000000000e+00 1851878480
0.957357 0.039703 0.472225 0.000000000000000e+00 1851878480
1.009937 0.090423 0.619163 0.000000000000000e+00 1851878480
0.871234 -0.095243 0.769800 0.000000000000000e+00 1851878480
0.797056 -0.201809 0.925838 0.000000000000000e+00 1851878480
0.669059 -0.375944 1.093913 0.000000000000000e+00 1851878480
0.940867 0.017552 0.173864 0.000000000000000e+00 1851878480
0.937490 -0.000949 0.321995 0.000000000000000e+00 1851878480
0.963226 0.016642 0.470685 0.000000000000000e+00 1851878480
1.007734 0.057680 0.617920 0.000000000000000e+00 1851878480
0.869707 -0.128298 0.769138 0.000000000000000e+00 1851878480
0.802120 -0.227300 0.925344 0.000000000000000e+00 1851878480
0.941050 -0.012722 0.170970 0.000000000000000e+00 1851878480
0.932101 -0.038253 0.319198 0.000000000000000e+00 1851878480
0.949861 -0.030504 0.468304 0.000000000000000e+00 1851878480
1.013989 0.035240 0.616721 0.000000000000000e+00 1851878480
0.869323 -0.160180 0.768438 0.000000000000000e+00 1851878480
0.787070 -0.278214 0.926228 0.000000000000000e+00 1851878480
0.926280 -0.061846 0.166285 0.000000000000000e+00 1851878480
0.934784 -0.065789 0.317028 0.000000000000000e+00 1851878480
0.951093 -0.059798 0.466536 0.000000000000000e+00 1851878480
1.001373 -0.011042 0.615393 0.000000000000000e+00 1851878480
0.875894 -0.183540 0.767521 0.000000000000000e+00 1851878480
0.780440 -0.318965 0.926539 0.000000000000000e+00 1851878480
0.934648 -0.082433 0.164304 0.000000000000000e+00 1851878480
0.938841 -0.091789 0.314953 0.000000000000000e+00 1851878480
0.950656 -0.091412 0.464681 0.000000000000000e+00 1851878480
0.994091 -0.051008 0.614085 0.000000000000000e+00 1851878480
0.877185 -0.213734 0.766765 0.000000000000000e+00 1851878480
0.786042 -0.344512 0.926017 0.000000000000000e+00 1851878480
0.932959 -0.115805 0.161108 0.000000000000000e+00 1851878480
0.937393 -0.124919 0.312413 0.000000000000000e+00 1851878480
0.954866 -0.117369 0.463021 0.000000000000000e+00 1851878480
0.999438 -0.075255 0.612858 0.000000000000000e+00 1851878480
0.858086 -0.270158 0.766630 0.000000000000000e+00 1851878480
0.782306 -0.382164 0.926137 0.000000000000000e+00 1851878480
0.932724 -0.147601 0.158058 0.000000000000000e+00 1851878480
0.927967 -0.168470 0.309191 0.000000000000000e+00 1851878480
0.951867 -0.152706 0.461023 0.000000000000000e+00 1851878480
1.003735 -0.101004 0.611616 0.000000000000000e+00 1851878480
0.873106 -0.283341 0.765450 0.000000000000000e+00 1851878480
0.787256 -0.408953 0.925667 0.000000000000000e+00 1851878480
0.931372 -0.181069 0.154846 0.000000000000000e+00 1851878480
0.939202 -0.185957 0.307657 0.000000000000000e+00 1851878480
0.964900 -0.167747 0.459741 0.000000000000000e+00 1851878480
0.999583 -0.137809 0.610302 0.000000000000000e+00 1851878480
0.870865 -0.318830 0.764793 0.000000000000000e+00 1851878480
0.791876 -0.436347 0.925223 0.000000000000000e+00 1851878480
0.939280 -0.202909 0.152735 0.000000000000000e+00 1851878480
0.949296 -0.204982 0.306022 0.000000000000000e+00 1851878480
0.963980 -0.200856 0.457813 0.000000000000000e+00 1851878480
1.016083 -0.148161 0.609148 0.000000000000000e+00 1851878480
0.876085 -0.344912 0.763908 0.000000000000000e+00 1851878480
0.790369 -0.471913 0.925200 0.000000000000000e+00 1851878480
0.920272 -0.259667 0.147307 0.000000000000000e+00 1851878480
0.944946 -0.242824 0.303157 0.000000000000000e+00 1851878480
0.969100 -0.226375 0.456151 0.000000000000000e+00 1851878480
1.017255 -0.178483 0.607864 0.000000000000000e+00 1851878480
0.868632 -0.387741 0.763401 0.000000000000000e+00 1851878480
0.777090 -0.523209 0.925983 0.000000000000000e+00 1851878480
0.928166 -0.281990 0.145143 0.000000000000000e+00 1851878480
0.926458 -0.299433 0.299062 0.000000000000000e+00 1851878480
0.962153 -0.267854 0.453910 0.000000000000000e+00 1851878480
1.005006 -0.226648 0.606452 0.000000000000000e+00 1851878480
0.871908 -0.416834 0.762570 0.000000000000000e+00 1851878480
0.790152 -0.540225 0.924974 0.000000000000000e+00 1851878480
0.938838 -0.316077 0.297570 0.000000000000000e+00 1851878480
0.949944 -0.316632 0.451397 0.000000000000000e+00 1851878480
1.012081 -0.249754 0.605201 0.000000000000000e+00 1851878480
0.872712 -0.449414 0.761810 0.000000000000000e+00 1851878480
0.780592 -0.587342 0.925509 0.000000000000000e+00 1851878480
0.941270 -0.345915 0.295213 0.000000000000000e+00 1851878480
0.962941 -0.332470 0.450069 0.000000000000000e+00 1851878480
1.007922 -0.287922 0.603839 0.000000000000000e+00 1851878480
0.871910 -0.484382 0.761094 0.000000000000000e+00 1851878480
0.892171 -0.472996 0.917805 0.000000000000000e+00 1768716611
0.928910 -0.395649 0.291549 0.000000000000000e+00 1851878480
0.964216 -0.363992 0.448168 0.000000000000000e+00 1851878480
1.001573 -0.329357 0.602443 0.000000000000000e+00 1851878480
0.873973 -0.515801 0.760292 0.000000000000000e+00 1851878480
0.926508 -0.460938 0.915363 0.000000000000000e+00 1768716611
0.943005 -0.410466 0.290167 0.000000000000000e+00 1851878480
0.947164 -0.420348 0.445354 0.000000000000000e+00 1851878480
1.008308 -0.353560 0.601167 0.000000000000000e+00 1851878480
0.872711 -0.551949 0.759583 0.000000000000000e+00 1851878480
0.957706 -0.452820 0.913141 0.000000000000000e+00 1768716611
0.936396 -0.453191 0.286951 0.000000000000000e+00 1851878480
0.958622 -0.438773 0.443919 0.000000000000000e+00 1851878480
0.993504 -0.407083 0.599658 0.000000000000000e+00 1851878480
0.870788 -0.589297 0.758889 0.000000000000000e+00 1851878480
0.989417 -0.443750 0.910888 0.000000000000000e+00 1768716611
0.947959 -0.471686 0.285322 0.000000000000000e+00 1851878480
0.961948 -0.468328 0.442072 0.000000000000000e+00 1851878480
1.003810 -0.426920 0.598405 0.000000000000000e+00 1851878480
0.866796 -0.629790 0.758251 0.000000000000000e+00 1851878480
1.019189 -0.437072 0.908773 0.000000000000000e+00 1768716611
0.949872 -0.503419 0.282818 0.000000000000000e+00 1851878480
0.961528 -0.503229 0.440023 0.000000000000000e+00 1851878480
0.997684 -0.469391 0.596962 0.000000000000000e+00 1851878480
0.863157 -0.670157 0.757598 0.000000000000000e+00 1851878480
1.055563 -0.421055 0.906213 0.000000000000000e+00 1768716611
0.954326 -0.531916 0.280524 0.000000000000000e+00 1851878480
0.965925 -0.531793 0.438203 0.000000000000000e+00 1851878480
1.000767 -0.499541 0.595613 0.000000000000000e+00 1851878480
0.868220 -0.698838 0.756696 0.000000000000000e+00 1851878480
