# .PCD v0.7 - Point Cloud Data file format
VERSION 0.7
FIELDS x y z rgb label
SIZE 4 4 4 4 4
TYPE F F F F U
COUNT 1 1 1 1 1
WIDTH 790
HEIGHT 1
VIEWPOINT 0 0 0 1 0 0 0
POINTS 790
DATA ascii
0.932016 0.810761 0.299343 0.000000000000000e+00 1851878480
0.962903 0.835339 0.388738 0.000000000000000e+00 1851878480
0.992877 0.859087 0.476618 0.000000000000000e+00 1851878480
1.003968 0.863123 0.561315 0.000000000000000e+00 1851878480
1.033379 0.886620 0.645409 0.000000000000000e+00 1851878480
0.883114 0.719293 0.734789 0.000000000000000e+00 1851878480
0.927723 0.758739 0.820550 0.000000000000000e+00 1851878480
0.715543 0.523961 0.930361 0.000000000000000e+00 1851878480
0.692524 0.490506 1.029931 0.000000000000000e+00 1851878480
0.569198 0.349065 1.148444 0.000000000000000e+00 1851878480
0.891405 0.759730 0.204042 0.000000000000000e+00 1851878480
0.940422 0.803333 0.298675 0.000000000000000e+00 1851878480
0.955810 0.811714 0.386524 0.000000000000000e+00 1851878480
1.008212 0.859358 0.476420 0.000000000000000e+00 1851878480
0.990123 0.832457 0.559922 0.000000000000000e+00 1851878480
1.042833 0.880893 0.644731 0.000000000000000e+00 1851878480
0.877815 0.696819 0.734556 0.000000000000000e+00 1851878480
0.919765 0.733642 0.820969 0.000000000000000e+00 1851878480
0.720197 0.510988 0.930038 0.000000000000000e+00 1851878480
0.686175 0.465485 1.031284 0.000000000000000e+00 1851878480
0.559900 0.319986 1.150876 0.000000000000000e+00 1851878480
0.916629 0.769779 0.206177 0.000000000000000e+00 1851878480
0.932410 0.778503 0.295793 0.000000000000000e+00 1851878480
0.975076 0.815914 0.386949 0.000000000000000e+00 1851878480
1.004972 0.839917 0.474988 0.000000000000000e+00 1851878480
0.996529 0.823162 0.559179 0.000000000000000e+00 1851878480
1.038784 0.860705 0.644068 0.000000000000000e+00 1851878480
0.885132 0.687734 0.733874 0.000000000000000e+00 1851878480
0.918193 0.715219 0.820945 0.000000000000000e+00 1851878480
0.716216 0.488613 0.930615 0.000000000000000e+00 1851878480
0.675319 0.435370 1.033272 0.000000000000000e+00 1851878480
0.561700 0.302735 1.151399 0.000000000000000e+00 1851878480
0.888692 0.723522 0.199330 0.000000000000000e+00 1851878480
0.939885 0.769980 0.294983 0.000000000000000e+00 1851878480
0.972123 0.796493 0.385131 0.000000000000000e+00 1851878480
0.999835 0.818295 0.473415 0.000000000000000e+00 1851878480
1.013433 0.825138 0.558785 0.000000000000000e+00 1851878480
1.038430 0.844347 0.643396 0.000000000000000e+00 1851878480
0.887112 0.672859 0.733381 0.000000000000000e+00 1851878480
0.930354 0.711570 0.819969 0.000000000000000e+00 1851878480
0.721227 0.475857 0.930263 0.000000000000000e+00 1851878480
0.701859 0.445812 1.030080 0.000000000000000e+00 1851878480
0.564534 0.286515 1.151752 0.000000000000000e+00 1851878480
0.895492 0.713956 0.198334 0.000000000000000e+00 1851878480
0.923000 0.735311 0.290852 0.000000000000000e+00 1851878480
0.960361 0.767450 0.382399 0.000000000000000e+00 1851878480
1.003063 0.805528 0.472396 0.000000000000000e+00 1851878480
1.006508 0.801440 0.557594 0.000000000000000e+00 1851878480
1.038887 0.828762 0.642721 0.000000000000000e+00 1851878480
0.877038 0.644778 0.733309 0.000000000000000e+00 1851878480
0.928610 0.692791 0.819961 0.000000000000000e+00 1851878480
0.712697 0.448220 0.931323 0.000000000000000e+00 1851878480
0.685048 0.408879 1.032911 0.000000000000000e+00 1851878480
0.563696 0.266160 1.152754 0.000000000000000e+00 1851878480
0.892364 0.693684 0.195633 0.000000000000000e+00 1851878480
0.933883 0.730288 0.290484 0.000000000000000e+00 1851878480
0.965371 0.756303 0.381364 0.000000000000000e+00 1851878480
1.000024 0.785895 0.470943 0.000000000000000e+00 1851878480
0.998697 0.776581 0.556362 0.000000000000000e+00 1851878480
1.042866 0.816922 0.642042 0.000000000000000e+00 1851878480
0.876225 0.626594 0.732911 0.000000000000000e+00 1851878480
0.921765 0.668275 0.820307 0.000000000000000e+00 1851878480
0.740344 0.460200 0.928626 0.000000000000000e+00 1851878480
0.696399 0.402711 1.031837 0.000000000000000e+00 1851878480
0.562389 0.245147 1.153850 0.000000000000000e+00 1851878480
0.891214 0.675403 0.193250 0.000000000000000e+00 1851878480
0.939143 0.719190 0.289343 0.000000000000000e+00 1851878480
0.953286 0.726495 0.378556 0.000000000000000e+00 1851878480
1.000340 0.769777 0.469709 0.000000000000000e+00 1851878480
1.002132 0.763830 0.555505 0.000000000000000e+00 1851878480
1.042393 0.800138 0.641360 0.000000000000000e+00 1851878480
0.874458 0.607233 0.732543 0.000000000000000e+00 1851878480
0.929008 0.659120 0.819678 0.000000000000000e+00 1851878480
0.755231 0.458286 0.927259 0.000000000000000e+00 1851878480
0.693405 0.380629 1.032765 0.000000000000000e+00 1851878480
0.551700 0.213528 1.156596 0.000000000000000e+00 1851878480
0.886919 0.653568 0.190303 0.000000000000000e+00 1851878480
0.936052 0.698928 0.287040 0.000000000000000e+00 1851878480
0.971072 0.729147 0.378827 0.000000000000000e+00 1851878480
1.012856 0.766962 0.469312 0.000000000000000e+00 1851878480
0.984834 0.728166 0.553920 0.000000000000000e+00 1851878480
1.028588 0.768504 0.640669 0.000000000000000e+00 1851878480
0.881999 0.598051 0.731854 0.000000000000000e+00 1851878480
0.912494 0.623541 0.820696 0.000000000000000e+00 1851878480
0.748551 0.432402 0.928139 0.000000000000000e+00 1851878480
0.690513 0.358494 1.033689 0.000000000000000e+00 1851878480
0.560270 0.203230 1.155991 0.000000000000000e+00 1851878480
0.891502 0.641295 0.188873 0.000000000000000e+00 1851878480
0.921933 0.666394 0.283184 0.000000000000000e+00 1851878480
0.972461 0.713850 0.377393 0.000000000000000e+00 1851878480
1.009298 0.746435 0.467797 0.000000000000000e+00 1851878480
0.993809 0.721292 0.553243 0.000000000000000e+00 1851878480
1.046483 0.771827 0.639988 0.000000000000000e+00 1851878480
0.878885 0.576973 0.731531 0.000000000000000e+00 1851878480
0.929638 0.625269 0.819387 0.000000000000000e+00 1851878480
0.746473 0.411471 0.928546 0.000000000000000e+00 1851878480
0.689468 0.338274 1.034363 0.000000000000000e+00 1851878480
0.569610 0.193787 1.155257 0.000000000000000e+00 1851878480
0.902672 0.636229 0.188582 0.000000000000000e+00 1851878480
0.931950 0.660246 0.282666 0.000000000000000e+00 1851878480
0.964076 0.687618 0.374921 0.000000000000000e+00 1851878480
1.005751 0.725759 0.466269 0.000000000000000e+00 1851878480
1.006810 0.718915 0.552710 0.000000000000000e+00 1851878480
1.037419 0.745119 0.639288 0.000000000000000e+00 1851878480
0.882101 0.562834 0.730990 0.000000000000000e+00 1851878480
0.923266 0.600648 0.819705 0.000000000000000e+00 1851878480
0.736678 0.381674 0.929762 0.000000000000000e+00 1851878480
0.698419 0.329220 1.033647 0.000000000000000e+00 1851878480
0.564938 0.168428 1.156989 0.000000000000000e+00 1851878480
0.892743 0.607790 0.184592 0.000000000000000e+00 1851878480
0.924453 0.634630 0.279686 0.000000000000000e+00 1851878480
0.962633 0.668904 0.373160 0.000000000000000e+00 1851878480
0.991105 0.692503 0.463941 0.000000000000000e+00 1851878480
1.002589 0.697273 0.551559 0.000000000000000e+00 1851878480
1.041099 0.732519 0.638594 0.000000000000000e+00 1851878480
0.891243 0.555306 0.730248 0.000000000000000e+00 1851878480
0.929533 0.590130 0.819152 0.000000000000000e+00 1851878480
0.736224 0.362220 0.930010 0.000000000000000e+00 1851878480
0.697769 0.309228 1.034281 0.000000000000000e+00 1851878480
0.564350 0.147531 1.158018 0.000000000000000e+00 1851878480
0.883597 0.579973 0.180705 0.000000000000000e+00 1851878480
0.930893 0.624397 0.278649 0.000000000000000e+00 1851878480
0.959564 0.648231 0.371212 0.000000000000000e+00 1851878480
0.995088 0.679905 0.462919 0.000000000000000e+00 1851878480
0.999756 0.677026 0.550448 0.000000000000000e+00 1851878480
1.032192 0.705602 0.637879 0.000000000000000e+00 1851878480
0.872847 0.516511 0.730437 0.000000000000000e+00 1851878480
0.924507 0.566717 0.819381 0.000000000000000e+00 1851878480
0.747169 0.355651 0.929073 0.000000000000000e+00 1851878480
0.693804 0.285296 1.035389 0.000000000000000e+00 1851878480
0.565320 0.128278 1.158785 0.000000000000000e+00 1851878480
0.889515 0.568828 0.179450 0.000000000000000e+00 1851878480
0.923897 0.599003 0.275697 0.000000000000000e+00 1851878480
0.956612 0.627530 0.369259 0.000000000000000e+00 1851878480
1.001552 0.670057 0.462069 0.000000000000000e+00 1851878480
1.009661 0.671092 0.549798 0.000000000000000e+00 1851878480
1.035163 0.691979 0.637177 0.000000000000000e+00 1851878480
0.873114 0.498661 0.729992 0.000000000000000e+00 1851878480
0.921768 0.545733 0.819453 0.000000000000000e+00 1851878480
0.745384 0.334474 0.929469 0.000000000000000e+00 1851878480
0.686801 0.257675 1.036933 0.000000000000000e+00 1851878480
0.556384 0.097448 1.161312 0.000000000000000e+00 1851878480
0.881525 0.541929 0.175711 0.000000000000000e+00 1851878480
0.925214 0.582811 0.273906 0.000000000000000e+00 1851878480
0.965298 0.619892 0.368544 0.000000000000000e+00 1851878480
1.001023 0.652210 0.460710 0.000000000000000e+00 1851878480
0.995194 0.637325 0.548241 0.000000000000000e+00 1851878480
1.042105 0.682832 0.636480 0.000000000000000e+00 1851878480
0.876584 0.484372 0.729438 0.000000000000000e+00 1851878480
0.912277 0.516804 0.819991 0.000000000000000e+00 1851878480
0.738446 0.307180 0.930409 0.000000000000000e+00 1851878480
0.690244 0.241932 1.037019 0.000000000000000e+00 1851878480
0.556913 0.077356 1.162183 0.000000000000000e+00 1851878480
0.901331 0.546391 0.176911 0.000000000000000e+00 1851878480
0.924806 0.564550 0.271853 0.000000000000000e+00 1851878480
0.964734 0.601681 0.366825 0.000000000000000e+00 1851878480
0.990889 0.623224 0.458639 0.000000000000000e+00 1851878480
1.000158 0.625578 0.547397 0.000000000000000e+00 1851878480
0.982803 0.597274 0.635624 0.000000000000000e+00 1851878480
0.884308 0.474925 0.728743 0.000000000000000e+00 1851878480
0.937276 0.527619 0.818156 0.000000000000000e+00 1851878480
0.747326 0.298056 0.929700 0.000000000000000e+00 1851878480
0.691971 0.224099 1.037354 0.000000000000000e+00 1851878480
0.571293 0.073334 1.160612 0.000000000000000e+00 1851878480
0.884219 0.508786 0.171490 0.000000000000000e+00 1851878480
0.925434 0.547346 0.269933 0.000000000000000e+00 1851878480
0.961953 0.580790 0.364850 0.000000000000000e+00 1851878480
0.993809 0.609034 0.457507 0.000000000000000e+00 1851878480
1.001903 0.610055 0.546427 0.000000000000000e+00 1851878480
0.986698 0.584082 0.634900 0.000000000000000e+00 1851878480
0.883197 0.455177 0.728342 0.000000000000000e+00 1851878480
0.925083 0.495261 0.818884 0.000000000000000e+00 1851878480
0.742479 0.272857 0.930433 0.000000000000000e+00 1851878480
0.688430 0.199968 1.038440 0.000000000000000e+00 1851878480
0.565288 0.045373 1.162663 0.000000000000000e+00 1851878480
0.887773 0.494596 0.169752 0.000000000000000e+00 1851878480
0.922552 0.525981 0.267487 0.000000000000000e+00 1851878480
0.960472 0.561243 0.363001 0.000000000000000e+00 1851878480
0.999532 0.598019 0.456576 0.000000000000000e+00 1851878480
0.994384 0.583656 0.545094 0.000000000000000e+00 1851878480
0.990904 0.571187 0.634175 0.000000000000000e+00 1851878480
0.892546 0.447534 0.727594 0.000000000000000e+00 1851878480
0.920722 0.471799 0.819074 0.000000000000000e+00 1851878480
0.737983 0.247867 0.931134 0.000000000000000e+00 1851878480
0.703272 0.197356 1.036938 0.000000000000000e+00 1851878480
0.562783 0.021327 1.164108 0.000000000000000e+00 1851878480
0.888232 0.476743 0.167439 0.000000000000000e+00 1851878480
0.933153 0.520099 0.266989 0.000000000000000e+00 1851878480
0.965357 0.548959 0.361839 0.000000000000000e+00 1851878480
0.993846 0.573635 0.454789 0.000000000000000e+00 1851878480
0.920390 0.479177 0.541158 0.000000000000000e+00 1851878480
0.977247 0.537245 0.633389 0.000000000000000e+00 1851878480
0.887212 0.422595 0.727329 0.000000000000000e+00 1851878480
0.912999 0.444171 0.819496 0.000000000000000e+00 1851878480
0.752000 0.244601 0.929900 0.000000000000000e+00 1851878480
0.688679 0.159840 1.039605 0.000000000000000e+00 1851878480
0.568745 0.007181 1.164059 0.000000000000000e+00 1851878480
0.880713 0.449475 0.163650 0.000000000000000e+00 1851878480
0.931933 0.500430 0.264755 0.000000000000000e+00 1851878480
0.961352 0.526204 0.359682 0.000000000000000e+00 1851878480
0.995081 0.557176 0.453506 0.000000000000000e+00 1851878480
0.939508 0.483215 0.540819 0.000000000000000e+00 1851878480
0.985684 0.529086 0.632670 0.000000000000000e+00 1851878480
0.893856 0.411641 0.726670 0.000000000000000e+00 1851878480
0.919762 0.433515 0.818925 0.000000000000000e+00 1851878480
0.738471 0.208563 0.931561 0.000000000000000e+00 1851878480
0.695311 0.147339 1.039279 0.000000000000000e+00 1851878480
0.559216 -0.025602 1.166785 0.000000000000000e+00 1851878480
0.886516 0.437580 0.162270 0.000000000000000e+00 1851878480
0.919961 0.467980 0.260916 0.000000000000000e+00 1851878480
0.961283 0.507902 0.357946 0.000000000000000e+00 1851878480
0.993824 0.537661 0.452024 0.000000000000000e+00 1851878480
0.926023 0.448750 0.539190 0.000000000000000e+00 1851878480
0.974135 0.497160 0.631874 0.000000000000000e+00 1851878480
0.884755 0.381876 0.726523 0.000000000000000e+00 1851878480
0.920202 0.415263 0.818789 0.000000000000000e+00 1851878480
0.748873 0.200884 0.930715 0.000000000000000e+00 1851878480
0.689898 0.120303 1.040669 0.000000000000000e+00 1851878480
0.561322 -0.044645 1.167449 0.000000000000000e+00 1851878480
0.883180 0.414859 0.159195 0.000000000000000e+00 1851878480
0.927234 0.457982 0.259895 0.000000000000000e+00 1851878480
0.967672 0.497127 0.356922 0.000000000000000e+00 1851878480
0.931119 0.444922 0.445847 0.000000000000000e+00 1851878480
0.935641 0.441511 0.538472 0.000000000000000e+00 1851878480
0.984056 0.490615 0.631156 0.000000000000000e+00 1851878480
0.905612 0.387779 0.725405 0.000000000000000e+00 1851878480
0.920857 0.397142 0.818641 0.000000000000000e+00 1851878480
0.745075 0.176079 0.931365 0.000000000000000e+00 1851878480
0.693708 0.104199 1.040758 0.000000000000000e+00 1851878480
0.560273 -0.067642 1.168691 0.000000000000000e+00 1851878480
0.889733 0.403686 0.157925 0.000000000000000e+00 1851878480
0.917056 0.427194 0.256265 0.000000000000000e+00 1851878480
0.968320 0.479463 0.355243 0.000000000000000e+00 1851878480
0.946997 0.445165 0.445622 0.000000000000000e+00 1851878480
0.928098 0.413685 0.537056 0.000000000000000e+00 1851878480
0.987028 0.475720 0.630408 0.000000000000000e+00 1851878480
0.889634 0.349393 0.725475 0.000000000000000e+00 1851878480
0.906738 0.361009 0.819508 0.000000000000000e+00 1851878480
0.754144 0.166690 0.930668 0.000000000000000e+00 1851878480
0.688054 0.076478 1.042204 0.000000000000000e+00 1851878480
0.557971 -0.092343 1.170172 0.000000000000000e+00 1851878480
0.890553 0.385631 0.155579 0.000000000000000e+00 1851878480
0.929082 0.422700 0.255932 0.000000000000000e+00 1851878480
0.968160 0.460705 0.353458 0.000000000000000e+00 1851878480
0.930310 0.406301 0.442885 0.000000000000000e+00 1851878480
0.936280 0.404597 0.536271 0.000000000000000e+00 1851878480
0.993132 0.464527 0.629672 0.000000000000000e+00 1851878480
0.887115 0.326974 0.725108 0.000000000000000e+00 1851878480
0.918737 0.356335 0.818586 0.000000000000000e+00 1851878480
0.756599 0.149210 0.930671 0.000000000000000e+00 1851878480
0.698541 0.068293 1.041358 0.000000000000000e+00 1851878480
0.563138 -0.108063 1.170324 0.000000000000000e+00 1851878480
0.891246 0.367299 0.153189 0.000000000000000e+00 1851878480
0.925678 0.399667 0.253273 0.000000000000000e+00 1851878480
0.889569 0.347082 0.342676 0.000000000000000e+00 1851878480
0.935638 0.393721 0.441834 0.000000000000000e+00 1851878480
0.948429 0.400314 0.535651 0.000000000000000e+00 1851878480
0.979784 0.429593 0.628836 0.000000000000000e+00 1851878480
0.899864 0.323035 0.724253 0.000000000000000e+00 1851878480
0.924344 0.343871 0.818104 0.000000000000000e+00 1851878480
0.749252 0.119573 0.931713 0.000000000000000e+00 1851878480
0.704843 0.054955 1.041116 0.000000000000000e+00 1851878480
0.556468 -0.138497 1.172622 0.000000000000000e+00 1851878480
0.895282 0.352873 0.151408 0.000000000000000e+00 1851878480
0.925860 0.380786 0.251134 0.000000000000000e+00 1851878480
0.886945 0.324470 0.340522 0.000000000000000e+00 1851878480
0.936549 0.375697 0.440430 0.000000000000000e+00 1851878480
0.929230 0.357753 0.533717 0.000000000000000e+00 1851878480
0.978330 0.408898 0.628052 0.000000000000000e+00 1851878480
0.880353 0.279481 0.724421 0.000000000000000e+00 1851878480
0.907294 0.303410 0.819176 0.000000000000000e+00 1851878480
0.746277 0.095075 0.932301 0.000000000000000e+00 1851878480
0.692883 0.018907 1.043494 0.000000000000000e+00 1851878480
0.556105 -0.161355 1.173798 0.000000000000000e+00 1851878480
0.883477 0.319109 0.146615 0.000000000000000e+00 1851878480
0.913622 0.346625 0.247081 0.000000000000000e+00 1851878480
0.892785 0.312024 0.339331 0.000000000000000e+00 1851878480
0.941499 0.362497 0.439335 0.000000000000000e+00 1851878480
0.931193 0.340788 0.532655 0.000000000000000e+00 1851878480
0.986378 0.399760 0.627316 0.000000000000000e+00 1851878480
0.886390 0.267087 0.723777 0.000000000000000e+00 1851878480
0.921322 0.301099 0.818122 0.000000000000000e+00 1851878480
0.753782 0.083414 0.931787 0.000000000000000e+00 1851878480
0.689222 -0.007129 1.044697 0.000000000000000e+00 1851878480
0.552630 -0.188282 1.175553 0.000000000000000e+00 1851878480
0.893515 0.311742 0.145930 0.000000000000000e+00 1851878480
0.916381 0.330534 0.245290 0.000000000000000e+00 1851878480
0.899301 0.300352 0.338211 0.000000000000000e+00 1851878480
0.937079 0.337668 0.437487 0.000000000000000e+00 1851878480
0.939175 0.331155 0.531845 0.000000000000000e+00 1851878480
0.988418 0.383147 0.626543 0.000000000000000e+00 1851878480
0.882421 0.242184 0.723447 0.000000000000000e+00 1851878480
0.918572 0.277913 0.818218 0.000000000000000e+00 1851878480
0.743037 0.048867 0.933208 0.000000000000000e+00 1851878480
0.688638 -0.029517 1.045470 0.000000000000000e+00 1851878480
0.553619 -0.209811 1.176515 0.000000000000000e+00 1851878480
0.880450 0.275946 0.140826 0.000000000000000e+00 1851878480
0.918481 0.313527 0.243382 0.000000000000000e+00 1851878480
0.895025 0.275275 0.335818 0.000000000000000e+00 1851878480
0.934734 0.315201 0.435788 0.000000000000000e+00 1851878480
0.935013 0.306380 0.530507 0.000000000000000e+00 1851878480
0.996973 0.374557 0.625808 0.000000000000000e+00 1851878480
0.890996 0.232778 0.722724 0.000000000000000e+00 1851878480
0.905653 0.241766 0.819011 0.000000000000000e+00 1851878480
0.755153 0.042788 0.932218 0.000000000000000e+00 1851878480
0.700268 -0.036650 1.044497 0.000000000000000e+00 1851878480
0.554538 -0.231586 1.177503 0.000000000000000e+00 1851878480
0.880195 0.255667 0.138134 0.000000000000000e+00 1851878480
0.922374 0.298631 0.241738 0.000000000000000e+00 1851878480
0.899546 0.260938 0.334442 0.000000000000000e+00 1851878480
0.927311 0.286209 0.433664 0.000000000000000e+00 1851878480
0.936296 0.288213 0.529395 0.000000000000000e+00 1851878480
0.992676 0.349806 0.624988 0.000000000000000e+00 1851878480
0.881838 0.201008 0.722550 0.000000000000000e+00 1851878480
0.912253 0.229931 0.818472 0.000000000000000e+00 1851878480
0.741289 0.003811 0.933983 0.000000000000000e+00 1851878480
0.683970 -0.079265 1.047552 0.000000000000000e+00 1851878480
0.565912 -0.240194 1.176599 0.000000000000000e+00 1851878480
0.907168 0.259780 0.237100 0.000000000000000e+00 1851878480
0.904178 0.246661 0.333069 0.000000000000000e+00 1851878480
0.941110 0.283628 0.433247 0.000000000000000e+00 1851878480
0.941389 0.274719 0.528444 0.000000000000000e+00 1851878480
1.003705 0.344216 0.624267 0.000000000000000e+00 1851878480
0.896705 0.199403 0.721633 0.000000000000000e+00 1851878480
0.911409 0.208582 0.818443 0.000000000000000e+00 1851878480
0.745869 -0.012028 0.933801 0.000000000000000e+00 1851878480
0.689454 -0.094446 1.047482 0.000000000000000e+00 1851878480
0.548582 -0.285616 1.180946 0.000000000000000e+00 1851878480
0.930212 0.268642 0.238418 0.000000000000000e+00 1851878480
0.899777 0.220914 0.330607 0.000000000000000e+00 1851878480
0.931966 0.252096 0.430952 0.000000000000000e+00 1851878480
0.940137 0.253107 0.527205 0.000000000000000e+00 1851878480
0.990644 0.308010 0.623373 0.000000000000000e+00 1851878480
0.886792 0.166265 0.721477 0.000000000000000e+00 1851878480
0.904011 0.178681 0.818864 0.000000000000000e+00 1851878480
0.757392 -0.019048 0.932887 0.000000000000000e+00 1851878480
0.684901 -0.122623 1.048870 0.000000000000000e+00 1851878480
0.535447 -0.326075 1.184554 0.000000000000000e+00 1851878480
0.928307 0.246140 0.235819 0.000000000000000e+00 1851878480
0.890972 0.189353 0.327591 0.000000000000000e+00 1851878480
0.943945 0.247145 0.430379 0.000000000000000e+00 1851878480
0.942455 0.235876 0.526117 0.000000000000000e+00 1851878480
1.002525 0.303368 0.622654 0.000000000000000e+00 1851878480
0.902678 0.165925 0.720532 0.000000000000000e+00 1851878480
0.911602 0.167797 0.818264 0.000000000000000e+00 1851878480
0.749308 -0.051373 0.934061 0.000000000000000e+00 1851878480
0.685925 -0.143830 1.049464 0.000000000000000e+00 1851878480
0.923394 0.219625 0.232719 0.000000000000000e+00 1851878480
0.898235 0.178010 0.326491 0.000000000000000e+00 1851878480
0.933720 0.213795 0.427958 0.000000000000000e+00 1851878480
0.935592 0.206734 0.524603 0.000000000000000e+00 1851878480
0.987296 0.263846 0.621722 0.000000000000000e+00 1851878480
0.893742 0.133618 0.720340 0.000000000000000e+00 1851878480
0.908700 0.143284 0.818381 0.000000000000000e+00 1851878480
0.750738 -0.071636 0.934230 0.000000000000000e+00 1851878480
0.686505 -0.165773 1.050132 0.000000000000000e+00 1851878480
0.921945 0.197312 0.230143 0.000000000000000e+00 1851878480
0.906541 0.167965 0.325513 0.000000000000000e+00 1851878480
0.927209 0.184911 0.425824 0.000000000000000e+00 1851878480
0.942114 0.194622 0.523690 0.000000000000000e+00 1851878480
0.992650 0.250599 0.620945 0.000000000000000e+00 1851878480
0.894581 0.113708 0.719850 0.000000000000000e+00 1851878480
0.905693 0.118424 0.818508 0.000000000000000e+00 1851878480
0.752659 -0.091407 0.934354 0.000000000000000e+00 1851878480
0.693625 -0.179310 1.049859 0.000000000000000e+00 1851878480
0.927772 0.184195 0.228711 0.000000000000000e+00 1851878480
0.891575 0.127806 0.321675 0.000000000000000e+00 1851878480
0.934017 0.173030 0.424793 0.000000000000000e+00 1851878480
0.949381 0.183424 0.522809 0.000000000000000e+00 1851878480
0.994265 0.232405 0.620134 0.000000000000000e+00 1851878480
0.895188 0.093345 0.719365 0.000000000000000e+00 1851878480
0.908587 0.101090 0.818235 0.000000000000000e+00 1851878480
0.753443 -0.112819 0.934604 0.000000000000000e+00 1851878480
0.689086 -0.208292 1.051292 0.000000000000000e+00 1851878480
0.928318 0.164162 0.226416 0.000000000000000e+00 1851878480
0.896687 0.113359 0.320275 0.000000000000000e+00 1851878480
0.945544 0.167253 0.424160 0.000000000000000e+00 1851878480
0.943012 0.154338 0.521283 0.000000000000000e+00 1851878480
0.996982 0.215523 0.619329 0.000000000000000e+00 1851878480
0.888346 0.063022 0.719099 0.000000000000000e+00 1851878480
0.901734 0.070773 0.818627 0.000000000000000e+00 1851878480
0.745000 -0.146609 0.935846 0.000000000000000e+00 1851878480
0.689765 -0.230606 1.051977 0.000000000000000e+00 1851878480
0.914765 0.125571 0.221811 0.000000000000000e+00 1851878480
0.885897 0.078013 0.316889 0.000000000000000e+00 1851878480
0.945786 0.146686 0.422559 0.000000000000000e+00 1851878480
0.939832 0.129182 0.519893 0.000000000000000e+00 1851878480
0.993259 0.190019 0.618459 0.000000000000000e+00 1851878480
0.890351 0.044131 0.718569 0.000000000000000e+00 1851878480
0.905565 0.054361 0.818295 0.000000000000000e+00 1851878480
0.747170 -0.166584 0.935962 0.000000000000000e+00 1851878480
0.685755 -0.259357 1.053359 0.000000000000000e+00 1851878480
0.930781 0.125433 0.221988 0.000000000000000e+00 1851878480
0.904852 0.081507 0.317188 0.000000000000000e+00 1851878480
0.944347 0.123738 0.420800 0.000000000000000e+00 1851878480
0.939231 0.107227 0.518614 0.000000000000000e+00 1851878480
0.994103 0.170362 0.617626 0.000000000000000e+00 1851878480
0.885100 0.015436 0.718249 0.000000000000000e+00 1851878480
0.916271 0.047032 0.817496 0.000000000000000e+00 1851878480
0.738455 -0.201291 0.937249 0.000000000000000e+00 1851878480
0.695610 -0.269722 1.052723 0.000000000000000e+00 1851878480
0.915310 0.083770 0.217001 0.000000000000000e+00 1851878480
0.917431 0.076687 0.316696 0.000000000000000e+00 1851878480
0.938777 0.095102 0.418665 0.000000000000000e+00 1851878480
0.952154 0.103120 0.517981 0.000000000000000e+00 1851878480
0.992669 0.147501 0.616764 0.000000000000000e+00 1851878480
0.897569 0.010237 0.717411 0.000000000000000e+00 1851878480
0.897775 0.000434 0.818687 0.000000000000000e+00 1851878480
0.739735 -0.222855 0.937475 0.000000000000000e+00 1851878480
0.683258 -0.310154 1.055353 0.000000000000000e+00 1851878480
0.926274 0.076838 0.216329 0.000000000000000e+00 1851878480
0.903663 0.036761 0.312869 0.000000000000000e+00 1851878480
0.947227 0.084960 0.417739 0.000000000000000e+00 1851878480
0.948183 0.076391 0.516522 0.000000000000000e+00 1851878480
0.999520 0.135596 0.615980 0.000000000000000e+00 1851878480
0.884904 -0.028846 0.717301 0.000000000000000e+00 1851878480
0.915540 0.002419 0.817414 0.000000000000000e+00 1851878480
0.748212 -0.234817 0.936934 0.000000000000000e+00 1851878480
0.687220 -0.328783 1.055602 0.000000000000000e+00 1851878480
0.922806 0.050601 0.213258 0.000000000000000e+00 1851878480
0.906561 0.018799 0.311125 0.000000000000000e+00 1851878480
0.938759 0.052009 0.415314 0.000000000000000e+00 1851878480
0.948598 0.055343 0.515266 0.000000000000000e+00 1851878480
1.003164 0.119292 0.615162 0.000000000000000e+00 1851878480
0.885077 -0.050890 0.716816 0.000000000000000e+00 1851878480
0.906773 -0.031606 0.817947 0.000000000000000e+00 1851878480
0.729421 -0.284070 0.939328 0.000000000000000e+00 1851878480
0.688464 -0.351264 1.056261 0.000000000000000e+00 1851878480
0.923970 0.030368 0.210931 0.000000000000000e+00 1851878480
0.907091 -0.002490 0.309063 0.000000000000000e+00 1851878480
0.948557 0.043484 0.414489 0.000000000000000e+00 1851878480
0.961569 0.051186 0.514628 0.000000000000000e+00 1851878480
1.001777 0.096022 0.614284 0.000000000000000e+00 1851878480
0.888170 -0.069125 0.716245 0.000000000000000e+00 1851878480
0.909227 -0.050586 0.817719 0.000000000000000e+00 1851878480
0.735447 -0.299732 0.939064 0.000000000000000e+00 1851878480
0.685706 -0.379440 1.057523 0.000000000000000e+00 1851878480
0.929463 0.015844 0.209311 0.000000000000000e+00 1851878480
0.906852 -0.024996 0.306883 0.000000000000000e+00 1851878480
0.950542 0.024296 0.412962 0.000000000000000e+00 1851878480
0.950897 0.014744 0.512798 0.000000000000000e+00 1851878480
1.006725 0.081238 0.613471 0.000000000000000e+00 1851878480
0.887748 -0.092324 0.715774 0.000000000000000e+00 1851878480
0.888861 -0.101181 0.819044 0.000000000000000e+00 1851878480
0.746180 -0.308976 0.938299 0.000000000000000e+00 1851878480
0.687687 -0.401293 1.058096 0.000000000000000e+00 1851878480
0.925183 -0.012096 0.206024 0.000000000000000e+00 1851878480
0.914344 -0.037113 0.305688 0.000000000000000e+00 1851878480
0.952871 0.005433 0.411454 0.000000000000000e+00 1851878480
0.958411 0.002962 0.511875 0.000000000000000e+00 1851878480
0.991051 0.037905 0.612414 0.000000000000000e+00 1851878480
0.887260 -0.115811 0.715302 0.000000000000000e+00 1851878480
0.900281 -0.108202 0.818212 0.000000000000000e+00 1851878480
0.737298 -0.345536 0.939654 0.000000000000000e+00 1851878480
0.694239 -0.416934 1.058003 0.000000000000000e+00 1851878480
0.928177 -0.030311 0.203943 0.000000000000000e+00 1851878480
0.894760 -0.086561 0.300944 0.000000000000000e+00 1851878480
0.948407 -0.022950 0.409315 0.000000000000000e+00 1851878480
0.957212 -0.020939 0.510499 0.000000000000000e+00 1851878480
1.000799 0.029418 0.611645 0.000000000000000e+00 1851878480
0.900668 -0.120142 0.714438 0.000000000000000e+00 1851878480
0.905706 -0.123587 0.817790 0.000000000000000e+00 1851878480
0.736900 -0.370572 0.940102 0.000000000000000e+00 1851878480
0.666908 -0.480269 1.062956 0.000000000000000e+00 1851878480
0.920364 -0.063584 0.199994 0.000000000000000e+00 1851878480
0.912657 -0.084609 0.301082 0.000000000000000e+00 1851878480
0.946022 -0.048708 0.407345 0.000000000000000e+00 1851878480
0.952741 -0.049605 0.508941 0.000000000000000e+00 1851878480
1.001723 0.008590 0.610768 0.000000000000000e+00 1851878480
0.896778 -0.148672 0.714059 0.000000000000000e+00 1851878480
0.906992 -0.144883 0.817652 0.000000000000000e+00 1851878480
0.740259 -0.390521 0.940152 0.000000000000000e+00 1851878480
0.910232 -0.100411 0.195604 0.000000000000000e+00 1851878480
0.903829 -0.119798 0.297688 0.000000000000000e+00 1851878480
0.938481 -0.081909 0.404880 0.000000000000000e+00 1851878480
0.960597 -0.061254 0.508015 0.000000000000000e+00 1851878480
0.995012 -0.023149 0.609788 0.000000000000000e+00 1851878480
0.888489 -0.183675 0.713797 0.000000000000000e+00 1851878480
0.896173 -0.183480 0.818337 0.000000000000000e+00 1851878480
0.744616 -0.409207 0.940100 0.000000000000000e+00 1851878480
0.924053 -0.104097 0.195318 0.000000000000000e+00 1851878480
0.914133 -0.128492 0.296809 0.000000000000000e+00 1851878480
0.940969 -0.101323 0.403322 0.000000000000000e+00 1851878480
0.956303 -0.090105 0.506440 0.000000000000000e+00 1851878480
1.000759 -0.037565 0.608959 0.000000000000000e+00 1851878480
0.877755 -0.222498 0.713596 0.000000000000000e+00 1851878480
0.902739 -0.197722 0.817845 0.000000000000000e+00 1851878480
0.739055 -0.442188 0.941130 0.000000000000000e+00 1851878480
0.917847 -0.135931 0.191545 0.000000000000000e+00 1851878480
0.909870 -0.157770 0.293972 0.000000000000000e+00 1851878480
0.945281 -0.118305 0.401923 0.000000000000000e+00 1851878480
0.948844 -0.123723 0.504679 0.000000000000000e+00 1851878480
1.011410 -0.045084 0.608193 0.000000000000000e+00 1851878480
0.881776 -0.240637 0.712988 0.000000000000000e+00 1851878480
0.893466 -0.234741 0.818429 0.000000000000000e+00 1851878480
0.735637 -0.472408 0.941936 0.000000000000000e+00 1851878480
0.934505 -0.135673 0.191742 0.000000000000000e+00 1851878480
0.898286 -0.197730 0.290117 0.000000000000000e+00 1851878480
0.951805 -0.132255 0.400722 0.000000000000000e+00 1851878480
0.946592 -0.150232 0.503181 0.000000000000000e+00 1851878480
0.999035 -0.085616 0.607110 0.000000000000000e+00 1851878480
0.895413 -0.245083 0.712119 0.000000000000000e+00 1851878480
0.898513 -0.251485 0.818045 0.000000000000000e+00 1851878480
0.733794 -0.500632 0.942581 0.000000000000000e+00 1851878480
0.927806 -0.168627 0.187827 0.000000000000000e+00 1851878480
0.909534 -0.205445 0.289325 0.000000000000000e+00 1851878480
0.957112 -0.148031 0.399398 0.000000000000000e+00 1851878480
0.961026 -0.152976 0.502583 0.000000000000000e+00 1851878480
0.989329 -0.122725 0.606049 0.000000000000000e+00 1851878480
0.894027 -0.271225 0.711655 0.000000000000000e+00 1851878480
0.902217 -0.270293 0.817755 0.000000000000000e+00 1851878480
0.737309 -0.521315 0.942650 0.000000000000000e+00 1851878480
0.918508 -0.205637 0.183410 0.000000000000000e+00 1851878480
0.912322 -0.225338 0.287373 0.000000000000000e+00 1851878480
0.955340 -0.174133 0.397386 0.000000000000000e+00 1851878480
0.958760 -0.179840 0.501065 0.000000000000000e+00 1851878480
1.007914 -0.119128 0.605386 0.000000000000000e+00 1851878480
0.887443 -0.305175 0.711328 0.000000000000000e+00 1851878480
0.900576 -0.297053 0.817830 0.000000000000000e+00 1851878480
0.734995 -0.550696 0.943362 0.000000000000000e+00 1851878480
0.907964 -0.244822 0.178724 0.000000000000000e+00 1851878480
0.910866 -0.251536 0.284819 0.000000000000000e+00 1851878480
0.952277 -0.202347 0.395229 0.000000000000000e+00 1851878480
0.955968 -0.207716 0.499502 0.000000000000000e+00 1851878480
1.001149 -0.152438 0.604350 0.000000000000000e+00 1851878480
0.883776 -0.335184 0.710918 0.000000000000000e+00 1851878480
0.901019 -0.320990 0.817766 0.000000000000000e+00 1851878480
0.747283 -0.558817 0.942488 0.000000000000000e+00 1851878480
0.922030 -0.248634 0.178409 0.000000000000000e+00 1851878480
0.911814 -0.274468 0.282573 0.000000000000000e+00 1851878480
0.953436 -0.224656 0.393462 0.000000000000000e+00 1851878480
0.951718 -0.237998 0.497841 0.000000000000000e+00 1851878480
0.989940 -0.192624 0.603234 0.000000000000000e+00 1851878480
0.891114 -0.349247 0.710215 0.000000000000000e+00 1851878480
0.901164 -0.345581 0.817725 0.000000000000000e+00 1851878480
0.740622 -0.595062 0.943692 0.000000000000000e+00 1851878480
0.917712 -0.279301 0.174773 0.000000000000000e+00 1851878480
0.917173 -0.291125 0.280922 0.000000000000000e+00 1851878480
0.960064 -0.239105 0.392216 0.000000000000000e+00 1851878480
0.949878 -0.265016 0.496301 0.000000000000000e+00 1851878480
0.999373 -0.202671 0.602426 0.000000000000000e+00 1851878480
0.879919 -0.390914 0.709996 0.000000000000000e+00 1851878480
0.897931 -0.375423 0.817915 0.000000000000000e+00 1851878480
0.734853 -0.630339 0.944808 0.000000000000000e+00 1851878480
0.915040 -0.307841 0.171398 0.000000000000000e+00 1851878480
0.912000 -0.323457 0.277776 0.000000000000000e+00 1851878480
0.950334 -0.277883 0.389343 0.000000000000000e+00 1851878480
0.964202 -0.268267 0.495676 0.000000000000000e+00 1851878480
0.991133 -0.239090 0.601334 0.000000000000000e+00 1851878480
0.882554 -0.412351 0.709412 0.000000000000000e+00 1851878480
0.887252 -0.416716 0.818613 0.000000000000000e+00 1851878480
0.912439 -0.336548 0.168002 0.000000000000000e+00 1851878480
0.917612 -0.340072 0.276124 0.000000000000000e+00 1851878480
0.952473 -0.299365 0.387620 0.000000000000000e+00 1851878480
0.957367 -0.303109 0.493824 0.000000000000000e+00 1851878480
1.007553 -0.238896 0.600633 0.000000000000000e+00 1851878480
0.895527 -0.418410 0.708561 0.000000000000000e+00 1851878480
0.884354 -0.446705 0.818786 0.000000000000000e+00 1851878480
0.905067 -0.372649 0.163691 0.000000000000000e+00 1851878480
0.914851 -0.369338 0.273265 0.000000000000000e+00 1851878480
0.953211 -0.323132 0.385742 0.000000000000000e+00 1851878480
0.953500 -0.333840 0.492125 0.000000000000000e+00 1851878480
0.995919 -0.280959 0.599464 0.000000000000000e+00 1851878480
0.880214 -0.467283 0.708433 0.000000000000000e+00 1851878480
0.881330 -0.477176 0.818970 0.000000000000000e+00 1851878480
0.861065 -0.519694 0.932411 0.000000000000000e+00 1768716611
0.908666 -0.392644 0.161367 0.000000000000000e+00 1851878480
0.912089 -0.398887 0.270376 0.000000000000000e+00 1851878480
0.950957 -0.351633 0.383543 0.000000000000000e+00 1851878480
0.956426 -0.354579 0.490812 0.000000000000000e+00 1851878480
1.001538 -0.297257 0.598576 0.000000000000000e+00 1851878480
0.888368 -0.480925 0.707703 0.000000000000000e+00 1851878480
0.892385 -0.486422 0.818204 0.000000000000000e+00 1768716611
0.882732 -0.512910 0.930517 0.000000000000000e+00 1768716611
0.897347 -0.435351 0.156239 0.000000000000000e+00 1851878480
0.914695 -0.420579 0.268233 0.000000000000000e+00 1851878480
0.947042 -0.382931 0.381152 0.000000000000000e+00 1851878480
0.964493 -0.367646 0.489796 0.000000000000000e+00 1851878480
1.004220 -0.318158 0.597633 0.000000000000000e+00 1851878480
0.882936 -0.515486 0.707314 0.000000000000000e+00 1851878480
0.917996 -0.473283 0.816456 0.000000000000000e+00 1768716611
0.904089 -0.506406 0.928657 0.000000000000000e+00 1768716611
0.902404 -0.453600 0.154127 0.000000000000000e+00 1851878480
0.906903 -0.458330 0.264557 0.000000000000000e+00 1851878480
0.953556 -0.398577 0.379808 0.000000000000000e+00 1851878480
0.955205 -0.407438 0.487726 0.000000000000000e+00 1851878480
0.979591 -0.381299 0.596191 0.000000000000000e+00 1851878480
0.890117 -0.530922 0.706606 0.000000000000000e+00 1851878480
0.925385 -0.488096 0.815944 0.000000000000000e+00 1768716611
0.923145 -0.503291 0.927052 0.000000000000000e+00 1768716611
0.904052 -0.477209 0.151352 0.000000000000000e+00 1851878480
0.902739 -0.490906 0.261371 0.000000000000000e+00 1851878480
0.954368 -0.423118 0.377864 0.000000000000000e+00 1851878480
0.947425 -0.445324 0.485723 0.000000000000000e+00 1851878480
0.992579 -0.386864 0.595414 0.000000000000000e+00 1851878480
0.892122 -0.554507 0.706026 0.000000000000000e+00 1851878480
0.931605 -0.504828 0.815514 0.000000000000000e+00 1768716611
0.957209 -0.476562 0.923784 0.000000000000000e+00 1768716611
0.890395 -0.524633 0.145640 0.000000000000000e+00 1851878480
0.913716 -0.500389 0.260383 0.000000000000000e+00 1851878480
0.939436 -0.472307 0.374257 0.000000000000000e+00 1851878480
0.954678 -0.460223 0.484623 0.000000000000000e+00 1851878480
0.988108 -0.419649 0.594310 0.000000000000000e+00 1851878480
0.892094 -0.581482 0.705494 0.000000000000000e+00 1851878480
0.874134 -0.621652 0.819398 0.000000000000000e+00 1851878480
0.966565 -0.488272 0.923257 0.000000000000000e+00 1768716611
0.898900 -0.538176 0.144102 0.000000000000000e+00 1851878480
0.914737 -0.525398 0.257913 0.000000000000000e+00 1851878480
0.944014 -0.491581 0.372659 0.000000000000000e+00 1851878480
0.967870 -0.465917 0.483888 0.000000000000000e+00 1851878480
0.985808 -0.449359 0.593236 0.000000000000000e+00 1851878480
0.887982 -0.615147 0.705058 0.000000000000000e+00 1851878480
0.866936 -0.660490 0.819883 0.000000000000000e+00 1851878480
0.987719 -0.481338 0.921421 0.000000000000000e+00 1768716611
0.915979 -0.550292 0.255451 0.000000000000000e+00 1851878480
0.946532 -0.514250 0.370829 0.000000000000000e+00 1851878480
0.948282 -0.523268 0.481092 0.000000000000000e+00 1851878480
0.984649 -0.477562 0.592173 0.000000000000000e+00 1851878480
0.894435 -0.632403 0.704363 0.000000000000000e+00 1851878480
0.871817 -0.680534 0.819553 0.000000000000000e+00 1851878480
1.003629 -0.482577 0.920171 0.000000000000000e+00 1768716611
0.910775 -0.585586 0.251995 0.000000000000000e+00 1851878480
0.960028 -0.519746 0.370155 0.000000000000000e+00 1851878480
0.954638 -0.540108 0.479905 0.000000000000000e+00 1851878480
0.987101 -0.500292 0.591174 0.000000000000000e+00 1851878480
0.884714 -0.675609 0.704053 0.000000000000000e+00 1851878480
0.859525 -0.728237 0.820388 0.000000000000000e+00 1851878480
1.037121 -0.455496 0.916958 0.000000000000000e+00 1768716611
0.921142 -0.596511 0.250859 0.000000000000000e+00 1851878480
0.967725 -0.534448 0.368859 0.000000000000000e+00 1851878480
0.960886 -0.557239 0.478704 0.000000000000000e+00 1851878480
0.996629 -0.511884 0.590312 0.000000000000000e+00 1851878480
0.880854 -0.709865 0.703597 0.000000000000000e+00 1851878480
0.865957 -0.746289 0.819960 0.000000000000000e+00 1851878480
1.045569 -0.468436 0.916543 0.000000000000000e+00 1768716611
0.922216 -0.622344 0.248299 0.000000000000000e+00 1851878480
0.966569 -0.563449 0.366592 0.000000000000000e+00 1851878480
0.964761 -0.578320 0.477342 0.000000000000000e+00 1851878480
0.994948 -0.541618 0.589214 0.000000000000000e+00 1851878480
0.883905 -0.733298 0.702975 0.000000000000000e+00 1851878480
0.862506 -0.780521 0.820203 0.000000000000000e+00 1851878480
1.028126 -0.523600 0.919040 0.000000000000000e+00 1768716611
0.741532 -0.927946 0.096735 0.000000000000000e+00 1701537140
0.933348 -0.632230 0.247259 0.000000000000000e+00 1851878480
0.962699 -0.597123 0.364005 0.000000000000000e+00 1851878480
0.961772 -0.610698 0.475519 0.000000000000000e+00 1851878480
0.989095 -0.578430 0.588017 0.000000000000000e+00 1851878480
0.883670 -0.762296 0.702427 0.000000000000000e+00 1851878480
0.850875 -0.828474 0.821004 0.000000000000000e+00 1851878480
0.748062 -0.947337 0.094470 0.000000000000000e+00 1701537140
0.936302 -0.655399 0.244948 0.000000000000000e+00 1851878480
0.966318 -0.618974 0.362214 0.000000000000000e+00 1851878480
0.963838 -0.635172 0.474011 0.000000000000000e+00 1851878480
0.999885 -0.588423 0.587168 0.000000000000000e+00 1851878480
0.879826 -0.797500 0.701959 0.000000000000000e+00 1851878480
0.850636 -0.858231 0.821037 0.000000000000000e+00 1851878480
0.769802 -0.942130 0.095228 0.000000000000000e+00 1701537140
0.928184 -0.696847 0.240888 0.000000000000000e+00 1851878480
0.969970 -0.640965 0.360411 0.000000000000000e+00 1851878480
0.974510 -0.645746 0.473064 0.000000000000000e+00 1851878480
0.999504 -0.616841 0.586069 0.000000000000000e+00 1851878480
0.886329 -0.815992 0.701249 0.000000000000000e+00 1851878480
0.850393 -0.888293 0.821073 0.000000000000000e+00 1851878480
0.795628 -0.930048 0.096827 0.000000000000000e+00 1701537140
0.934695 -0.714721 0.239077 0.000000000000000e+00 1851878480
0.969847 -0.669374 0.358169 0.000000000000000e+00 1851878480
0.974202 -0.674511 0.471374 0.000000000000000e+00 1851878480
1.013265 -0.622104 0.585282 0.000000000000000e+00 1851878480
0.882940 -0.851074 0.700763 0.000000000000000e+00 1851878480
0.841998 -0.932249 0.821665 0.000000000000000e+00 1851878480
0.811937 -0.933386 0.096526 0.000000000000000e+00 1701537140
0.937830 -0.738319 0.236716 0.000000000000000e+00 1851878480
0.976690 -0.686509 0.356689 0.000000000000000e+00 1851878480
0.982870 -0.688627 0.470278 0.000000000000000e+00 1851878480
0.996932 -0.677563 0.583801 0.000000000000000e+00 1851878480
0.883440 -0.880020 0.700184 0.000000000000000e+00 1851878480
0.834246 -0.975621 0.822217 0.000000000000000e+00 1851878480
0.840172 -0.916852 0.098664 0.000000000000000e+00 1701537140
0.909030 -0.815317 0.229248 0.000000000000000e+00 1701537140
0.982462 -0.705562 0.355077 0.000000000000000e+00 1851878480
0.977193 -0.726864 0.468190 0.000000000000000e+00 1851878480
1.014114 -0.677356 0.583085 0.000000000000000e+00 1851878480
0.892798 -0.894321 0.699406 0.000000000000000e+00 1851878480
0.837289 -0.952012 0.094444 0.000000000000000e+00 1701537140
0.923986 -0.819896 0.228698 0.000000000000000e+00 1701537140
0.960291 -0.771776 0.350244 0.000000000000000e+00 1701537140
0.983104 -0.745980 0.466882 0.000000000000000e+00 1851878480
1.016184 -0.702617 0.582011 0.000000000000000e+00 1851878480
0.882258 -0.942484 0.699065 0.000000000000000e+00 1851878480
0.860646 -0.943373 0.095605 0.000000000000000e+00 1701537140
0.937114 -0.827520 0.227855 0.000000000000000e+00 1701537140
0.978583 -0.770275 0.350026 0.000000000000000e+00 1701537140
0.965096 -0.805886 0.463887 0.000000000000000e+00 1701537140
1.020412 -0.724450 0.580982 0.000000000000000e+00 1851878480
0.893113 -0.954647 0.698251 0.000000000000000e+00 1851878480
0.890750 -0.923066 0.098195 0.000000000000000e+00 1701537140
0.949779 -0.835929 0.226934 0.000000000000000e+00 1701537140
1.002426 -0.759178 0.350465 0.000000000000000e+00 1701537140
0.976565 -0.816099 0.462937 0.000000000000000e+00 1701537140
1.024284 -0.747090 0.579936 0.000000000000000e+00 1851878480
0.900163 -0.973415 0.697520 0.000000000000000e+00 1851878480
0.904937 -0.929539 0.097491 0.000000000000000e+00 1701537140
0.974245 -0.824144 0.227944 0.000000000000000e+00 1701537140
1.006823 -0.781215 0.348637 0.000000000000000e+00 1701537140
0.994527 -0.815166 0.462450 0.000000000000000e+00 1701537140
1.023643 -0.777739 0.578769 0.000000000000000e+00 1851878480
0.896513 -1.010877 0.697016 0.000000000000000e+00 1851878480
0.926788 -0.922818 0.098404 0.000000000000000e+00 1701537140
0.982500 -0.840036 0.226304 0.000000000000000e+00 1701537140
1.008296 -0.808513 0.346446 0.000000000000000e+00 1701537140
0.998010 -0.839227 0.460923 0.000000000000000e+00 1701537140
1.006748 -0.836989 0.577170 0.000000000000000e+00 1701537140
0.912644 -1.014238 0.696090 0.000000000000000e+00 1851878480
0.925840 -0.955358 0.094491 0.000000000000000e+00 1701537140
0.985453 -0.865251 0.223768 0.000000000000000e+00 1701537140
0.985595 -0.878181 0.341344 0.000000000000000e+00 1701537140
1.010208 -0.848298 0.460019 0.000000000000000e+00 1701537140
1.022519 -0.839742 0.576404 0.000000000000000e+00 1701537140
0.918285 -1.035972 0.695385 0.000000000000000e+00 1851878480
0.956904 -0.932451 0.097384 0.000000000000000e+00 1701537140
0.947777 -0.961740 0.214404 0.000000000000000e+00 1701537140
1.009861 -0.866367 0.341827 0.000000000000000e+00 1701537140
0.839042 -1.179878 0.445601 0.000000000000000e+00 1701537140
1.017938 -0.878331 0.575096 0.000000000000000e+00 1701537140
0.925374 -1.055339 0.694650 0.000000000000000e+00 1851878480
0.961127 -0.956219 0.094543 0.000000000000000e+00 1701537140
0.961490 -0.969005 0.213579 0.000000000000000e+00 1701537140
1.005177 -0.905398 0.338817 0.000000000000000e+00 1701537140
0.833669 -1.222383 0.443252 0.000000000000000e+00 1701537140
1.041835 -0.866767 0.574550 0.000000000000000e+00 1701537140
0.931681 -1.076256 0.693929 0.000000000000000e+00 1851878480
0.977285 -0.959127 0.094260 0.000000000000000e+00 1701537140
0.977805 -0.971660 0.213194 0.000000000000000e+00 1701537140
0.996062 -0.952758 0.335228 0.000000000000000e+00 1701537140
0.940478 -1.065290 0.449306 0.000000000000000e+00 1701537140
1.038276 -0.904056 0.573252 0.000000000000000e+00 1701537140
0.925807 -1.119228 0.693453 0.000000000000000e+00 1851878480
0.966524 -1.009884 0.088099 0.000000000000000e+00 1701537140
0.983923 -0.992452 0.211069 0.000000000000000e+00 1701537140
0.964025 -1.041739 0.328764 0.000000000000000e+00 1701537140
0.966138 -1.051623 0.449338 0.000000000000000e+00 1701537140
0.995970 -1.011583 0.570842 0.000000000000000e+00 1701537140
0.937265 -1.131379 0.692625 0.000000000000000e+00 1851878480
0.971167 -1.033643 0.085251 0.000000000000000e+00 1701537140
0.985400 -1.021777 0.208123 0.000000000000000e+00 1701537140
0.990635 -1.026098 0.329503 0.000000000000000e+00 1701537140
0.982548 -1.054386 0.448679 0.000000000000000e+00 1701537140
1.009299 -1.019585 0.569980 0.000000000000000e+00 1701537140
0.899091 -1.233928 0.692772 0.000000000000000e+00 1851878480
0.965784 -1.075735 0.080150 0.000000000000000e+00 1701537140
0.905602 -1.198608 0.191025 0.000000000000000e+00 1701537140
0.981051 -1.075876 0.325727 0.000000000000000e+00 1701537140
0.983213 -1.085769 0.446805 0.000000000000000e+00 1701537140
0.968011 -1.127413 0.567518 0.000000000000000e+00 1701537140
0.911215 -1.245633 0.691922 0.000000000000000e+00 1851878480
0.947904 -1.141047 0.072197 0.000000000000000e+00 1701537140
0.949009 -1.153136 0.195243 0.000000000000000e+00 1701537140
0.995663 -1.081990 0.324962 0.000000000000000e+00 1701537140
0.950023 -1.179623 0.442263 0.000000000000000e+00 1701537140
0.992184 -1.116187 0.566953 0.000000000000000e+00 1701537140
0.918297 -1.266705 0.691169 0.000000000000000e+00 1851878480
0.957201 -1.157415 0.070247 0.000000000000000e+00 1701537140
0.960561 -1.165421 0.193919 0.000000000000000e+00 1701537140
0.999147 -1.108591 0.322778 0.000000000000000e+00 1701537140
0.967033 -1.181934 0.441612 0.000000000000000e+00 1701537140
1.009423 -1.117546 0.566189 0.000000000000000e+00 1701537140
0.927816 -1.283436 0.690369 0.000000000000000e+00 1851878480
0.968484 -1.170239 0.068729 0.000000000000000e+00 1701537140
0.982705 -1.158169 0.194469 0.000000000000000e+00 1701537140
0.995610 -1.148497 0.319669 0.000000000000000e+00 1701537140
0.990540 -1.172066 0.441485 0.000000000000000e+00 1701537140
1.012047 -1.146104 0.564979 0.000000000000000e+00 1701537140
0.928973 -1.315957 0.689725 0.000000000000000e+00 1851878480
0.965539 -1.209583 0.063954 0.000000000000000e+00 1701537140
0.979832 -1.197334 0.190559 0.000000000000000e+00 1701537140
0.983486 -1.204933 0.315407 0.000000000000000e+00 1701537140
0.993376 -1.200716 0.439707 0.000000000000000e+00 1701537140
0.958921 -1.279842 0.562010 0.000000000000000e+00 1701537140
0.934709 -1.340207 0.688993 0.000000000000000e+00 1851878480
0.984151 -1.209040 0.064069 0.000000000000000e+00 1701537140
0.925648 -1.333297 0.177345 0.000000000000000e+00 1701537140
0.999752 -1.208618 0.314799 0.000000000000000e+00 1701537140
0.984945 -1.250957 0.436993 0.000000000000000e+00 1701537140
1.027212 -1.185368 0.562843 0.000000000000000e+00 1701537140
0.923693 -1.396535 0.688563 0.000000000000000e+00 1851878480
0.964356 -1.280793 0.055314 0.000000000000000e+00 1701537140
0.942614 -1.336581 0.176871 0.000000000000000e+00 1701537140
0.995819 -1.250564 0.311532 0.000000000000000e+00 1701537140
0.963771 -1.326073 0.433195 0.000000000000000e+00 1701537140
1.029109 -1.216120 0.561582 0.000000000000000e+00 1701537140
