# .PCD v0.7 - Point Cloud Data file format
VERSION 0.7
FIELDS x y z rgb label
SIZE 4 4 4 4 4
TYPE F F F F U
COUNT 1 1 1 1 1
WIDTH 770
HEIGHT 1
VIEWPOINT 0 0 0 1 0 0 0
POINTS 770
DATA ascii
-9.966622 0.707797 1.766569 0.000000000000000e+00 1851878480
-10.122426 0.959095 1.794185 0.000000000000000e+00 1851878480
-10.466255 1.243025 1.855128 0.000000000000000e+00 1851878480
-10.243650 -0.241665 1.847554 0.000000000000000e+00 1701537140
-10.054645 0.000000 1.813465 0.000000000000000e+00 1701537140
-9.966216 0.235120 1.797516 0.000000000000000e+00 1701537140
-10.074080 0.477375 1.816970 0.000000000000000e+00 1851878480
-9.983543 0.709381 1.800641 0.000000000000000e+00 1851878480
-10.130556 0.960383 1.827156 0.000000000000000e+00 1851878480
-10.435992 1.240099 1.882245 0.000000000000000e+00 1851878480
-10.205849 -0.240905 1.872536 0.000000000000000e+00 1701537140
-10.014521 0.000000 1.837431 0.000000000000000e+00 1701537140
-9.932055 0.234442 1.822301 0.000000000000000e+00 1701537140
-10.244795 0.485731 1.879681 0.000000000000000e+00 1701537140
-9.976764 0.709289 1.830504 0.000000000000000e+00 1851878480
-10.133642 0.961203 1.859288 0.000000000000000e+00 1851878480
-10.446628 1.242044 1.916713 0.000000000000000e+00 1851878480
-12.330545 1.761873 2.262368 0.000000000000000e+00 1634431585
-10.169024 -0.240170 1.897499 0.000000000000000e+00 1701537140
-9.996286 0.000000 1.865267 0.000000000000000e+00 1701537140
-9.934015 0.234619 1.853647 0.000000000000000e+00 1701537140
-10.220437 0.484847 1.907092 0.000000000000000e+00 1701537140
-9.975748 0.709612 1.861434 0.000000000000000e+00 1851878480
-10.123069 0.960736 1.888924 0.000000000000000e+00 1851878480
-10.434393 1.241282 1.947016 0.000000000000000e+00 1851878480
-12.160089 1.738486 2.269023 0.000000000000000e+00 1634431585
-10.125380 -0.239275 1.920974 0.000000000000000e+00 1701537140
-9.979209 0.000000 1.893243 0.000000000000000e+00 1701537140
-9.925141 0.234543 1.882985 0.000000000000000e+00 1701537140
-10.175698 0.482999 1.930521 0.000000000000000e+00 1701537140
-9.988249 0.710905 1.894958 0.000000000000000e+00 1851878480
-10.134186 0.962337 1.922645 0.000000000000000e+00 1851878480
-10.429177 1.241366 1.978611 0.000000000000000e+00 1851878480
-12.042184 1.722607 2.284628 0.000000000000000e+00 1634431585
-10.087316 -0.238513 1.945289 0.000000000000000e+00 1701537140
-9.976527 0.000000 1.923924 0.000000000000000e+00 1701537140
-9.908506 0.234285 1.910807 0.000000000000000e+00 1701537140
-10.151324 0.482120 1.957633 0.000000000000000e+00 1701537140
-9.984313 0.711035 1.925426 0.000000000000000e+00 1851878480
-10.141313 0.963570 1.955702 0.000000000000000e+00 1851878480
-10.416832 1.240612 2.008835 0.000000000000000e+00 1851878480
-11.982206 1.715017 2.310710 0.000000000000000e+00 1634431585
-10.053370 -0.237850 1.970205 0.000000000000000e+00 1701537140
-9.980618 0.000000 1.955948 0.000000000000000e+00 1701537140
-9.945626 0.235300 1.949090 0.000000000000000e+00 1701537140
-10.128200 0.481303 1.984870 0.000000000000000e+00 1701537140
-10.304247 0.734249 2.019371 0.000000000000000e+00 1701537140
-10.149463 0.964909 1.989037 0.000000000000000e+00 1851878480
-10.421982 1.241953 2.042444 0.000000000000000e+00 1851878480
-11.894482 1.703459 2.331016 0.000000000000000e+00 1634431585
-10.040017 -0.237675 1.999050 0.000000000000000e+00 1701537140
-10.418988 0.000000 2.074507 0.000000000000000e+00 1701537140
-10.028996 0.237414 1.996856 0.000000000000000e+00 1701537140
-10.180250 0.484065 2.026972 0.000000000000000e+00 1701537140
-10.250232 0.730836 2.040906 0.000000000000000e+00 1701537140
-10.164530 0.966918 2.023842 0.000000000000000e+00 1851878480
-10.409201 1.241169 2.072558 0.000000000000000e+00 1851878480
-11.822980 1.694228 2.354053 0.000000000000000e+00 1634431585
-10.032248 -0.237635 2.028979 0.000000000000000e+00 1701537140
-10.449549 0.000000 2.113377 0.000000000000000e+00 1701537140
-10.044058 0.237915 2.031368 0.000000000000000e+00 1701537140
-10.176102 0.484161 2.058073 0.000000000000000e+00 1701537140
-10.215947 0.728832 2.066132 0.000000000000000e+00 1701537140
-10.161499 0.967215 2.055120 0.000000000000000e+00 1851878480
-10.411708 1.242220 2.105724 0.000000000000000e+00 1851878480
-11.760038 1.686229 2.378417 0.000000000000000e+00 1634431585
-10.030018 -0.237728 2.060035 0.000000000000000e+00 1701537140
-10.470637 0.000000 2.150533 0.000000000000000e+00 1701537140
-10.023819 0.237581 2.058762 0.000000000000000e+00 1701537140
-10.938644 0.520761 2.246655 0.000000000000000e+00 1701537140
-10.176054 0.726433 2.090029 0.000000000000000e+00 1701537140
-10.191765 0.970692 2.093256 0.000000000000000e+00 1851878480
-10.407164 1.242441 2.137496 0.000000000000000e+00 1851878480
-11.706616 1.679601 2.404387 0.000000000000000e+00 1634431585
-10.050354 -0.238359 2.095822 0.000000000000000e+00 1701537140
-10.470233 0.000000 2.183381 0.000000000000000e+00 1701537140
-10.009683 0.237394 2.087341 0.000000000000000e+00 1701537140
-10.646083 0.507150 2.220051 0.000000000000000e+00 1701537140
-10.155744 0.725435 2.117799 0.000000000000000e+00 1701537140
-10.192540 0.971372 2.125473 0.000000000000000e+00 1851878480
-10.414595 1.244105 2.171778 0.000000000000000e+00 1851878480
-11.673585 1.675907 2.434318 0.000000000000000e+00 1634431585
-10.058796 -0.238710 2.129260 0.000000000000000e+00 1701537140
-10.503498 0.000000 2.223395 0.000000000000000e+00 1701537140
-10.048835 0.238474 2.127151 0.000000000000000e+00 1701537140
-10.650061 0.507661 2.254419 0.000000000000000e+00 1701537140
-10.146022 0.725200 2.147723 0.000000000000000e+00 1701537140
-10.199016 0.972605 2.158941 0.000000000000000e+00 1851878480
-10.422876 1.245883 2.206329 0.000000000000000e+00 1851878480
-11.660501 1.675090 2.468310 0.000000000000000e+00 1634431585
-10.152651 -0.241093 2.181139 0.000000000000000e+00 1701537140
-10.215982 0.000000 2.194746 0.000000000000000e+00 1701537140
-10.063919 0.238986 2.162077 0.000000000000000e+00 1701537140
-10.660466 0.508484 2.290236 0.000000000000000e+00 1701537140
-10.157868 0.726514 2.182261 0.000000000000000e+00 1701537140
-10.197832 0.973118 2.190846 0.000000000000000e+00 1851878480
-10.435071 1.248143 2.241813 0.000000000000000e+00 1851878480
-11.618783 1.670171 2.496115 0.000000000000000e+00 1634431585
-10.798874 -0.256606 2.354060 0.000000000000000e+00 1701537140
-10.179410 0.000000 2.219022 0.000000000000000e+00 1701537140
-10.082941 0.239594 2.197993 0.000000000000000e+00 1701537140
-10.694355 0.510433 2.331276 0.000000000000000e+00 1701537140
-10.170084 0.727863 2.216989 0.000000000000000e+00 1701537140
-10.214604 0.975355 2.226694 0.000000000000000e+00 1851878480
-10.457237 1.251611 2.279586 0.000000000000000e+00 1851878480
-11.334348 1.630348 2.470788 0.000000000000000e+00 1851878480
-10.782473 -0.256386 2.384572 0.000000000000000e+00 1701537140
-10.171260 0.000000 2.249401 0.000000000000000e+00 1701537140
-10.235123 0.243371 2.263524 0.000000000000000e+00 1701537140
-10.388253 0.496152 2.297390 0.000000000000000e+00 1701537140
-10.169615 0.728311 2.249037 0.000000000000000e+00 1701537140
-10.216456 0.976178 2.259396 0.000000000000000e+00 1851878480
-10.458953 1.252646 2.313025 0.000000000000000e+00 1851878480
-11.326616 1.630315 2.504911 0.000000000000000e+00 1851878480
-10.773887 -0.256354 2.416780 0.000000000000000e+00 1701537140
-10.201668 0.000000 2.288420 0.000000000000000e+00 1701537140
-10.198989 0.242675 2.287819 0.000000000000000e+00 1701537140
-10.346394 0.494484 2.320885 0.000000000000000e+00 1701537140
-10.193866 0.730539 2.286670 0.000000000000000e+00 1701537140
-10.251996 0.980232 2.299710 0.000000000000000e+00 1851878480
-10.477812 1.255748 2.350365 0.000000000000000e+00 1851878480
-11.328884 1.631737 2.541276 0.000000000000000e+00 1851878480
-10.734344 -0.255587 2.441936 0.000000000000000e+00 1701537140
-10.213481 0.000000 2.323446 0.000000000000000e+00 1701537140
-10.152060 0.241723 2.309474 0.000000000000000e+00 1701537140
-10.334526 0.494254 2.350983 0.000000000000000e+00 1701537140
-10.227636 0.733458 2.326666 0.000000000000000e+00 1701537140
-10.261307 0.981791 2.334326 0.000000000000000e+00 1851878480
-10.490643 1.258142 2.386497 0.000000000000000e+00 1851878480
-11.342996 1.634883 2.580397 0.000000000000000e+00 1851878480
-10.711991 -0.255231 2.470854 0.000000000000000e+00 1701537140
-10.618056 0.000000 2.449187 0.000000000000000e+00 1701537140
-10.179478 0.242543 2.348023 0.000000000000000e+00 1701537140
-10.366065 0.496105 2.391062 0.000000000000000e+00 1701537140
-10.223527 0.733670 2.358184 0.000000000000000e+00 1701537140
-10.274416 0.983725 2.369922 0.000000000000000e+00 1851878480
-10.531135 1.263872 2.429137 0.000000000000000e+00 1851878480
-11.302373 1.630154 2.607033 0.000000000000000e+00 1851878480
-10.672791 -0.254475 2.495738 0.000000000000000e+00 1701537140
-10.374043 0.000000 2.425878 0.000000000000000e+00 1701537140
-10.204208 0.243303 2.386163 0.000000000000000e+00 1701537140
-10.363933 0.496350 2.423514 0.000000000000000e+00 1701537140
-10.245808 0.735784 2.395891 0.000000000000000e+00 1701537140
-10.287262 0.985645 2.405585 0.000000000000000e+00 1851878480
-10.556796 1.267839 2.468613 0.000000000000000e+00 1851878480
-11.321893 1.634114 2.647524 0.000000000000000e+00 1851878480
-10.646142 -0.254020 2.523394 0.000000000000000e+00 1701537140
-10.304675 0.000000 2.442458 0.000000000000000e+00 1701537140
-10.226581 0.244009 2.423948 0.000000000000000e+00 1701537140
-10.895432 0.522176 2.582482 0.000000000000000e+00 1701537140
-10.255850 0.737029 2.430886 0.000000000000000e+00 1701537140
-10.289679 0.986577 2.438904 0.000000000000000e+00 1851878480
-10.571351 1.270489 2.505667 0.000000000000000e+00 1851878480
-11.324721 1.635683 2.684234 0.000000000000000e+00 1851878480
-10.361435 -0.247405 2.488936 0.000000000000000e+00 1701537140
-10.280210 0.000000 2.469425 0.000000000000000e+00 1701537140
-10.231675 0.244307 2.457766 0.000000000000000e+00 1701537140
-10.863710 0.521030 2.609588 0.000000000000000e+00 1701537140
-10.284091 0.739590 2.470357 0.000000000000000e+00 1701537140
-10.327608 0.990926 2.480810 0.000000000000000e+00 1851878480
-10.615408 1.276702 2.549943 0.000000000000000e+00 1851878480
-11.348701 1.640326 2.726089 0.000000000000000e+00 1851878480
-10.339888 -0.247071 2.516769 0.000000000000000e+00 1701537140
-10.330402 0.000000 2.514460 0.000000000000000e+00 1701537140
-10.260175 0.245166 2.497366 0.000000000000000e+00 1701537140
-10.832366 0.519906 2.636640 0.000000000000000e+00 1701537140
-10.315425 0.742385 2.510814 0.000000000000000e+00 1701537140
-10.355192 0.994298 2.520494 0.000000000000000e+00 1851878480
-10.646393 1.281363 2.591373 0.000000000000000e+00 1851878480
-11.349648 1.641660 2.762548 0.000000000000000e+00 1851878480
-10.303681 -0.246388 2.540897 0.000000000000000e+00 1701537140
-10.805152 0.000000 2.664560 0.000000000000000e+00 1701537140
-10.773881 0.257631 2.656849 0.000000000000000e+00 1701537140
-10.564246 0.507412 2.605153 0.000000000000000e+00 1701537140
-10.334143 0.744282 2.548409 0.000000000000000e+00 1701537140
-10.365452 0.996018 2.556130 0.000000000000000e+00 1851878480
-10.646920 1.282373 2.625540 0.000000000000000e+00 1851878480
-11.360691 1.644472 2.801557 0.000000000000000e+00 1851878480
-10.400131 -0.248880 2.597980 0.000000000000000e+00 1701537140
-10.764050 0.000000 2.688889 0.000000000000000e+00 1701537140
-10.718439 0.256497 2.677495 0.000000000000000e+00 1701537140
-10.497389 0.504579 2.622276 0.000000000000000e+00 1701537140
-10.340936 0.745329 2.583193 0.000000000000000e+00 1701537140
-10.413992 1.001432 2.601443 0.000000000000000e+00 1851878480
-10.702315 1.290011 2.673467 0.000000000000000e+00 1851878480
-11.360167 1.645628 2.837800 0.000000000000000e+00 1851878480
-10.370098 -0.248350 2.623731 0.000000000000000e+00 1701537140
-10.729589 0.000000 2.714686 0.000000000000000e+00 1701537140
-10.704191 0.256351 2.708260 0.000000000000000e+00 1701537140
-10.504008 0.505280 2.657612 0.000000000000000e+00 1701537140
-10.390353 0.749459 2.628856 0.000000000000000e+00 1701537140
-10.446056 1.005277 2.642950 0.000000000000000e+00 1851878480
-10.727090 1.293978 2.714054 0.000000000000000e+00 1851878480
-11.387951 1.650904 2.881258 0.000000000000000e+00 1851878480
-10.366110 -0.248445 2.656013 0.000000000000000e+00 1701537140
-10.721859 0.000000 2.747164 0.000000000000000e+00 1701537140
-10.658936 0.255463 2.731041 0.000000000000000e+00 1701537140
-10.611849 0.510859 2.718977 0.000000000000000e+00 1701537140
-10.689384 0.771620 2.738843 0.000000000000000e+00 1851878480
-10.475358 1.008872 2.684005 0.000000000000000e+00 1851878480
-10.764384 1.299474 2.758060 0.000000000000000e+00 1851878480
-11.385805 1.651861 2.917280 0.000000000000000e+00 1851878480
-10.390904 -0.249233 2.695789 0.000000000000000e+00 1701537140
-10.671710 0.000000 2.768640 0.000000000000000e+00 1701537140
-10.649818 0.255443 2.762960 0.000000000000000e+00 1701537140
-10.590340 0.510220 2.747529 0.000000000000000e+00 1701537140
-10.656020 0.769810 2.764570 0.000000000000000e+00 1851878480
-10.496928 1.011735 2.723295 0.000000000000000e+00 1851878480
-10.764450 1.300493 2.792700 0.000000000000000e+00 1851878480
-11.381469 1.652516 2.952778 0.000000000000000e+00 1851878480
-10.365955 -0.248830 2.722704 0.000000000000000e+00 1701537140
-10.615531 0.000000 2.788258 0.000000000000000e+00 1701537140
-10.615091 0.254811 2.788142 0.000000000000000e+00 1701537140
-10.599098 0.511045 2.783942 0.000000000000000e+00 1701537140
-10.621381 0.767912 2.789794 0.000000000000000e+00 1851878480
-10.540565 1.016741 2.768567 0.000000000000000e+00 1851878480
-10.798195 1.305597 2.836236 0.000000000000000e+00 1851878480
-11.408713 1.657776 2.996594 0.000000000000000e+00 1851878480
-10.385607 -0.249501 2.761377 0.000000000000000e+00 1701537140
-10.549340 0.000000 2.804911 0.000000000000000e+00 1701537140
-10.534127 0.253069 2.800866 0.000000000000000e+00 1701537140
-10.819850 0.522104 2.876836 0.000000000000000e+00 1701537140
-10.560145 0.764093 2.807784 0.000000000000000e+00 1851878480
-10.577820 1.021149 2.812483 0.000000000000000e+00 1851878480
-10.812644 1.308386 2.874919 0.000000000000000e+00 1851878480
-11.419137 1.660614 3.036177 0.000000000000000e+00 1851878480
-10.417376 -0.250466 2.803491 0.000000000000000e+00 1701537140
-10.504160 0.000000 2.826845 0.000000000000000e+00 1701537140
-10.498831 0.252424 2.825412 0.000000000000000e+00 1701537140
-10.599456 0.511882 2.852491 0.000000000000000e+00 1701537140
-10.541792 0.763381 2.836973 0.000000000000000e+00 1851878480
-10.604707 1.024570 2.853905 0.000000000000000e+00 1851878480
-10.865492 1.315843 2.924086 0.000000000000000e+00 1851878480
-11.438618 1.664789 3.078324 0.000000000000000e+00 1851878480
-10.503627 0.000000 2.860703 0.000000000000000e+00 1701537140
-10.441865 0.251260 2.843882 0.000000000000000e+00 1701537140
-10.581728 0.511443 2.881974 0.000000000000000e+00 1701537140
-10.491991 0.760395 2.857534 0.000000000000000e+00 1851878480
-10.640759 1.028893 2.898052 0.000000000000000e+00 1851878480
-10.873139 1.317844 2.961341 0.000000000000000e+00 1851878480
-11.451550 1.668033 3.118873 0.000000000000000e+00 1851878480
-10.459386 0.000000 2.882567 0.000000000000000e+00 1701537140
-10.434944 0.251301 2.875831 0.000000000000000e+00 1701537140
-10.674711 0.516364 2.941911 0.000000000000000e+00 1701537140
-10.475071 0.759797 2.886890 0.000000000000000e+00 1851878480
-10.681578 1.033694 2.943803 0.000000000000000e+00 1851878480
-10.908794 1.323259 3.006422 0.000000000000000e+00 1851878480
-11.466294 1.671561 3.160068 0.000000000000000e+00 1851878480
-10.492707 0.000000 2.925829 0.000000000000000e+00 1701537140
-10.431612 0.251431 2.908792 0.000000000000000e+00 1701537140
-10.810920 0.523390 3.014560 0.000000000000000e+00 1851878480
-10.503400 0.762489 2.928810 0.000000000000000e+00 1851878480
-10.686833 1.035068 2.979959 0.000000000000000e+00 1851878480
-10.950364 1.329412 3.053443 0.000000000000000e+00 1851878480
-11.487262 1.676019 3.203154 0.000000000000000e+00 1851878480
-10.750445 0.000000 3.032671 0.000000000000000e+00 1851878480
-10.492753 0.253118 2.959977 0.000000000000000e+00 1701537140
-10.744969 0.520638 3.031126 0.000000000000000e+00 1851878480
-10.544564 0.766125 2.974592 0.000000000000000e+00 1851878480
-10.702808 1.037492 3.019233 0.000000000000000e+00 1851878480
-10.973039 1.333292 3.095464 0.000000000000000e+00 1851878480
-11.503364 1.679788 3.245067 0.000000000000000e+00 1851878480
-10.717037 0.000000 3.058171 0.000000000000000e+00 1851878480
-10.622501 0.256468 3.031195 0.000000000000000e+00 1851878480
-10.709262 0.519352 3.055952 0.000000000000000e+00 1851878480
-10.573833 0.768909 3.017307 0.000000000000000e+00 1851878480
-10.745684 1.042540 3.066346 0.000000000000000e+00 1851878480
-10.984029 1.335770 3.134359 0.000000000000000e+00 1851878480
-11.526662 1.684632 3.289202 0.000000000000000e+00 1851878480
-10.668136 0.000000 3.079036 0.000000000000000e+00 1851878480
-10.579950 0.255662 3.053585 0.000000000000000e+00 1851878480
-10.668563 0.517826 3.079160 0.000000000000000e+00 1851878480
-10.614923 0.772565 3.063678 0.000000000000000e+00 1851878480
-10.778777 1.046656 3.110970 0.000000000000000e+00 1851878480
-11.005167 1.339500 3.176311 0.000000000000000e+00 1851878480
-11.559673 1.690919 3.336352 0.000000000000000e+00 1851878480
-10.629912 0.000000 3.102765 0.000000000000000e+00 1851878480
-10.550115 0.255164 3.079473 0.000000000000000e+00 1851878480
-10.707338 0.520163 3.125365 0.000000000000000e+00 1851878480
-10.626939 0.774117 3.101897 0.000000000000000e+00 1851878480
-10.815024 1.051096 3.156798 0.000000000000000e+00 1851878480
-11.061423 1.347526 3.228719 0.000000000000000e+00 1851878480
-11.544337 1.690154 3.369677 0.000000000000000e+00 1851878480
-10.682127 0.000000 3.152999 0.000000000000000e+00 1851878480
-10.557405 0.255566 3.116186 0.000000000000000e+00 1851878480
-10.749198 0.522659 3.172796 0.000000000000000e+00 1851878480
-10.655759 0.776904 3.145216 0.000000000000000e+00 1851878480
-10.823180 1.052820 3.194633 0.000000000000000e+00 1851878480
-11.092896 1.352557 3.274244 0.000000000000000e+00 1851878480
-11.593039 1.698788 3.421870 0.000000000000000e+00 1851878480
-10.714431 0.000000 3.197696 0.000000000000000e+00 1851878480
-10.591660 0.256625 3.161055 0.000000000000000e+00 1851878480
-10.794890 0.525351 3.221709 0.000000000000000e+00 1851878480
-10.691896 0.780237 3.190970 0.000000000000000e+00 1851878480
-10.836823 1.055091 3.234224 0.000000000000000e+00 1851878480
-11.113420 1.356273 3.316773 0.000000000000000e+00 1851878480
-11.617904 1.703956 3.467335 0.000000000000000e+00 1851878480
-10.756293 0.000000 3.245551 0.000000000000000e+00 1851878480
-10.629887 0.257785 3.207410 0.000000000000000e+00 1851878480
-10.804281 0.526284 3.260031 0.000000000000000e+00 1851878480
-10.693346 0.781049 3.226558 0.000000000000000e+00 1851878480
-10.860989 1.058401 3.277142 0.000000000000000e+00 1851878480
-11.153593 1.362408 3.365431 0.000000000000000e+00 1851878480
-11.633315 1.707761 3.510180 0.000000000000000e+00 1851878480
-10.771649 0.000000 3.285663 0.000000000000000e+00 1851878480
-10.649251 0.258491 3.248328 0.000000000000000e+00 1851878480
-10.857239 0.529348 3.311770 0.000000000000000e+00 1851878480
-10.741302 0.785270 3.276406 0.000000000000000e+00 1851878480
-10.884571 1.061671 3.320107 0.000000000000000e+00 1851878480
-11.205772 1.370035 3.418082 0.000000000000000e+00 1851878480
-11.659552 1.713180 3.556498 0.000000000000000e+00 1851878480
-10.794064 0.000000 3.328116 0.000000000000000e+00 1851878480
-10.688796 0.259691 3.295660 0.000000000000000e+00 1851878480
-10.862432 0.530091 3.349196 0.000000000000000e+00 1851878480
-10.763949 0.787654 3.318831 0.000000000000000e+00 1851878480
-10.921065 1.066216 3.367275 0.000000000000000e+00 1851878480
-11.224172 1.373554 3.460731 0.000000000000000e+00 1851878480
-11.736692 1.726110 3.618755 0.000000000000000e+00 1851878480
-10.846477 0.000000 3.380127 0.000000000000000e+00 1851878480
-10.720925 0.260715 3.341001 0.000000000000000e+00 1851878480
-10.911716 0.532994 3.400458 0.000000000000000e+00 1851878480
-10.792185 0.790459 3.363208 0.000000000000000e+00 1851878480
-10.931726 1.068255 3.406694 0.000000000000000e+00 1851878480
-11.241815 1.377000 3.503328 0.000000000000000e+00 1851878480
-11.771015 1.732777 3.668245 0.000000000000000e+00 1851878480
-10.864364 0.000000 3.421685 0.000000000000000e+00 1851878480
-10.725872 0.261082 3.378067 0.000000000000000e+00 1851878480
-10.894233 0.532643 3.431092 0.000000000000000e+00 1851878480
-10.793685 0.791316 3.399425 0.000000000000000e+00 1851878480
-10.963910 1.072413 3.453037 0.000000000000000e+00 1851878480
-11.258476 1.380344 3.545809 0.000000000000000e+00 1851878480
-11.765071 1.733539 3.705359 0.000000000000000e+00 1851878480
-12.230854 2.106760 3.852055 0.000000000000000e+00 1851878480
-10.904492 0.000000 3.470508 0.000000000000000e+00 1851878480
-10.791924 0.262940 3.434681 0.000000000000000e+00 1851878480
-10.954038 0.536079 3.486276 0.000000000000000e+00 1851878480
-10.820366 0.794030 3.443733 0.000000000000000e+00 1851878480
-10.964142 1.073460 3.489492 0.000000000000000e+00 1851878480
-11.298059 1.386521 3.595766 0.000000000000000e+00 1851878480
-11.806395 1.741290 3.757550 0.000000000000000e+00 1851878480
-12.228584 2.108381 3.891918 0.000000000000000e+00 1851878480
-10.908046 0.000000 3.507904 0.000000000000000e+00 1851878480
-10.790526 0.263160 3.470111 0.000000000000000e+00 1851878480
-10.981112 0.537923 3.531402 0.000000000000000e+00 1851878480
-10.838825 0.796152 3.485644 0.000000000000000e+00 1851878480
-10.993668 1.077390 3.535439 0.000000000000000e+00 1851878480
-11.344841 1.393606 3.648373 0.000000000000000e+00 1851878480
-11.816706 1.744493 3.800119 0.000000000000000e+00 1851878480
-12.227383 2.110209 3.932188 0.000000000000000e+00 1851878480
-10.941128 0.000000 3.554989 0.000000000000000e+00 1851878480
-10.838437 0.264586 3.521624 0.000000000000000e+00 1851878480
-10.980865 0.538435 3.567901 0.000000000000000e+00 1851878480
-10.873240 0.799459 3.532931 0.000000000000000e+00 1851878480
-11.035885 1.082582 3.585778 0.000000000000000e+00 1851878480
-11.353161 1.395988 3.688867 0.000000000000000e+00 1851878480
-11.839000 1.749489 3.846726 0.000000000000000e+00 1851878480
-12.226460 2.112108 3.972620 0.000000000000000e+00 1851878480
-10.972775 0.000000 3.601896 0.000000000000000e+00 1851878480
-10.861627 0.265414 3.565411 0.000000000000000e+00 1851878480
-11.040131 0.541875 3.624006 0.000000000000000e+00 1851878480
-10.883398 0.800995 3.572557 0.000000000000000e+00 1851878480
-11.043279 1.084375 3.625040 0.000000000000000e+00 1851878480
-11.412615 1.404682 3.746277 0.000000000000000e+00 1851878480
-11.848822 1.752666 3.889465 0.000000000000000e+00 1851878480
-12.264282 2.120729 4.025843 0.000000000000000e+00 1851878480
-10.985917 0.000000 3.642950 0.000000000000000e+00 1851878480
-10.860514 0.265651 3.601366 0.000000000000000e+00 1851878480
-11.042152 0.542513 3.661598 0.000000000000000e+00 1851878480
-10.918674 0.804391 3.620652 0.000000000000000e+00 1851878480
-11.058194 1.086920 3.666918 0.000000000000000e+00 1851878480
-11.590493 1.427995 3.843429 0.000000000000000e+00 1851878480
-11.898394 1.761751 3.945529 0.000000000000000e+00 1851878480
-12.274055 2.124532 4.070100 0.000000000000000e+00 1851878480
-11.001949 0.000000 3.685128 0.000000000000000e+00 1851878480
-10.874656 0.266264 3.642491 0.000000000000000e+00 1851878480
-11.063920 0.544129 3.705885 0.000000000000000e+00 1851878480
-10.950768 0.807567 3.667985 0.000000000000000e+00 1851878480
-11.075486 1.089715 3.709760 0.000000000000000e+00 1851878480
-11.619352 1.432990 3.891929 0.000000000000000e+00 1851878480
-11.899262 1.763651 3.985685 0.000000000000000e+00 1851878480
-12.315698 2.133883 4.125171 0.000000000000000e+00 1851878480
-11.043966 0.000000 3.736285 0.000000000000000e+00 1851878480
-10.911276 0.267432 3.691395 0.000000000000000e+00 1851878480
-11.087375 0.545837 3.750970 0.000000000000000e+00 1851878480
-10.978429 0.810429 3.714113 0.000000000000000e+00 1851878480
-11.108670 1.094090 3.758175 0.000000000000000e+00 1851878480
-11.635473 1.436436 3.936398 0.000000000000000e+00 1851878480
-11.928490 1.769779 4.035528 0.000000000000000e+00 1851878480
-12.344764 2.141093 4.176358 0.000000000000000e+00 1851878480
-11.051854 0.000000 3.776139 0.000000000000000e+00 1851878480
-10.945690 0.268551 3.739865 0.000000000000000e+00 1851878480
-11.085814 0.546320 3.787742 0.000000000000000e+00 1851878480
-10.984319 0.811696 3.753064 0.000000000000000e+00 1851878480
-11.134794 1.097788 3.804477 0.000000000000000e+00 1851878480
-11.644637 1.439043 3.978678 0.000000000000000e+00 1851878480
-11.932489 1.772189 4.077030 0.000000000000000e+00 1851878480
-11.090239 0.000000 3.826645 0.000000000000000e+00 1851878480
-10.948124 0.268889 3.777609 0.000000000000000e+00 1851878480
-11.128764 0.549005 3.839939 0.000000000000000e+00 1851878480
-11.019939 0.815171 3.802389 0.000000000000000e+00 1851878480
-11.142632 1.099699 3.844723 0.000000000000000e+00 1851878480
-11.669232 1.443576 4.026425 0.000000000000000e+00 1851878480
-11.975854 1.780472 4.132224 0.000000000000000e+00 1851878480
-11.116480 0.000000 3.873258 0.000000000000000e+00 1851878480
-10.978909 0.269927 3.825325 0.000000000000000e+00 1851878480
-11.151499 0.550702 3.885459 0.000000000000000e+00 1851878480
-11.027469 0.816582 3.842244 0.000000000000000e+00 1851878480
-11.170916 1.103644 3.892225 0.000000000000000e+00 1851878480
-11.680326 1.446460 4.069716 0.000000000000000e+00 1851878480
-11.984780 1.783663 4.175796 0.000000000000000e+00 1851878480
-11.136214 0.000000 3.917838 0.000000000000000e+00 1851878480
-11.016646 0.271141 3.875772 0.000000000000000e+00 1851878480
-11.175350 0.552463 3.931606 0.000000000000000e+00 1851878480
-11.053262 0.819357 3.888654 0.000000000000000e+00 1851878480
-11.211695 1.108843 3.944393 0.000000000000000e+00 1851878480
-11.706567 1.451242 4.118494 0.000000000000000e+00 1851878480
-12.013506 1.789828 4.226479 0.000000000000000e+00 1851878480
-11.151796 0.000000 3.961157 0.000000000000000e+00 1851878480
-11.032211 0.271814 3.918680 0.000000000000000e+00 1851878480
-11.204784 0.554509 3.979978 0.000000000000000e+00 1851878480
-11.087936 0.822804 3.938473 0.000000000000000e+00 1851878480
-11.209888 1.109847 3.981791 0.000000000000000e+00 1851878480
-11.708240 1.452997 4.158807 0.000000000000000e+00 1851878480
-12.013896 1.791795 4.267377 0.000000000000000e+00 1851878480
-11.182997 0.000000 4.010258 0.000000000000000e+00 1851878480
-11.064607 0.272906 3.967802 0.000000000000000e+00 1851878480
-11.242883 0.556993 4.031733 0.000000000000000e+00 1851878480
-11.098159 0.824449 3.979834 0.000000000000000e+00 1851878480
-11.252889 1.115304 4.035321 0.000000000000000e+00 1851878480
-11.730774 1.457361 4.206692 0.000000000000000e+00 1851878480
-12.058748 1.800421 4.324305 0.000000000000000e+00 1851878480
-11.215615 0.000000 4.060172 0.000000000000000e+00 1851878480
-11.074835 0.273455 4.009208 0.000000000000000e+00 1851878480
-11.249492 0.557927 4.072436 0.000000000000000e+00 1851878480
-11.131495 0.827825 4.029720 0.000000000000000e+00 1851878480
-11.275327 1.118743 4.081789 0.000000000000000e+00 1851878480
-11.749362 1.461258 4.253394 0.000000000000000e+00 1851878480
-12.091042 1.807205 4.377086 0.000000000000000e+00 1851878480
-11.235645 0.000000 4.105793 0.000000000000000e+00 1851878480
-11.097712 0.274320 4.055388 0.000000000000000e+00 1851878480
-11.271976 0.559656 4.119069 0.000000000000000e+00 1851878480
-11.142874 0.829580 4.071892 0.000000000000000e+00 1851878480
-11.282537 1.120687 4.122928 0.000000000000000e+00 1851878480
-11.751768 1.463161 4.294398 0.000000000000000e+00 1851878480
-12.113936 1.812615 4.426743 0.000000000000000e+00 1851878480
-11.268206 0.000000 4.156257 0.000000000000000e+00 1851878480
-11.116923 0.275100 4.100456 0.000000000000000e+00 1851878480
-11.298162 0.561577 4.167306 0.000000000000000e+00 1851878480
-11.178928 0.833187 4.123327 0.000000000000000e+00 1851878480
-11.339409 1.127584 4.182520 0.000000000000000e+00 1851878480
-11.784508 1.468863 4.346694 0.000000000000000e+00 1851878480
-12.142541 1.818908 4.478754 0.000000000000000e+00 1851878480
-11.294220 0.000000 4.204593 0.000000000000000e+00 1851878480
-11.144452 0.276089 4.148838 0.000000000000000e+00 1851878480
-11.307581 0.562674 4.209567 0.000000000000000e+00 1851878480
-11.196086 0.835399 4.168060 0.000000000000000e+00 1851878480
-11.359140 1.130809 4.228761 0.000000000000000e+00 1851878480
-11.796707 1.472028 4.391658 0.000000000000000e+00 1851878480
-12.158926 1.823399 4.526504 0.000000000000000e+00 1851878480
-11.324524 0.000000 4.254807 0.000000000000000e+00 1851878480
-11.178394 0.277243 4.199903 0.000000000000000e+00 1851878480
-11.343503 0.565098 4.261938 0.000000000000000e+00 1851878480
-11.388507 0.850715 4.278846 0.000000000000000e+00 1851878480
-11.376167 1.133782 4.274210 0.000000000000000e+00 1851878480
-11.822940 1.476966 4.442070 0.000000000000000e+00 1851878480
-12.179858 1.828599 4.576169 0.000000000000000e+00 1851878480
-11.336161 0.000000 4.298239 0.000000000000000e+00 1851878480
-11.211581 0.278383 4.251003 0.000000000000000e+00 1851878480
-11.371228 0.567125 4.311535 0.000000000000000e+00 1851878480
-11.410984 0.853365 4.326610 0.000000000000000e+00 1851878480
-11.395100 1.136963 4.320587 0.000000000000000e+00 1851878480
-11.843475 1.481217 4.490593 0.000000000000000e+00 1851878480
-12.220448 1.836783 4.633527 0.000000000000000e+00 1851878480
-11.374307 0.000000 4.351978 0.000000000000000e+00 1851878480
-11.243197 0.279488 4.301814 0.000000000000000e+00 1851878480
-11.402255 0.569326 4.362672 0.000000000000000e+00 1851878480
-11.438140 0.856379 4.376401 0.000000000000000e+00 1851878480
-11.412102 1.139968 4.366439 0.000000000000000e+00 1851878480
-11.888389 1.488543 4.548673 0.000000000000000e+00 1851878480
-12.247652 1.842988 4.686133 0.000000000000000e+00 1851878480
-11.370923 0.000000 4.390044 0.000000000000000e+00 1851878480
-11.248072 0.279934 4.342615 0.000000000000000e+00 1851878480
-11.605341 0.580138 4.480547 0.000000000000000e+00 1851878480
-11.448381 0.858140 4.419949 0.000000000000000e+00 1851878480
-11.436505 1.143730 4.415364 0.000000000000000e+00 1851878480
-11.904268 1.492260 4.595956 0.000000000000000e+00 1851878480
-12.277081 1.849558 4.739890 0.000000000000000e+00 1851878480
-11.394382 0.000000 4.438635 0.000000000000000e+00 1851878480
-11.275758 0.280951 4.392425 0.000000000000000e+00 1851878480
-11.614828 0.581292 4.524508 0.000000000000000e+00 1851878480
-11.473251 0.861011 4.469358 0.000000000000000e+00 1851878480
-11.477198 1.149143 4.470895 0.000000000000000e+00 1851878480
-11.922707 1.496320 4.644442 0.000000000000000e+00 1851878480
-12.307759 1.856350 4.794437 0.000000000000000e+00 1851878480
-11.428631 0.000000 4.491723 0.000000000000000e+00 1851878480
-11.498279 0.286834 4.519095 0.000000000000000e+00 1851878480
-11.635664 0.583022 4.573092 0.000000000000000e+00 1851878480
-11.483877 0.862826 4.513436 0.000000000000000e+00 1851878480
-11.508331 1.153621 4.523047 0.000000000000000e+00 1851878480
-11.943817 1.500740 4.694203 0.000000000000000e+00 1851878480
-12.336017 1.862809 4.848346 0.000000000000000e+00 1851878480
-11.445006 0.000000 4.538056 0.000000000000000e+00 1851878480
-11.517395 0.287653 4.566759 0.000000000000000e+00 1851878480
-11.662271 0.585052 4.624204 0.000000000000000e+00 1851878480
-11.529312 0.867271 4.571484 0.000000000000000e+00 1851878480
-11.522672 1.156435 4.568851 0.000000000000000e+00 1851878480
-11.983456 1.507514 4.751557 0.000000000000000e+00 1851878480
-12.374211 1.870803 4.906495 0.000000000000000e+00 1851878480
-11.476835 0.000000 4.590780 0.000000000000000e+00 1851878480
-11.538662 0.288531 4.615511 0.000000000000000e+00 1851878480
-11.693194 0.587308 4.677325 0.000000000000000e+00 1851878480
-11.543407 0.869375 4.617410 0.000000000000000e+00 1851878480
-11.550611 1.160632 4.620291 0.000000000000000e+00 1851878480
-12.005761 1.512135 4.802353 0.000000000000000e+00 1851878480
-12.406482 1.877936 4.962642 0.000000000000000e+00 1851878480
-11.502257 0.000000 4.641239 0.000000000000000e+00 1851878480
-11.571285 0.289697 4.669093 0.000000000000000e+00 1851878480
-11.700330 0.588379 4.721163 0.000000000000000e+00 1851878480
-11.570198 0.872450 4.668653 0.000000000000000e+00 1851878480
-11.578999 1.164895 4.672205 0.000000000000000e+00 1851878480
-12.043516 1.518729 4.859641 0.000000000000000e+00 1851878480
-12.427444 1.883390 5.014558 0.000000000000000e+00 1851878480
-11.513992 0.000000 4.686404 0.000000000000000e+00 1851878480
-11.583434 0.290356 4.714668 0.000000000000000e+00 1851878480
-11.745623 0.591379 4.780682 0.000000000000000e+00 1851878480
-11.602460 0.875952 4.722412 0.000000000000000e+00 1851878480
-11.604873 1.168926 4.723394 0.000000000000000e+00 1851878480
-12.041862 1.520378 4.901257 0.000000000000000e+00 1851878480
-12.473030 1.892610 5.076750 0.000000000000000e+00 1851878480
-11.566298 0.000000 4.748400 0.000000000000000e+00 1851878480
-11.604216 0.291236 4.763967 0.000000000000000e+00 1851878480
-11.770480 0.593361 4.832224 0.000000000000000e+00 1851878480
-11.602350 0.877024 4.763201 0.000000000000000e+00 1851878480
-11.623761 1.172273 4.771991 0.000000000000000e+00 1851878480
-12.094987 1.528969 4.965446 0.000000000000000e+00 1851878480
-12.486627 1.897010 5.126230 0.000000000000000e+00 1851878480
-11.578528 0.000000 4.794278 0.000000000000000e+00 1851878480
-11.620523 0.292008 4.811667 0.000000000000000e+00 1851878480
-11.772878 0.594221 4.874752 0.000000000000000e+00 1851878480
-11.627563 0.880024 4.814582 0.000000000000000e+00 1851878480
-11.656312 1.177018 4.826486 0.000000000000000e+00 1851878480
-12.129998 1.535303 5.022624 0.000000000000000e+00 1851878480
-12.531397 1.906181 5.188829 0.000000000000000e+00 1851878480
-11.626433 0.000000 4.855243 0.000000000000000e+00 1851878480
-11.686227 0.294028 4.880213 0.000000000000000e+00 1851878480
-11.808976 0.596791 4.931474 0.000000000000000e+00 1851878480
-11.663367 0.883841 4.870667 0.000000000000000e+00 1851878480
-11.697800 1.182690 4.885046 0.000000000000000e+00 1851878480
-12.154636 1.540352 5.075822 0.000000000000000e+00 1851878480
-12.547641 1.911047 5.239943 0.000000000000000e+00 1851878480
-11.627518 0.000000 4.896932 0.000000000000000e+00 1851878480
-11.696055 0.294647 4.925797 0.000000000000000e+00 1851878480
-11.826272 0.598421 4.980638 0.000000000000000e+00 1851878480
-11.676458 0.885953 4.917543 0.000000000000000e+00 1851878480
-11.714022 1.185829 4.933363 0.000000000000000e+00 1851878480
-12.171022 1.544381 5.125829 0.000000000000000e+00 1851878480
-12.586152 1.919338 5.300662 0.000000000000000e+00 1851878480
-11.662781 0.000000 4.953250 0.000000000000000e+00 1851878480
-11.722426 0.295689 4.978581 0.000000000000000e+00 1851878480
-11.840663 0.599914 5.028797 0.000000000000000e+00 1851878480
-11.693994 0.888416 4.966506 0.000000000000000e+00 1851878480
-11.743470 1.190327 4.987519 0.000000000000000e+00 1851878480
-12.214346 1.551856 5.187503 0.000000000000000e+00 1851878480
-12.601805 1.924178 5.352058 0.000000000000000e+00 1851878480
-11.701127 0.000000 5.011245 0.000000000000000e+00 1851878480
-11.725793 0.296154 5.021809 0.000000000000000e+00 1851878480
-11.874030 0.602379 5.085294 0.000000000000000e+00 1851878480
-11.728414 0.892178 5.022931 0.000000000000000e+00 1851878480
-11.783506 1.195923 5.046526 0.000000000000000e+00 1851878480
-12.238807 1.556965 5.241517 0.000000000000000e+00 1851878480
-12.643784 1.933073 5.414957 0.000000000000000e+00 1851878480
-11.738737 0.000000 5.069304 0.000000000000000e+00 1851878480
-11.752640 0.297218 5.075308 0.000000000000000e+00 1851878480
-11.884476 0.603692 5.132241 0.000000000000000e+00 1851878480
-11.744409 0.894554 5.071754 0.000000000000000e+00 1851878480
-11.804482 1.199606 5.097696 0.000000000000000e+00 1851878480
-12.274729 1.563562 5.300769 0.000000000000000e+00 1851878480
-12.663121 1.938542 5.468495 0.000000000000000e+00 1851878480
-11.761172 0.000000 5.121128 0.000000000000000e+00 1851878480
-11.777101 0.298226 5.128063 0.000000000000000e+00 1851878480
-11.917380 0.606155 5.189145 0.000000000000000e+00 1851878480
-11.779473 0.898399 5.129097 0.000000000000000e+00 1851878480
-11.831222 1.203897 5.151629 0.000000000000000e+00 1851878480
-12.307187 1.569748 5.358877 0.000000000000000e+00 1851878480
-12.703391 1.947251 5.531395 0.000000000000000e+00 1851878480
-11.773222 0.000000 5.168670 0.000000000000000e+00 1851878480
-11.798402 0.299159 5.179725 0.000000000000000e+00 1851878480
-11.947253 0.608476 5.245073 0.000000000000000e+00 1851878480
-11.782700 0.899831 5.172831 0.000000000000000e+00 1851878480
-11.858784 1.208294 5.206234 0.000000000000000e+00 1851878480
-12.352537 1.577611 5.423001 0.000000000000000e+00 1851878480
-11.805404 0.000000 5.225322 0.000000000000000e+00 1851878480
-11.829456 0.300346 5.235969 0.000000000000000e+00 1851878480
-11.958975 0.609884 5.293297 0.000000000000000e+00 1851878480
-11.816699 0.903628 5.230322 0.000000000000000e+00 1851878480
-11.895542 1.213652 5.265220 0.000000000000000e+00 1851878480
-12.377483 1.582900 5.478538 0.000000000000000e+00 1851878480
-11.821824 0.000000 5.275288 0.000000000000000e+00 1851878480
-11.843888 0.301116 5.285133 0.000000000000000e+00 1851878480
-11.985151 0.612038 5.348170 0.000000000000000e+00 1851878480
-11.850945 0.907463 5.288283 0.000000000000000e+00 1851878480
-11.908701 1.216624 5.314055 0.000000000000000e+00 1851878480
-12.413561 1.589643 5.539340 0.000000000000000e+00 1851878480
-11.855999 0.000000 5.333473 0.000000000000000e+00 1851878480
-11.877251 0.302372 5.343033 0.000000000000000e+00 1851878480
-12.022882 0.614795 5.408546 0.000000000000000e+00 1851878480
-11.884912 0.911294 5.346480 0.000000000000000e+00 1851878480
-11.940973 1.221570 5.371699 0.000000000000000e+00 1851878480
-12.457688 1.597451 5.604146 0.000000000000000e+00 1851878480
-11.905062 0.000000 5.398775 0.000000000000000e+00 1851878480
-11.896650 0.303279 5.394961 0.000000000000000e+00 1851878480
-12.025638 0.615775 5.453454 0.000000000000000e+00 1851878480
-11.900273 0.913716 5.396604 0.000000000000000e+00 1851878480
-11.987008 1.227951 5.435936 0.000000000000000e+00 1851878480
-12.478868 1.602349 5.658988 0.000000000000000e+00 1851878480
-11.903399 0.303868 5.441365 0.000000000000000e+00 1851878480
-12.061526 0.618461 5.513649 0.000000000000000e+00 1851878480
-11.935349 0.917668 5.455969 0.000000000000000e+00 1851878480
-12.010932 1.232093 5.490520 0.000000000000000e+00 1851878480
-12.530407 1.611177 5.727986 0.000000000000000e+00 1851878480
-11.949710 0.305473 5.506159 0.000000000000000e+00 1851878480
-12.115457 0.622087 5.582531 0.000000000000000e+00 1851878480
-11.957087 0.920613 5.509557 0.000000000000000e+00 1851878480
-12.057301 1.238562 5.555734 0.000000000000000e+00 1851878480
-12.550467 1.615991 5.782973 0.000000000000000e+00 1851878480
-11.989827 0.306926 5.568543 0.000000000000000e+00 1851878480
-12.114752 0.622919 5.626564 0.000000000000000e+00 1851878480
-11.980306 0.923688 5.564122 0.000000000000000e+00 1851878480
-12.071856 1.241789 5.606641 0.000000000000000e+00 1851878480
-12.617846 1.626935 5.860220 0.000000000000000e+00 1851878480
-12.013864 0.307974 5.623819 0.000000000000000e+00 1851878480
-12.156822 0.625962 5.690739 0.000000000000000e+00 1851878480
-12.014323 0.927615 5.624034 0.000000000000000e+00 1851878480
-12.118683 1.248360 5.672886 0.000000000000000e+00 1851878480
-12.612122 1.628486 5.903870 0.000000000000000e+00 1851878480
-12.041488 0.309120 5.681087 0.000000000000000e+00 1851878480
-12.182491 0.628173 5.747612 0.000000000000000e+00 1851878480
-12.037303 0.930707 5.679113 0.000000000000000e+00 1851878480
-12.155169 1.253895 5.734723 0.000000000000000e+00 1851878480
-12.645474 1.635108 5.966044 0.000000000000000e+00 1851878480
-12.058536 0.310000 5.733658 0.000000000000000e+00 1851878480
-12.207721 0.630374 5.804594 0.000000000000000e+00 1851878480
-12.068111 0.934423 5.738211 0.000000000000000e+00 1851878480
-12.182000 1.258459 5.792363 0.000000000000000e+00 1851878480
-12.685978 1.642691 6.031998 0.000000000000000e+00 1851878480
-12.101498 0.311553 5.798900 0.000000000000000e+00 1851878480
-12.235518 0.632720 5.863121 0.000000000000000e+00 1851878480
-12.103667 0.938526 5.799940 0.000000000000000e+00 1851878480
-12.208310 1.262994 5.850083 0.000000000000000e+00 1851878480
-12.119400 0.312467 5.852489 0.000000000000000e+00 1851878480
-12.277654 0.635820 5.928910 0.000000000000000e+00 1851878480
-12.125848 0.941611 5.855603 0.000000000000000e+00 1851878480
-12.253510 1.269511 5.917252 0.000000000000000e+00 1851878480
-12.360275 1.605149 5.968809 0.000000000000000e+00 1768716611
-12.166288 0.314135 5.920440 0.000000000000000e+00 1851878480
-12.310163 0.638436 5.990454 0.000000000000000e+00 1851878480
-12.163957 0.945952 5.919306 0.000000000000000e+00 1851878480
-12.273439 1.273435 5.972584 0.000000000000000e+00 1851878480
-12.285504 1.597773 5.978455 0.000000000000000e+00 1768716611
-12.172911 0.314769 5.969138 0.000000000000000e+00 1851878480
-12.327352 0.640270 6.044869 0.000000000000000e+00 1851878480
-12.223852 0.952012 5.994117 0.000000000000000e+00 1851878480
-12.316321 1.279769 6.039461 0.000000000000000e+00 1851878480
-12.213411 1.590739 5.988997 0.000000000000000e+00 1768716611
-12.203592 0.316031 6.029906 0.000000000000000e+00 1851878480
-12.353867 0.642601 6.104159 0.000000000000000e+00 1851878480
-12.249143 0.955399 6.052414 0.000000000000000e+00 1851878480
-12.361508 1.286372 6.107934 0.000000000000000e+00 1851878480
-12.153901 1.585340 6.005353 0.000000000000000e+00 1768716611
-12.251838 0.317756 6.099787 0.000000000000000e+00 1851878480
-12.395135 0.645713 6.171130 0.000000000000000e+00 1851878480
-12.262559 0.957877 6.105124 0.000000000000000e+00 1851878480
-12.387843 1.291043 6.167499 0.000000000000000e+00 1851878480
-12.086772 1.578943 6.017606 0.000000000000000e+00 1768716611
-12.250895 0.318210 6.145494 0.000000000000000e+00 1851878480
-12.410925 0.647511 6.225771 0.000000000000000e+00 1851878480
-12.288995 0.961390 6.164607 0.000000000000000e+00 1851878480
-12.435085 1.297921 6.237891 0.000000000000000e+00 1851878480
-11.995870 1.569432 6.017564 0.000000000000000e+00 1768716611
-12.294113 0.319818 6.213654 0.000000000000000e+00 1851878480
-12.427776 0.649375 6.281209 0.000000000000000e+00 1851878480
-12.319192 0.965217 6.226329 0.000000000000000e+00 1851878480
-12.481048 1.304698 6.308134 0.000000000000000e+00 1851878480
-12.023320 1.575414 6.076791 0.000000000000000e+00 1768716611
-12.309340 0.320705 6.268029 0.000000000000000e+00 1851878480
-12.478212 0.653009 6.354020 0.000000000000000e+00 1851878480
-12.357606 0.969709 6.292607 0.000000000000000e+00 1851878480
-12.497726 1.308442 6.363957 0.000000000000000e+00 1851878480
-12.320463 0.321490 6.320559 0.000000000000000e+00 1851878480
-12.480418 0.654132 6.402618 0.000000000000000e+00 1851878480
-12.378592 0.972855 6.350380 0.000000000000000e+00 1851878480
-12.540359 1.314931 6.433369 0.000000000000000e+00 1851878480
-12.909705 0.000000 6.672099 0.000000000000000e+00 1701537140
-12.338344 0.322457 6.376803 0.000000000000000e+00 1851878480
-12.498743 0.656110 6.459702 0.000000000000000e+00 1851878480
-12.403195 0.976303 6.410321 0.000000000000000e+00 1851878480
-12.554417 1.318451 6.488476 0.000000000000000e+00 1851878480
-12.856462 0.000000 6.693790 0.000000000000000e+00 1701537140
-12.374047 0.323896 6.442618 0.000000000000000e+00 1851878480
-12.503458 0.657386 6.509997 0.000000000000000e+00 1851878480
-12.421095 0.979243 6.467114 0.000000000000000e+00 1851878480
-12.618373 1.327242 6.569829 0.000000000000000e+00 1851878480
-12.830333 0.000000 6.729450 0.000000000000000e+00 1701537140
-12.368486 0.324261 6.487214 0.000000000000000e+00 1851878480
-12.506755 0.658596 6.559735 0.000000000000000e+00 1851878480
-12.446528 0.982796 6.528146 0.000000000000000e+00 1851878480
-12.623371 1.329862 6.620900 0.000000000000000e+00 1851878480
-12.756164 0.000000 6.739683 0.000000000000000e+00 1701537140
-12.486332 0.327871 6.597118 0.000000000000000e+00 1701537140
-12.546564 0.661742 6.628942 0.000000000000000e+00 1851878480
-12.474915 0.986602 6.591085 0.000000000000000e+00 1851878480
-12.657522 1.335579 6.687566 0.000000000000000e+00 1851878480
-12.724582 0.000000 6.772165 0.000000000000000e+00 1701537140
-12.458345 0.327660 6.630472 0.000000000000000e+00 1701537140
-12.631323 0.667279 6.722532 0.000000000000000e+00 1701537140
-12.479056 0.988509 6.641493 0.000000000000000e+00 1851878480
-12.678196 1.339901 6.747478 0.000000000000000e+00 1851878480
-12.686016 0.000000 6.800817 0.000000000000000e+00 1701537140
-12.422306 0.327238 6.659446 0.000000000000000e+00 1701537140
-12.611674 0.667315 6.760963 0.000000000000000e+00 1701537140
-12.500699 0.991820 6.701471 0.000000000000000e+00 1851878480
-12.706547 1.345063 6.811823 0.000000000000000e+00 1851878480
-12.642171 0.000000 6.826479 0.000000000000000e+00 1701537140
-12.395338 0.327058 6.693195 0.000000000000000e+00 1701537140
-12.598702 0.667711 6.803007 0.000000000000000e+00 1701537140
-12.510966 0.994247 6.755631 0.000000000000000e+00 1851878480
-12.741026 1.350903 6.879858 0.000000000000000e+00 1851878480
-12.612836 0.000000 6.859843 0.000000000000000e+00 1701537140
-12.405302 0.327857 6.746970 0.000000000000000e+00 1701537140
-12.628155 0.670367 6.868174 0.000000000000000e+00 1701537140
-12.628631 1.005239 6.868433 0.000000000000000e+00 1701537140
-12.768472 1.356027 6.944490 0.000000000000000e+00 1851878480
-12.565490 0.000000 6.883281 0.000000000000000e+00 1701537140
-12.975019 0.343478 7.107618 0.000000000000000e+00 1701537140
-13.144124 0.698907 7.200253 0.000000000000000e+00 1701537140
-12.587238 1.003595 6.895195 0.000000000000000e+00 1701537140
-12.780648 1.359557 7.001143 0.000000000000000e+00 1851878480
-12.562792 0.000000 6.931143 0.000000000000000e+00 1701537140
-12.675867 0.336116 6.993529 0.000000000000000e+00 1701537140
-13.215209 0.703853 7.291095 0.000000000000000e+00 1701537140
-12.608843 1.006986 6.956551 0.000000000000000e+00 1701537140
-12.791537 1.362973 7.057347 0.000000000000000e+00 1851878480
-12.562274 0.000000 6.980361 0.000000000000000e+00 1701537140
-12.612951 0.335007 7.008521 0.000000000000000e+00 1701537140
-12.935023 0.690081 7.187483 0.000000000000000e+00 1701537140
-12.619775 1.009544 7.012312 0.000000000000000e+00 1701537140
-12.831497 1.369516 7.129958 0.000000000000000e+00 1851878480
-12.584934 0.000000 7.042712 0.000000000000000e+00 1701537140
-12.604545 0.335347 7.053686 0.000000000000000e+00 1701537140
-12.905853 0.689684 7.222302 0.000000000000000e+00 1701537140
-12.675347 1.015696 7.093307 0.000000000000000e+00 1701537140
-12.874240 1.376391 7.204611 0.000000000000000e+00 1851878480
-12.696040 0.000000 7.155256 0.000000000000000e+00 1701537140
-12.814184 0.341502 7.221840 0.000000000000000e+00 1701537140
-12.853269 0.688038 7.243867 0.000000000000000e+00 1701537140
-13.180675 1.057979 7.428387 0.000000000000000e+00 1701537140
-12.927258 1.384402 7.285566 0.000000000000000e+00 1851878480
-12.848573 0.000000 7.292367 0.000000000000000e+00 1701537140
-12.764519 0.340760 7.244661 0.000000000000000e+00 1701537140
-13.018820 0.698090 7.388993 0.000000000000000e+00 1701537140
-13.145151 1.056929 7.460694 0.000000000000000e+00 1701537140
-13.007055 1.395325 7.382316 0.000000000000000e+00 1851878480
-12.791916 0.000000 7.311298 0.000000000000000e+00 1701537140
-12.752343 0.341020 7.288681 0.000000000000000e+00 1701537140
-12.950182 0.695603 7.401757 0.000000000000000e+00 1701537140
-12.793664 1.030436 7.312298 0.000000000000000e+00 1701537140
-12.808455 0.000000 7.372090 0.000000000000000e+00 1701537140
-13.123477 0.351552 7.553405 0.000000000000000e+00 1701537140
-12.938802 0.696195 7.447113 0.000000000000000e+00 1701537140
-12.791897 1.032078 7.362559 0.000000000000000e+00 1701537140
