# .PCD v0.7 - Point Cloud Data file format
VERSION 0.7
FIELDS x y z rgb label
SIZE 4 4 4 4 4
TYPE F F F F U
COUNT 1 1 1 1 1
WIDTH 755
HEIGHT 1
VIEWPOINT 0 0 0 1 0 0 0
POINTS 755
DATA ascii
-2.676778 -0.919125 -12.868653 0.000000000000000e+00 1851878480
-2.653395 -0.607608 -12.756240 0.000000000000000e+00 1851878480
-2.642106 -0.301214 -12.701965 0.000000000000000e+00 1851878480
-2.638435 0.000000 -12.684319 0.000000000000000e+00 1851878480
-2.737365 0.312074 -13.159923 0.000000000000000e+00 1851878480
-2.848957 0.652390 -13.696406 0.000000000000000e+00 1851878480
-2.706522 -0.916060 -12.817635 0.000000000000000e+00 1851878480
-2.686049 -0.606297 -12.720679 0.000000000000000e+00 1851878480
-2.668144 -0.299837 -12.635884 0.000000000000000e+00 1851878480
-2.666650 0.000000 -12.628807 0.000000000000000e+00 1851878480
-2.764725 0.310690 -13.093275 0.000000000000000e+00 1851878480
-2.876676 0.649326 -13.623459 0.000000000000000e+00 1851878480
-2.730399 -0.911133 -12.740515 0.000000000000000e+00 1851878480
-2.712398 -0.603627 -12.656521 0.000000000000000e+00 1851878480
-2.696280 -0.298734 -12.581313 0.000000000000000e+00 1851878480
-2.696687 0.000000 -12.583209 0.000000000000000e+00 1851878480
-2.791670 0.309302 -13.026421 0.000000000000000e+00 1851878480
-2.904372 0.646349 -13.552301 0.000000000000000e+00 1851878480
-2.760406 -0.908367 -12.693571 0.000000000000000e+00 1851878480
-2.738204 -0.600915 -12.591474 0.000000000000000e+00 1851878480
-2.722801 -0.297487 -12.520645 0.000000000000000e+00 1851878480
-2.722623 0.000000 -12.519827 0.000000000000000e+00 1851878480
-2.815032 0.307564 -12.944762 0.000000000000000e+00 1851878480
-2.935848 0.644290 -13.500331 0.000000000000000e+00 1851878480
-2.785683 -0.904149 -12.626288 0.000000000000000e+00 1851878480
-2.766278 -0.598775 -12.538335 0.000000000000000e+00 1851878480
-2.749717 -0.296319 -12.463274 0.000000000000000e+00 1851878480
-2.746824 0.000000 -12.450159 0.000000000000000e+00 1851878480
-2.844330 0.306515 -12.892113 0.000000000000000e+00 1851878480
-2.958780 0.640443 -13.410865 0.000000000000000e+00 1851878480
-2.814057 -0.901046 -12.574526 0.000000000000000e+00 1851878480
-2.787859 -0.595312 -12.457462 0.000000000000000e+00 1851878480
-2.776258 -0.295146 -12.405622 0.000000000000000e+00 1851878480
-2.771549 0.000000 -12.384583 0.000000000000000e+00 1851878480
-2.869196 0.305027 -12.820914 0.000000000000000e+00 1851878480
-2.982007 0.636769 -13.325007 0.000000000000000e+00 1851878480
-2.840334 -0.897370 -12.514719 0.000000000000000e+00 1851878480
-2.817246 -0.593590 -12.412992 0.000000000000000e+00 1851878480
-2.805909 -0.294333 -12.363041 0.000000000000000e+00 1851878480
-2.804708 0.000000 -12.357749 0.000000000000000e+00 1851878480
-2.895308 0.303711 -12.756940 0.000000000000000e+00 1851878480
-3.016636 0.635601 -13.291521 0.000000000000000e+00 1851878480
-2.865433 -0.893431 -12.451202 0.000000000000000e+00 1851878480
-2.842041 -0.590964 -12.349561 0.000000000000000e+00 1851878480
-2.826971 -0.292655 -12.284073 0.000000000000000e+00 1851878480
-2.833409 0.000000 -12.312051 0.000000000000000e+00 1851878480
-2.921690 0.302460 -12.695660 0.000000000000000e+00 1851878480
-3.039887 0.632103 -13.209260 0.000000000000000e+00 1851878480
-2.889073 -0.889154 -12.382931 0.000000000000000e+00 1851878480
-2.872995 -0.589675 -12.314015 0.000000000000000e+00 1851878480
-2.859569 -0.292201 -12.256474 0.000000000000000e+00 1851878480
-2.855364 0.000000 -12.238445 0.000000000000000e+00 1851878480
-2.946107 0.301044 -12.627384 0.000000000000000e+00 1851878480
-3.071731 0.630465 -13.165826 0.000000000000000e+00 1851878480
-4.057806 -1.644940 -17.158239 0.000000000000000e+00 1701537140
-2.917504 -0.886449 -12.336528 0.000000000000000e+00 1851878480
-2.894401 -0.586490 -12.238836 0.000000000000000e+00 1851878480
-2.882114 -0.290748 -12.186885 0.000000000000000e+00 1851878480
-2.887402 0.000000 -12.209244 0.000000000000000e+00 1851878480
-2.976499 0.300270 -12.585987 0.000000000000000e+00 1851878480
-3.092862 0.626704 -13.078021 0.000000000000000e+00 1851878480
-4.094966 -1.639108 -17.085133 0.000000000000000e+00 1701537140
-2.943943 -0.883223 -12.282804 0.000000000000000e+00 1851878480
-2.923267 -0.584883 -12.196537 0.000000000000000e+00 1851878480
-2.908064 -0.289673 -12.133108 0.000000000000000e+00 1851878480
-2.909168 0.000000 -12.137712 0.000000000000000e+00 1851878480
-3.004546 0.299284 -12.535651 0.000000000000000e+00 1851878480
-3.123004 0.624846 -13.029888 0.000000000000000e+00 1851878480
-4.133746 -1.634075 -17.020290 0.000000000000000e+00 1701537140
-2.969947 -0.879956 -12.228463 0.000000000000000e+00 1851878480
-2.948132 -0.582530 -12.138644 0.000000000000000e+00 1851878480
-2.933758 -0.288602 -12.079461 0.000000000000000e+00 1851878480
-2.936028 0.000000 -12.088803 0.000000000000000e+00 1851878480
-3.026419 0.297718 -12.460983 0.000000000000000e+00 1851878480
-3.147156 0.621856 -12.958104 0.000000000000000e+00 1851878480
-2.988151 -1.166737 -12.143604 0.000000000000000e+00 1851878480
-2.994780 -0.876434 -12.170542 0.000000000000000e+00 1851878480
-2.977101 -0.581042 -12.098696 0.000000000000000e+00 1851878480
-2.954167 -0.287047 -12.005496 0.000000000000000e+00 1851878480
-2.961985 0.000000 -12.037267 0.000000000000000e+00 1851878480
-3.050070 0.296365 -12.395236 0.000000000000000e+00 1851878480
-3.171901 0.619061 -12.890347 0.000000000000000e+00 1851878480
-3.257864 0.953426 -13.239695 0.000000000000000e+00 1851878480
-3.008786 -1.160576 -12.070455 0.000000000000000e+00 1851878480
-3.024499 -0.874418 -12.133491 0.000000000000000e+00 1851878480
-3.002113 -0.578832 -12.043686 0.000000000000000e+00 1851878480
-2.982251 -0.286268 -11.964004 0.000000000000000e+00 1851878480
-2.985093 0.000000 -11.975407 0.000000000000000e+00 1851878480
-3.079849 0.295637 -12.355541 0.000000000000000e+00 1851878480
-3.202043 0.617380 -12.845752 0.000000000000000e+00 1851878480
-3.280195 0.948343 -13.159276 0.000000000000000e+00 1851878480
-3.042006 -1.159367 -12.048768 0.000000000000000e+00 1851878480
-3.051079 -0.871562 -12.084702 0.000000000000000e+00 1851878480
-3.029898 -0.577208 -12.000812 0.000000000000000e+00 1851878480
-3.012235 -0.285691 -11.930852 0.000000000000000e+00 1851878480
-3.015572 0.000000 -11.944069 0.000000000000000e+00 1851878480
-3.104548 0.294446 -12.296482 0.000000000000000e+00 1851878480
-3.230773 0.615475 -12.796436 0.000000000000000e+00 1851878480
-3.303505 0.943669 -13.084512 0.000000000000000e+00 1851878480
-3.065704 -1.154611 -11.990152 0.000000000000000e+00 1851878480
-3.074274 -0.867825 -12.023672 0.000000000000000e+00 1851878480
-3.053971 -0.574928 -11.944263 0.000000000000000e+00 1851878480
-3.040245 -0.284945 -11.890582 0.000000000000000e+00 1851878480
-3.036843 0.000000 -11.877277 0.000000000000000e+00 1851878480
-2.970978 0.278453 -11.619676 0.000000000000000e+00 1768716611
-3.257150 0.613178 -12.738908 0.000000000000000e+00 1851878480
-3.326720 0.939087 -13.011001 0.000000000000000e+00 1851878480
-3.093691 -1.151574 -11.949340 0.000000000000000e+00 1851878480
-3.094350 -0.863313 -11.951885 0.000000000000000e+00 1851878480
-3.077831 -0.572668 -11.888083 0.000000000000000e+00 1851878480
-3.058696 -0.283334 -11.814173 0.000000000000000e+00 1851878480
-3.061057 0.000000 -11.823293 0.000000000000000e+00 1851878480
-3.001177 0.278006 -11.592008 0.000000000000000e+00 1768716611
-3.283789 0.610989 -12.683594 0.000000000000000e+00 1851878480
-3.351036 0.934928 -12.943334 0.000000000000000e+00 1851878480
-3.112105 -1.145095 -11.872768 0.000000000000000e+00 1851878480
-3.123017 -0.861282 -11.914399 0.000000000000000e+00 1851878480
-3.098727 -0.569920 -11.821734 0.000000000000000e+00 1851878480
-3.091427 -0.283070 -11.793884 0.000000000000000e+00 1851878480
-3.087081 0.000000 -11.777304 0.000000000000000e+00 1851878480
-3.045948 0.278905 -11.620378 0.000000000000000e+00 1768716611
-3.309099 0.608612 -12.624308 0.000000000000000e+00 1851878480
-3.375463 0.930903 -12.877486 0.000000000000000e+00 1851878480
-3.140219 -1.142301 -11.834388 0.000000000000000e+00 1851878480
-3.146584 -0.857914 -11.858376 0.000000000000000e+00 1851878480
-3.124511 -0.568128 -11.775189 0.000000000000000e+00 1851878480
-3.114319 -0.281923 -11.736777 0.000000000000000e+00 1851878480
-3.117148 0.000000 -11.747441 0.000000000000000e+00 1851878480
-3.073405 0.278219 -11.582589 0.000000000000000e+00 1768716611
-3.334638 0.606335 -12.567083 0.000000000000000e+00 1851878480
-3.402768 0.927762 -12.823844 0.000000000000000e+00 1851878480
-3.171401 -1.140684 -11.808122 0.000000000000000e+00 1851878480
-3.172695 -0.855315 -11.812940 0.000000000000000e+00 1851878480
-3.154771 -0.567186 -11.746202 0.000000000000000e+00 1851878480
-3.136189 -0.280714 -11.677017 0.000000000000000e+00 1851878480
-3.138923 0.000000 -11.687197 0.000000000000000e+00 1851878480
-3.110282 0.278395 -11.580558 0.000000000000000e+00 1768716611
-3.358868 0.603879 -12.506119 0.000000000000000e+00 1851878480
-3.435173 0.926076 -12.790228 0.000000000000000e+00 1851878480
-3.195047 -1.136433 -11.754539 0.000000000000000e+00 1851878480
-3.197412 -0.852411 -11.763240 0.000000000000000e+00 1851878480
-3.177208 -0.564879 -11.688910 0.000000000000000e+00 1851878480
-3.168434 -0.280452 -11.656630 0.000000000000000e+00 1851878480
-3.166545 0.000000 -11.649683 0.000000000000000e+00 1851878480
-3.146392 0.278501 -11.575538 0.000000000000000e+00 1768716611
-3.379427 0.600832 -12.432871 0.000000000000000e+00 1851878480
-3.455975 0.921342 -12.714490 0.000000000000000e+00 1851878480
-3.221741 -1.133358 -11.713064 0.000000000000000e+00 1851878480
-3.222144 -0.849582 -11.714527 0.000000000000000e+00 1851878480
-3.202183 -0.563074 -11.641956 0.000000000000000e+00 1851878480
-3.181957 -0.278559 -11.568422 0.000000000000000e+00 1851878480
-3.186369 0.000000 -11.584465 0.000000000000000e+00 1851878480
-3.182933 0.278645 -11.571970 0.000000000000000e+00 1768716611
-3.406470 0.598996 -12.384670 0.000000000000000e+00 1851878480
-3.488852 0.919905 -12.684181 0.000000000000000e+00 1851878480
-3.246573 -1.129711 -11.665638 0.000000000000000e+00 1851878480
-3.249575 -0.847525 -11.676424 0.000000000000000e+00 1851878480
-3.226667 -0.561228 -11.594110 0.000000000000000e+00 1851878480
-3.210215 -0.277986 -11.534995 0.000000000000000e+00 1851878480
-3.211432 0.000000 -11.539370 0.000000000000000e+00 1851878480
-3.212725 0.278204 -11.544016 0.000000000000000e+00 1768716611
-3.435914 0.597623 -12.345979 0.000000000000000e+00 1851878480
-3.518136 0.917569 -12.641422 0.000000000000000e+00 1851878480
-3.275225 -1.127468 -11.632647 0.000000000000000e+00 1851878480
-3.267973 -0.843189 -11.606889 0.000000000000000e+00 1851878480
-3.244884 -0.558349 -11.524886 0.000000000000000e+00 1851878480
-3.231543 -0.276834 -11.477502 0.000000000000000e+00 1851878480
-3.233518 0.000000 -11.484514 0.000000000000000e+00 1851878480
-3.234513 0.277089 -11.488050 0.000000000000000e+00 1768716611
-3.462775 0.595841 -12.298771 0.000000000000000e+00 1851878480
-3.548951 0.915686 -12.604842 0.000000000000000e+00 1851878480
-3.295535 -1.122442 -11.570907 0.000000000000000e+00 1851878480
-3.290634 -0.840043 -11.553699 0.000000000000000e+00 1851878480
-3.267606 -0.556302 -11.472844 0.000000000000000e+00 1851878480
-3.254824 -0.275875 -11.427968 0.000000000000000e+00 1851878480
-3.265350 0.000000 -11.464924 0.000000000000000e+00 1851878480
-3.270892 0.277237 -11.484384 0.000000000000000e+00 1768716611
-3.481962 0.592796 -12.225470 0.000000000000000e+00 1851878480
-3.583874 0.914902 -12.583290 0.000000000000000e+00 1851878480
-3.321706 -1.119506 -11.530673 0.000000000000000e+00 1851878480
-3.308737 -0.835817 -11.485654 0.000000000000000e+00 1851878480
-3.289358 -0.554140 -11.418385 0.000000000000000e+00 1851878480
-3.277653 -0.274900 -11.377752 0.000000000000000e+00 1851878480
-3.286991 0.000000 -11.410167 0.000000000000000e+00 1851878480
-3.371755 0.282793 -11.704408 0.000000000000000e+00 1851878480
-3.509946 0.591301 -12.184114 0.000000000000000e+00 1851878480
-3.618738 0.914126 -12.561764 0.000000000000000e+00 1851878480
-3.345135 -1.115726 -11.481707 0.000000000000000e+00 1851878480
-3.329152 -0.832264 -11.426846 0.000000000000000e+00 1851878480
-3.311371 -0.552071 -11.365814 0.000000000000000e+00 1851878480
-3.304251 -0.274261 -11.341378 0.000000000000000e+00 1851878480
-3.312500 0.000000 -11.369688 0.000000000000000e+00 1851878480
-3.387645 0.281183 -11.627615 0.000000000000000e+00 1851878480
-3.530290 0.588569 -12.117226 0.000000000000000e+00 1851878480
-3.657227 0.914281 -12.552917 0.000000000000000e+00 1851878480
-3.368773 -1.112104 -11.434322 0.000000000000000e+00 1851878480
-3.350549 -0.829036 -11.372466 0.000000000000000e+00 1851878480
-3.327085 -0.549011 -11.292825 0.000000000000000e+00 1851878480
-3.320676 -0.272802 -11.271069 0.000000000000000e+00 1851878480
-3.330759 0.000000 -11.305296 0.000000000000000e+00 1851878480
-3.413930 0.280463 -11.587593 0.000000000000000e+00 1851878480
-3.558573 0.587209 -12.078542 0.000000000000000e+00 1851878480
-3.693704 0.913943 -12.537204 0.000000000000000e+00 1851878480
-3.396366 -1.109856 -11.401024 0.000000000000000e+00 1851878480
-3.374905 -0.826604 -11.328983 0.000000000000000e+00 1851878480
-3.351661 -0.547464 -11.250957 0.000000000000000e+00 1851878480
-3.341116 -0.271701 -11.215558 0.000000000000000e+00 1851878480
-3.362507 0.000000 -11.287364 0.000000000000000e+00 1851878480
-3.437102 0.279506 -11.537767 0.000000000000000e+00 1851878480
-3.578184 0.584464 -12.011353 0.000000000000000e+00 1851878480
-3.724568 0.912246 -12.502741 0.000000000000000e+00 1851878480
-3.420823 -1.106649 -11.357815 0.000000000000000e+00 1851878480
-3.381775 -0.819989 -11.228169 0.000000000000000e+00 1851878480
-3.360852 -0.543466 -11.158702 0.000000000000000e+00 1851878480
-3.356355 -0.270206 -11.143768 0.000000000000000e+00 1851878480
-3.382190 0.000000 -11.229548 0.000000000000000e+00 1851878480
-3.456934 0.278303 -11.477711 0.000000000000000e+00 1851878480
-3.610926 0.583904 -11.988997 0.000000000000000e+00 1851878480
-3.767855 0.913603 -12.510032 0.000000000000000e+00 1851878480
-3.446014 -1.103751 -11.317727 0.000000000000000e+00 1851878480
-3.403232 -0.817014 -11.177220 0.000000000000000e+00 1851878480
-3.383170 -0.541653 -11.111329 0.000000000000000e+00 1851878480
-3.377259 -0.269194 -11.091918 0.000000000000000e+00 1851878480
-3.399828 0.000000 -11.166040 0.000000000000000e+00 1851878480
-3.482624 0.277593 -11.437967 0.000000000000000e+00 1851878480
-3.636481 0.582209 -11.943278 0.000000000000000e+00 1851878480
-3.808941 0.914412 -12.509687 0.000000000000000e+00 1851878480
-3.461560 -1.097862 -11.246948 0.000000000000000e+00 1851878480
-3.444171 -0.818737 -11.190451 0.000000000000000e+00 1851878480
-3.418419 -0.541931 -11.106781 0.000000000000000e+00 1851878480
-3.395931 -0.268029 -11.033713 0.000000000000000e+00 1851878480
-3.418701 0.000000 -11.107696 0.000000000000000e+00 1851878480
-3.504566 0.276603 -11.386681 0.000000000000000e+00 1851878480
-3.669307 0.581705 -11.921941 0.000000000000000e+00 1851878480
-3.845898 0.914234 -12.495701 0.000000000000000e+00 1851878480
-3.493627 -1.097284 -11.230549 0.000000000000000e+00 1851878480
-3.427271 -0.806817 -11.017243 0.000000000000000e+00 1701537140
-3.473134 -0.545265 -11.164674 0.000000000000000e+00 1851878480
-3.413907 -0.266834 -10.974283 0.000000000000000e+00 1851878480
-3.443451 0.000000 -11.069256 0.000000000000000e+00 1851878480
-3.524933 0.275512 -11.331185 0.000000000000000e+00 1851878480
-3.697184 0.580440 -11.884901 0.000000000000000e+00 1851878480
-3.891033 0.915991 -12.508044 0.000000000000000e+00 1851878480
-3.531907 -1.098660 -11.234034 0.000000000000000e+00 1851878480
-3.446733 -0.803611 -10.963120 0.000000000000000e+00 1701537140
-3.432574 -0.533725 -10.918085 0.000000000000000e+00 1701537140
-3.451262 -0.267165 -10.977527 0.000000000000000e+00 1851878480
-3.469741 0.000000 -11.036303 0.000000000000000e+00 1851878480
-3.547354 0.274603 -11.283170 0.000000000000000e+00 1851878480
-3.732926 0.580426 -11.873424 0.000000000000000e+00 1851878480
-3.940426 0.918716 -12.533423 0.000000000000000e+00 1851878480
-3.572797 -1.100826 -11.245451 0.000000000000000e+00 1851878480
-3.536322 -0.816669 -11.130646 0.000000000000000e+00 1701537140
-3.465548 -0.533735 -10.907882 0.000000000000000e+00 1701537140
-3.494649 -0.267954 -10.999478 0.000000000000000e+00 1851878480
-3.478416 0.000000 -10.948384 0.000000000000000e+00 1851878480
-3.568990 0.273655 -11.233467 0.000000000000000e+00 1851878480
-3.773487 0.581161 -11.877126 0.000000000000000e+00 1851878480
-3.970780 0.917001 -12.498112 0.000000000000000e+00 1851878480
-3.485506 -1.063836 -10.857122 0.000000000000000e+00 1701537140
-3.507506 -0.802400 -10.925650 0.000000000000000e+00 1701537140
-3.500064 -0.533984 -10.902471 0.000000000000000e+00 1701537140
-3.491525 -0.265199 -10.875872 0.000000000000000e+00 1701537140
-3.498823 0.000000 -10.898606 0.000000000000000e+00 1851878480
-3.600897 0.273506 -11.216557 0.000000000000000e+00 1851878480
-3.808554 0.581048 -11.863398 0.000000000000000e+00 1851878480
-4.017529 0.919077 -12.514339 0.000000000000000e+00 1851878480
-3.512644 -1.062146 -10.829324 0.000000000000000e+00 1701537140
-3.546351 -0.803740 -10.933242 0.000000000000000e+00 1701537140
-3.522949 -0.532475 -10.861095 0.000000000000000e+00 1701537140
-3.492890 -0.262834 -10.768424 0.000000000000000e+00 1701537140
-3.509017 0.000000 -10.818140 0.000000000000000e+00 1851878480
-3.615081 0.272029 -11.145132 0.000000000000000e+00 1851878480
-3.851547 0.582141 -11.874148 0.000000000000000e+00 1851878480
-4.060856 0.920346 -12.519437 0.000000000000000e+00 1851878480
-3.559682 -1.066458 -10.862600 0.000000000000000e+00 1701537140
-3.592435 -0.806687 -10.962548 0.000000000000000e+00 1701537140
-3.560926 -0.533260 -10.866399 0.000000000000000e+00 1701537140
-3.517000 -0.262212 -10.732354 0.000000000000000e+00 1701537140
-3.521300 0.000000 -10.745477 0.000000000000000e+00 1851878480
-3.641548 0.271497 -11.112421 0.000000000000000e+00 1851878480
-3.886601 0.582030 -11.860217 0.000000000000000e+00 1851878480
-4.104649 0.921705 -12.525602 0.000000000000000e+00 1851878480
-3.579001 -1.062473 -10.811268 0.000000000000000e+00 1701537140
-3.648710 -0.811856 -11.021839 0.000000000000000e+00 1701537140
-3.634880 -0.539373 -10.980062 0.000000000000000e+00 1701537140
-3.629730 -0.268150 -10.964506 0.000000000000000e+00 1701537140
-3.539444 0.000000 -10.691775 0.000000000000000e+00 1851878480
-3.659162 0.270324 -11.053413 0.000000000000000e+00 1851878480
-3.916480 0.581159 -11.830708 0.000000000000000e+00 1851878480
-4.154123 0.924313 -12.548567 0.000000000000000e+00 1851878480
-3.589816 -1.056067 -10.735303 0.000000000000000e+00 1701537140
-3.687157 -0.813008 -11.026402 0.000000000000000e+00 1701537140
-3.677092 -0.540713 -10.996301 0.000000000000000e+00 1701537140
-3.582176 -0.262249 -10.712457 0.000000000000000e+00 1701537140
-3.571613 0.000000 -10.680868 0.000000000000000e+00 1851878480
-3.685989 0.269849 -11.022907 0.000000000000000e+00 1851878480
-3.963086 0.582768 -11.851562 0.000000000000000e+00 1851878480
-4.198534 0.925765 -12.555669 0.000000000000000e+00 1851878480
-3.620792 -1.055663 -10.720328 0.000000000000000e+00 1701537140
-3.730707 -0.815261 -11.045761 0.000000000000000e+00 1701537140
-3.718905 -0.541976 -11.010818 0.000000000000000e+00 1701537140
-3.609000 -0.261852 -10.685414 0.000000000000000e+00 1701537140
-3.604705 0.000000 -10.672697 0.000000000000000e+00 1851878480
-3.704136 0.268754 -10.967090 0.000000000000000e+00 1851878480
-3.995270 0.582252 -11.829070 0.000000000000000e+00 1851878480
-4.253211 0.929442 -12.592776 0.000000000000000e+00 1851878480
-3.654603 -1.056095 -10.713742 0.000000000000000e+00 1701537140
-3.773707 -0.817362 -11.062904 0.000000000000000e+00 1701537140
-3.758931 -0.542963 -11.019588 0.000000000000000e+00 1701537140
-3.648928 -0.262407 -10.697106 0.000000000000000e+00 1701537140
-3.647615 0.000000 -10.693255 0.000000000000000e+00 1851878480
-3.723228 0.267750 -10.914922 0.000000000000000e+00 1851878480
-4.037261 0.583167 -11.835533 0.000000000000000e+00 1851878480
-4.304623 0.932356 -12.619324 0.000000000000000e+00 1851878480
-3.765567 -1.078629 -10.931042 0.000000000000000e+00 1701537140
-3.812853 -0.818608 -11.068311 0.000000000000000e+00 1701537140
-3.805079 -0.544815 -11.045743 0.000000000000000e+00 1701537140
-3.636184 -0.259200 -10.555459 0.000000000000000e+00 1701537140
-3.685571 0.000000 -10.698825 0.000000000000000e+00 1851878480
-3.732691 0.266079 -10.835609 0.000000000000000e+00 1851878480
-4.073223 0.583208 -11.824136 0.000000000000000e+00 1851878480
-4.361690 0.936441 -12.661528 0.000000000000000e+00 1851878480
-3.681855 -1.308515 -10.584266 0.000000000000000e+00 1701537140
-3.799637 -1.078948 -10.922854 0.000000000000000e+00 1701537140
-3.676042 -0.782388 -10.567554 0.000000000000000e+00 1701537140
-3.843886 -0.545597 -11.050058 0.000000000000000e+00 1701537140
-3.675208 -0.259709 -10.565157 0.000000000000000e+00 1701537140
-3.726041 0.000000 -10.711287 0.000000000000000e+00 1851878480
-3.744900 0.264634 -10.765503 0.000000000000000e+00 1851878480
-4.112451 0.583717 -11.822103 0.000000000000000e+00 1851878480
-4.422575 0.941276 -12.713619 0.000000000000000e+00 1851878480
-3.699322 -1.303428 -10.532005 0.000000000000000e+00 1701537140
-3.843168 -1.081933 -10.941538 0.000000000000000e+00 1701537140
-3.700978 -0.780928 -10.536721 0.000000000000000e+00 1701537140
-3.696089 -0.520112 -10.522803 0.000000000000000e+00 1701537140
-3.679253 -0.257761 -10.474869 0.000000000000000e+00 1701537140
-3.765451 0.000000 -10.720276 0.000000000000000e+00 1851878480
-3.733631 0.261571 -10.629685 0.000000000000000e+00 1851878480
-4.153852 0.584528 -11.826059 0.000000000000000e+00 1851878480
-4.490869 0.947600 -12.785548 0.000000000000000e+00 1851878480
-3.718712 -1.299111 -10.485962 0.000000000000000e+00 1701537140
-3.872186 -1.080827 -10.918728 0.000000000000000e+00 1701537140
-3.717822 -0.777808 -10.483454 0.000000000000000e+00 1701537140
-3.724052 -0.519588 -10.501019 0.000000000000000e+00 1701537140
-3.714451 -0.258013 -10.473949 0.000000000000000e+00 1701537140
-3.804587 0.000000 -10.728113 0.000000000000000e+00 1851878480
-3.749110 0.260421 -10.571680 0.000000000000000e+00 1851878480
-4.190352 0.584647 -11.815886 0.000000000000000e+00 1851878480
-4.573529 0.956831 -12.896362 0.000000000000000e+00 1851878480
-3.745178 -1.297330 -10.460338 0.000000000000000e+00 1701537140
-3.916700 -1.084038 -10.939402 0.000000000000000e+00 1701537140
-3.731431 -0.774076 -10.421941 0.000000000000000e+00 1701537140
-3.757212 -0.519796 -10.493947 0.000000000000000e+00 1701537140
-3.746788 -0.258066 -10.464834 0.000000000000000e+00 1701537140
-3.851204 0.000000 -10.756470 0.000000000000000e+00 1851878480
-3.764339 0.259275 -10.513854 0.000000000000000e+00 1851878480
-4.239669 0.586542 -11.841458 0.000000000000000e+00 1851878480
-3.760652 -1.291815 -10.404571 0.000000000000000e+00 1701537140
-3.748717 -1.028883 -10.371549 0.000000000000000e+00 1701537140
-3.758957 -0.773276 -10.399879 0.000000000000000e+00 1701537140
-3.801031 -0.521468 -10.516284 0.000000000000000e+00 1701537140
-3.907811 -0.266909 -10.811714 0.000000000000000e+00 1701537140
-3.891027 0.000000 -10.765276 0.000000000000000e+00 1851878480
-3.785360 0.258546 -10.472930 0.000000000000000e+00 1851878480
-4.284310 0.587770 -11.853370 0.000000000000000e+00 1851878480
-3.786227 -1.289843 -10.377316 0.000000000000000e+00 1701537140
-3.787750 -1.030997 -10.381491 0.000000000000000e+00 1701537140
-3.802192 -0.775700 -10.421072 0.000000000000000e+00 1701537140
-3.772971 -0.513337 -10.340984 0.000000000000000e+00 1701537140
-3.950689 -0.267606 -10.828074 0.000000000000000e+00 1701537140
-3.938688 0.000000 -10.795182 0.000000000000000e+00 1851878480
-3.811828 0.258200 -10.447484 0.000000000000000e+00 1851878480
-4.319771 0.587733 -11.839657 0.000000000000000e+00 1851878480
-3.814617 -1.288867 -10.358009 0.000000000000000e+00 1701537140
-3.791271 -1.023501 -10.294616 0.000000000000000e+00 1701537140
-3.842811 -0.777564 -10.434565 0.000000000000000e+00 1701537140
-3.784783 -0.510725 -10.276998 0.000000000000000e+00 1701537140
-3.982514 -0.267552 -10.813907 0.000000000000000e+00 1701537140
-3.976209 0.000000 -10.796785 0.000000000000000e+00 1851878480
-3.825089 0.256976 -10.386442 0.000000000000000e+00 1851878480
-4.367259 0.589326 -11.858621 0.000000000000000e+00 1851878480
-3.846263 -1.289009 -10.347595 0.000000000000000e+00 1701537140
-3.817427 -1.022195 -10.270019 0.000000000000000e+00 1701537140
-3.891676 -0.781058 -10.469769 0.000000000000000e+00 1701537140
-3.814008 -0.510491 -10.260818 0.000000000000000e+00 1701537140
-4.015800 -0.267598 -10.803699 0.000000000000000e+00 1701537140
-4.022698 0.000000 -10.822257 0.000000000000000e+00 1851878480
-3.859213 0.257163 -10.382436 0.000000000000000e+00 1851878480
-4.405010 0.589594 -11.850792 0.000000000000000e+00 1851878480
-3.879857 -1.289808 -10.342356 0.000000000000000e+00 1701537140
-3.854102 -1.023714 -10.273700 0.000000000000000e+00 1701537140
-3.831004 -0.762697 -10.212129 0.000000000000000e+00 1701537140
-3.858490 -0.512290 -10.285397 0.000000000000000e+00 1701537140
-4.053311 -0.267925 -10.804722 0.000000000000000e+00 1701537140
-4.062161 0.000000 -10.828315 0.000000000000000e+00 1851878480
-3.873791 0.256058 -10.326183 0.000000000000000e+00 1851878480
-4.449409 0.590746 -11.860585 0.000000000000000e+00 1851878480
-3.923493 -1.293918 -10.363527 0.000000000000000e+00 1701537140
-3.900959 -1.027901 -10.304007 0.000000000000000e+00 1701537140
-3.848031 -0.759980 -10.164202 0.000000000000000e+00 1701537140
-3.990969 -0.525656 -10.541761 0.000000000000000e+00 1701537140
-3.827980 -0.251013 -10.111239 0.000000000000000e+00 1701537140
-3.842096 0.000000 -10.148527 0.000000000000000e+00 1851878480
-3.902675 0.255911 -10.308539 0.000000000000000e+00 1851878480
-4.492669 0.591736 -11.866952 0.000000000000000e+00 1851878480
-3.954430 -1.293819 -10.350858 0.000000000000000e+00 1701537140
-4.152287 -1.085484 -10.868757 0.000000000000000e+00 1701537140
-3.872005 -0.758675 -10.135110 0.000000000000000e+00 1701537140
-4.012568 -0.524326 -10.503037 0.000000000000000e+00 1701537140
-3.843754 -0.250057 -10.061162 0.000000000000000e+00 1701537140
-3.854388 0.000000 -10.088994 0.000000000000000e+00 1851878480
-3.923205 0.255226 -10.269127 0.000000000000000e+00 1851878480
-4.545730 0.593995 -11.898605 0.000000000000000e+00 1851878480
-4.006329 -1.300539 -10.392577 0.000000000000000e+00 1701537140
-3.891060 -1.009231 -10.093567 0.000000000000000e+00 1701537140
-3.903086 -0.758778 -10.124763 0.000000000000000e+00 1701537140
-4.037127 -0.523406 -10.472471 0.000000000000000e+00 1701537140
-3.869287 -0.249747 -10.037086 0.000000000000000e+00 1701537140
-3.881505 0.000000 -10.068780 0.000000000000000e+00 1851878480
-3.949880 0.254949 -10.246148 0.000000000000000e+00 1851878480
-4.583811 0.594282 -11.890590 0.000000000000000e+00 1851878480
-4.057983 -1.307087 -10.432713 0.000000000000000e+00 1701537140
-3.919175 -1.008637 -10.075849 0.000000000000000e+00 1701537140
-3.943042 -0.760598 -10.137207 0.000000000000000e+00 1701537140
-4.055805 -0.521748 -10.427112 0.000000000000000e+00 1701537140
-3.906343 -0.250183 -10.042857 0.000000000000000e+00 1701537140
-3.903853 0.000000 -10.036456 0.000000000000000e+00 1851878480
-3.976196 0.254657 -10.222443 0.000000000000000e+00 1851878480
-4.635965 0.596381 -11.918651 0.000000000000000e+00 1851878480
-4.126805 -1.319034 -10.515669 0.000000000000000e+00 1701537140
-3.942893 -1.006939 -10.047036 0.000000000000000e+00 1701537140
-3.972154 -0.760323 -10.121598 0.000000000000000e+00 1701537140
-3.914442 -0.499691 -9.974540 0.000000000000000e+00 1701537140
-3.920071 -0.249132 -9.988881 0.000000000000000e+00 1701537140
-3.926068 0.000000 -10.004164 0.000000000000000e+00 1851878480
-4.012863 0.255029 -10.225330 0.000000000000000e+00 1851878480
-4.690112 0.598707 -11.951055 0.000000000000000e+00 1851878480
-3.970742 -1.006322 -10.028950 0.000000000000000e+00 1701537140
-3.941449 -0.748695 -9.954965 0.000000000000000e+00 1701537140
-3.943761 -0.499596 -9.960804 0.000000000000000e+00 1701537140
-3.972623 -0.250547 -10.033699 0.000000000000000e+00 1701537140
-3.956251 0.000000 -9.992351 0.000000000000000e+00 1851878480
-4.034231 0.254433 -10.189303 0.000000000000000e+00 1851878480
-4.734167 0.599725 -11.957141 0.000000000000000e+00 1851878480
-4.002832 -1.006790 -10.021586 0.000000000000000e+00 1701537140
-3.973274 -0.749038 -9.947585 0.000000000000000e+00 1701537140
-3.962072 -0.498123 -9.919539 0.000000000000000e+00 1701537140
-3.999927 -0.250363 -10.014313 0.000000000000000e+00 1701537140
-3.987635 0.000000 -9.983539 0.000000000000000e+00 1851878480
-4.073104 0.254944 -10.197522 0.000000000000000e+00 1851878480
-4.780373 0.601003 -11.968257 0.000000000000000e+00 1851878480
-4.051606 -1.011425 -10.055551 0.000000000000000e+00 1701537140
-4.000873 -0.748591 -9.929637 0.000000000000000e+00 1701537140
-3.993596 -0.498326 -9.911577 0.000000000000000e+00 1701537140
-3.971765 -0.246739 -9.857396 0.000000000000000e+00 1851878480
-4.006892 0.000000 -9.944577 0.000000000000000e+00 1851878480
-4.112264 0.255467 -10.206095 0.000000000000000e+00 1851878480
-4.828929 0.602560 -11.984765 0.000000000000000e+00 1851878480
-4.086627 -1.012593 -10.054884 0.000000000000000e+00 1701537140
-4.031777 -0.748773 -9.919931 0.000000000000000e+00 1701537140
-4.034794 -0.499729 -9.927354 0.000000000000000e+00 1701537140
-4.003582 -0.246869 -9.850558 0.000000000000000e+00 1851878480
-4.041501 0.000000 -9.943854 0.000000000000000e+00 1851878480
-4.144051 0.255530 -10.196175 0.000000000000000e+00 1851878480
-4.879497 0.604349 -12.005690 0.000000000000000e+00 1851878480
-4.132720 -1.016475 -10.081020 0.000000000000000e+00 1701537140
-4.073220 -0.750901 -9.935882 0.000000000000000e+00 1701537140
-4.075275 -0.501027 -9.940896 0.000000000000000e+00 1701537140
-4.025669 -0.246403 -9.819890 0.000000000000000e+00 1851878480
-4.060198 0.000000 -9.904119 0.000000000000000e+00 1851878480
-4.182649 0.256012 -10.202814 0.000000000000000e+00 1851878480
-4.938574 0.607164 -12.046758 0.000000000000000e+00 1851878480
-4.170212 -1.018211 -10.085698 0.000000000000000e+00 1701537140
-4.112402 -0.752591 -9.945886 0.000000000000000e+00 1701537140
-4.053068 -0.494660 -9.802384 0.000000000000000e+00 1851878480
-4.044818 -0.245768 -9.782434 0.000000000000000e+00 1851878480
-4.085347 0.000000 -9.880450 0.000000000000000e+00 1851878480
-4.225415 0.256741 -10.219208 0.000000000000000e+00 1851878480
-4.986510 0.608583 -12.059925 0.000000000000000e+00 1851878480
-4.225332 -1.024204 -10.132363 0.000000000000000e+00 1701537140
-4.090925 -0.743243 -9.810054 0.000000000000000e+00 1851878480
-4.076044 -0.493864 -9.774370 0.000000000000000e+00 1851878480
-4.076714 -0.245914 -9.775975 0.000000000000000e+00 1851878480
-4.109070 0.000000 -9.853565 0.000000000000000e+00 1851878480
-4.280908 0.258231 -10.265635 0.000000000000000e+00 1851878480
-5.055492 0.612537 -12.123091 0.000000000000000e+00 1851878480
-4.265112 -1.026427 -10.141544 0.000000000000000e+00 1701537140
-4.118021 -0.742797 -9.791792 0.000000000000000e+00 1851878480
-4.106825 -0.494023 -9.765171 0.000000000000000e+00 1851878480
-4.099016 -0.245485 -9.746602 0.000000000000000e+00 1851878480
-4.139790 0.000000 -9.843554 0.000000000000000e+00 1851878480
-4.325573 0.259053 -10.285308 0.000000000000000e+00 1851878480
-5.114820 0.615278 -12.161973 0.000000000000000e+00 1851878480
-4.187175 -1.000501 -9.872794 0.000000000000000e+00 1851878480
-4.143126 -0.742007 -9.768933 0.000000000000000e+00 1851878480
-4.136980 -0.494109 -9.754441 0.000000000000000e+00 1851878480
-4.136159 -0.245946 -9.752507 0.000000000000000e+00 1851878480
-4.157135 0.000000 -9.801965 0.000000000000000e+00 1851878480
-4.357928 0.259133 -10.275408 0.000000000000000e+00 1851878480
-5.176178 0.618228 -12.204731 0.000000000000000e+00 1851878480
-4.206599 -0.998049 -9.835961 0.000000000000000e+00 1851878480
-4.172541 -0.742002 -9.756325 0.000000000000000e+00 1851878480
-4.159276 -0.493267 -9.725310 0.000000000000000e+00 1851878480
-4.163369 -0.245818 -9.734880 0.000000000000000e+00 1851878480
-4.185346 0.000000 -9.786265 0.000000000000000e+00 1851878480
-4.387435 0.259047 -10.258796 0.000000000000000e+00 1851878480
-5.241978 0.621669 -12.256907 0.000000000000000e+00 1851878480
-4.232272 -0.997113 -9.814021 0.000000000000000e+00 1851878480
-4.194339 -0.740659 -9.726062 0.000000000000000e+00 1851878480
-4.180656 -0.492333 -9.694334 0.000000000000000e+00 1851878480
-4.185503 -0.245395 -9.705573 0.000000000000000e+00 1851878480
-4.202711 0.000000 -9.745475 0.000000000000000e+00 1851878480
-4.419016 0.259086 -10.247055 0.000000000000000e+00 1851878480
-5.308631 0.625168 -12.309943 0.000000000000000e+00 1851878480
-4.257824 -0.996171 -9.791950 0.000000000000000e+00 1851878480
-4.225227 -0.740935 -9.716985 0.000000000000000e+00 1851878480
-4.207551 -0.492061 -9.676336 0.000000000000000e+00 1851878480
-4.203345 -0.244731 -9.666662 0.000000000000000e+00 1851878480
-4.226528 0.000000 -9.719975 0.000000000000000e+00 1851878480
-4.451334 0.259169 -10.236976 0.000000000000000e+00 1851878480
-5.393489 0.630753 -12.403702 0.000000000000000e+00 1851878480
-4.278837 -0.994196 -9.759677 0.000000000000000e+00 1851878480
-4.242871 -0.738907 -9.677642 0.000000000000000e+00 1851878480
-4.232657 -0.491590 -9.654345 0.000000000000000e+00 1851878480
-4.239658 -0.245146 -9.670312 0.000000000000000e+00 1851878480
-4.258329 0.000000 -9.712899 0.000000000000000e+00 1851878480
-4.481214 0.259113 -10.221282 0.000000000000000e+00 1851878480
-5.484264 0.636954 -12.509157 0.000000000000000e+00 1851878480
-4.311706 -0.994993 -9.754539 0.000000000000000e+00 1851878480
-4.282078 -0.740644 -9.687510 0.000000000000000e+00 1851878480
-4.261827 -0.491598 -9.641695 0.000000000000000e+00 1851878480
-4.257278 -0.244484 -9.631405 0.000000000000000e+00 1851878480
-4.287812 0.000000 -9.700483 0.000000000000000e+00 1851878480
-4.513217 0.259182 -10.210426 0.000000000000000e+00 1851878480
-5.622945 0.648602 -12.721006 0.000000000000000e+00 1851878480
-4.335996 -0.993822 -9.730030 0.000000000000000e+00 1851878480
-4.300405 -0.738777 -9.650165 0.000000000000000e+00 1851878480
-4.288976 -0.491379 -9.624518 0.000000000000000e+00 1851878480
-4.282003 -0.244238 -9.608870 0.000000000000000e+00 1851878480
-4.319544 0.000000 -9.693111 0.000000000000000e+00 1851878480
-4.545686 0.259278 -10.200578 0.000000000000000e+00 1851878480
-4.370380 -0.994974 -9.728168 0.000000000000000e+00 1851878480
-4.324034 -0.737845 -9.625006 0.000000000000000e+00 1851878480
-4.324761 -0.492150 -9.626623 0.000000000000000e+00 1851878480
-4.311962 -0.244295 -9.598131 0.000000000000000e+00 1851878480
-4.351140 0.000000 -9.685343 0.000000000000000e+00 1700951363
-4.580282 0.259497 -10.195395 0.000000000000000e+00 1851878480
-4.396540 -0.994259 -9.707965 0.000000000000000e+00 1851878480
-4.354402 -0.738076 -9.614920 0.000000000000000e+00 1851878480
-4.351088 -0.491847 -9.607602 0.000000000000000e+00 1851878480
-4.334464 -0.243933 -9.570893 0.000000000000000e+00 1851878480
-4.371155 0.000000 -9.651914 0.000000000000000e+00 1700951363
-4.613109 0.259615 -10.186168 0.000000000000000e+00 1851878480
-4.421175 -0.993221 -9.684538 0.000000000000000e+00 1851878480
-4.381748 -0.737801 -9.598173 0.000000000000000e+00 1851878480
-4.371789 -0.490920 -9.576360 0.000000000000000e+00 1851878480
-4.366334 -0.244103 -9.564410 0.000000000000000e+00 1700951363
-4.396694 0.000000 -9.630912 0.000000000000000e+00 1700951363
-4.655205 0.260252 -10.197179 0.000000000000000e+00 1851878480
-4.447042 -0.992480 -9.663941 0.000000000000000e+00 1851878480
-4.408899 -0.737504 -9.581052 0.000000000000000e+00 1851878480
-4.393401 -0.490111 -9.547374 0.000000000000000e+00 1851878480
-4.394794 -0.244082 -9.550401 0.000000000000000e+00 1700951363
-4.433373 0.000000 -9.634238 0.000000000000000e+00 1700951363
-4.701582 0.261121 -10.217086 0.000000000000000e+00 1851878480
-4.471750 -0.991500 -9.640961 0.000000000000000e+00 1851878480
-4.440999 -0.738040 -9.574661 0.000000000000000e+00 1851878480
-4.418513 -0.489705 -9.526182 0.000000000000000e+00 1851878480
-4.426228 -0.244228 -9.542815 0.000000000000000e+00 1700951363
-4.453864 0.000000 -9.602397 0.000000000000000e+00 1700951363
-4.752832 0.262250 -10.246965 0.000000000000000e+00 1851878480
-4.490551 -0.989241 -9.605492 0.000000000000000e+00 1851878480
-4.452029 -0.735096 -9.523092 0.000000000000000e+00 1851878480
-4.454421 -0.490498 -9.528208 0.000000000000000e+00 1851878480
-4.455137 -0.244237 -9.529740 0.000000000000000e+00 1700951363
-4.476303 0.000000 -9.575014 0.000000000000000e+00 1700951363
-4.793482 0.262785 -10.253476 0.000000000000000e+00 1851878480
-4.522914 -0.989989 -9.599155 0.000000000000000e+00 1851878480
-4.473580 -0.733923 -9.494452 0.000000000000000e+00 1851878480
-4.488080 -0.491039 -9.525225 0.000000000000000e+00 1851878480
-4.483178 -0.244200 -9.514823 0.000000000000000e+00 1700951363
-4.510746 0.000000 -9.573333 0.000000000000000e+00 1700951363
-4.838479 0.263553 -10.268891 0.000000000000000e+00 1851878480
-4.556870 -0.991081 -9.596052 0.000000000000000e+00 1851878480
-4.509088 -0.735047 -9.495432 0.000000000000000e+00 1851878480
-4.526908 -0.492139 -9.532958 0.000000000000000e+00 1851878480
-4.511214 -0.244165 -9.499910 0.000000000000000e+00 1700951363
-4.542398 0.000000 -9.565578 0.000000000000000e+00 1700951363
-4.889786 0.264655 -10.297124 0.000000000000000e+00 1851878480
-4.529204 -0.733670 -9.464025 0.000000000000000e+00 1851878480
-4.552168 -0.491764 -9.512011 0.000000000000000e+00 1851878480
-4.531244 -0.243702 -9.468289 0.000000000000000e+00 1700951363
-4.571709 0.000000 -9.552842 0.000000000000000e+00 1700951363
-4.928752 0.265081 -10.298904 0.000000000000000e+00 1851878480
-4.560585 -0.734131 -9.456254 0.000000000000000e+00 1851878480
-4.578076 -0.491468 -9.492522 0.000000000000000e+00 1851878480
-4.563661 -0.243910 -9.462633 0.000000000000000e+00 1700951363
-4.603386 0.000000 -9.545001 0.000000000000000e+00 1700951363
-4.973404 0.265809 -10.312224 0.000000000000000e+00 1851878480
-4.600789 -0.736003 -9.466540 0.000000000000000e+00 1851878480
-4.610847 -0.491912 -9.487234 0.000000000000000e+00 1851878480
-4.595413 -0.244082 -9.455479 0.000000000000000e+00 1700951363
-4.630781 0.000000 -9.528251 0.000000000000000e+00 1700951363
-5.014253 0.266328 -10.317279 0.000000000000000e+00 1851878480
-4.624127 -0.735177 -9.442019 0.000000000000000e+00 1851878480
-4.624362 -0.490313 -9.442501 0.000000000000000e+00 1851878480
-4.634375 -0.244634 -9.462944 0.000000000000000e+00 1700951363
-4.662285 0.000000 -9.519935 0.000000000000000e+00 1700951363
-5.053309 0.266748 -10.318367 0.000000000000000e+00 1851878480
-4.651505 -0.735007 -9.425846 0.000000000000000e+00 1851878480
-4.657215 -0.490777 -9.437416 0.000000000000000e+00 1851878480
-4.661317 -0.244551 -9.445729 0.000000000000000e+00 1700951363
-4.691958 0.000000 -9.507819 0.000000000000000e+00 1700951363
-5.103984 0.267775 -10.342752 0.000000000000000e+00 1851878480
-4.683884 -0.735631 -9.419766 0.000000000000000e+00 1851878480
-4.692399 -0.491483 -9.436892 0.000000000000000e+00 1851878480
-4.681715 -0.244131 -9.415407 0.000000000000000e+00 1700951363
-4.733935 0.000000 -9.520425 0.000000000000000e+00 1851878480
-5.145051 0.268292 -10.347221 0.000000000000000e+00 1851878480
-4.708800 -0.735089 -9.398667 0.000000000000000e+00 1851878480
-4.721162 -0.491517 -9.423342 0.000000000000000e+00 1851878480
-4.715328 -0.244402 -9.411696 0.000000000000000e+00 1700951363
-4.770556 0.000000 -9.521930 0.000000000000000e+00 1851878480
-5.195917 0.269312 -10.370941 0.000000000000000e+00 1851878480
-4.749010 -0.736933 -9.407967 0.000000000000000e+00 1851878480
-4.753893 -0.491965 -9.417640 0.000000000000000e+00 1851878480
-4.753276 -0.244896 -9.416419 0.000000000000000e+00 1700951363
-4.806582 0.000000 -9.522018 0.000000000000000e+00 1851878480
-5.244080 0.270183 -10.388720 0.000000000000000e+00 1851878480
-4.776116 -0.736741 -9.391150 0.000000000000000e+00 1851878480
-4.783268 -0.492067 -9.405212 0.000000000000000e+00 1851878480
-4.774433 -0.244526 -9.387840 0.000000000000000e+00 1700951363
-4.832278 0.000000 -9.501580 0.000000000000000e+00 1851878480
-5.299428 0.271414 -10.420125 0.000000000000000e+00 1851878480
-4.814500 -0.738288 -9.396385 0.000000000000000e+00 1851878480
-4.819972 -0.492922 -9.407063 0.000000000000000e+00 1851878480
-4.806733 -0.244730 -9.381227 0.000000000000000e+00 1700951363
-4.872431 0.000000 -9.509448 0.000000000000000e+00 1851878480
-5.350397 0.272410 -10.442287 0.000000000000000e+00 1851878480
-4.847153 -0.738948 -9.390221 0.000000000000000e+00 1851878480
-4.845479 -0.492633 -9.386978 0.000000000000000e+00 1851878480
-4.835170 -0.244739 -9.367005 0.000000000000000e+00 1700951363
-4.905931 0.000000 -9.504090 0.000000000000000e+00 1851878480
-5.417489 0.274214 -10.495112 0.000000000000000e+00 1851878480
-4.869269 -0.738011 -9.363669 0.000000000000000e+00 1851878480
-4.877878 -0.493049 -9.380226 0.000000000000000e+00 1851878480
-4.869061 -0.245024 -9.363271 0.000000000000000e+00 1700951363
-4.931687 0.000000 -9.483700 0.000000000000000e+00 1851878480
-5.483617 0.275950 -10.545068 0.000000000000000e+00 1851878480
-4.902248 -0.738729 -9.358034 0.000000000000000e+00 1851878480
-4.911975 -0.493635 -9.376603 0.000000000000000e+00 1851878480
-4.905328 -0.245426 -9.363915 0.000000000000000e+00 1700951363
-4.972501 0.000000 -9.492143 0.000000000000000e+00 1851878480
-5.590382 0.279701 -10.671631 0.000000000000000e+00 1851878480
-4.934097 -0.739276 -9.350119 0.000000000000000e+00 1851878480
-4.944719 -0.494083 -9.370248 0.000000000000000e+00 1851878480
-4.933558 -0.245427 -9.349098 0.000000000000000e+00 1700951363
-5.011566 0.000000 -9.496922 0.000000000000000e+00 1851878480
-6.537439 -1.299420 -12.298447 0.000000000000000e+00 1701537140
-4.966178 -0.739857 -9.342540 0.000000000000000e+00 1851878480
-4.975173 -0.494303 -9.359460 0.000000000000000e+00 1851878480
-4.963838 -0.245531 -9.338137 0.000000000000000e+00 1700951363
-5.036787 0.000000 -9.475368 0.000000000000000e+00 1851878480
-6.565022 -1.297546 -12.260969 0.000000000000000e+00 1701537140
-5.004740 -0.741399 -9.346956 0.000000000000000e+00 1851878480
-5.008095 -0.494769 -9.353223 0.000000000000000e+00 1851878480
-5.010074 -0.246421 -9.356916 0.000000000000000e+00 1700951363
-5.071558 0.000000 -9.471746 0.000000000000000e+00 1851878480
-6.592009 -1.295589 -12.222649 0.000000000000000e+00 1701537140
-5.034999 -0.741707 -9.335701 0.000000000000000e+00 1851878480
-5.046566 -0.495780 -9.357150 0.000000000000000e+00 1851878480
-5.025917 -0.245817 -9.318862 0.000000000000000e+00 1700951363
-5.107974 0.000000 -9.471008 0.000000000000000e+00 1851878480
-6.610050 -1.291916 -12.168118 0.000000000000000e+00 1701537140
-5.076132 -0.743612 -9.344404 0.000000000000000e+00 1851878480
-5.186392 -0.506685 -9.547376 0.000000000000000e+00 1851878480
-5.069063 -0.246550 -9.331391 0.000000000000000e+00 1700951363
-5.144051 0.000000 -9.469432 0.000000000000000e+00 1851878480
-6.637860 -1.290194 -12.131937 0.000000000000000e+00 1701537140
-5.107436 -0.744070 -9.334800 0.000000000000000e+00 1851878480
-5.219967 -0.507152 -9.540470 0.000000000000000e+00 1851878480
-5.104974 -0.246926 -9.330300 0.000000000000000e+00 1700951363
-5.176841 0.000000 -9.461650 0.000000000000000e+00 1851878480
-6.901358 -1.334063 -12.523686 0.000000000000000e+00 1701537140
-5.143227 -0.745180 -9.333260 0.000000000000000e+00 1851878480
-5.261234 -0.508361 -9.547404 0.000000000000000e+00 1851878480
-5.136998 -0.247115 -9.321958 0.000000000000000e+00 1700951363
-5.213427 0.000000 -9.460649 0.000000000000000e+00 1851878480
-6.961787 -1.338425 -12.543696 0.000000000000000e+00 1701537140
-5.177856 -0.746117 -9.329422 0.000000000000000e+00 1851878480
-5.296061 -0.508943 -9.542403 0.000000000000000e+00 1851878480
-5.166851 -0.247199 -9.309593 0.000000000000000e+00 1700951363
-5.243009 0.000000 -9.446814 0.000000000000000e+00 1851878480
-6.989559 -1.336507 -12.504703 0.000000000000000e+00 1701537140
-5.207410 -0.746324 -9.316340 0.000000000000000e+00 1851878480
-5.317896 -0.508282 -9.514006 0.000000000000000e+00 1851878480
-5.200655 -0.247472 -9.304255 0.000000000000000e+00 1700951363
-5.282402 0.000000 -9.450505 0.000000000000000e+00 1851878480
-7.017250 -1.334607 -12.465816 0.000000000000000e+00 1701537140
-5.243127 -0.747413 -9.314169 0.000000000000000e+00 1851878480
-5.339680 -0.507627 -9.485692 0.000000000000000e+00 1851878480
-5.242606 -0.248131 -9.313243 0.000000000000000e+00 1700951363
-5.324523 0.000000 -9.458767 0.000000000000000e+00 1851878480
-6.876694 -1.300911 -12.130400 0.000000000000000e+00 1701537140
-5.274554 -0.747890 -9.304245 0.000000000000000e+00 1851878480
-5.361700 -0.507007 -9.457969 0.000000000000000e+00 1851878480
-5.269948 -0.248097 -9.296121 0.000000000000000e+00 1700951363
-5.365566 0.000000 -9.464788 0.000000000000000e+00 1851878480
-6.900000 -1.298418 -12.086398 0.000000000000000e+00 1701537140
-5.315605 -0.749725 -9.311090 0.000000000000000e+00 1851878480
-5.373385 -0.505425 -9.412300 0.000000000000000e+00 1851878480
-5.315135 -0.248901 -9.310266 0.000000000000000e+00 1700951363
-5.393679 0.000000 -9.447849 0.000000000000000e+00 1851878480
-6.797027 -1.272326 -11.823065 0.000000000000000e+00 1701537140
-5.359433 -0.751938 -9.322447 0.000000000000000e+00 1851878480
-5.388144 -0.504152 -9.372387 0.000000000000000e+00 1851878480
-5.355699 -0.249484 -9.315950 0.000000000000000e+00 1700951363
-5.439086 0.000000 -9.460999 0.000000000000000e+00 1851878480
-6.823789 -1.270675 -11.787197 0.000000000000000e+00 1701537140
-5.381301 -0.751069 -9.295489 0.000000000000000e+00 1851878480
-5.438765 -0.506235 -9.394750 0.000000000000000e+00 1851878480
-5.378954 -0.249261 -9.291434 0.000000000000000e+00 1851878480
-5.469024 0.000000 -9.447019 0.000000000000000e+00 1851878480
-6.834001 -1.265987 -11.723159 0.000000000000000e+00 1701537140
-5.429149 -0.753824 -9.313251 0.000000000000000e+00 1851878480
-5.452499 -0.504886 -9.353307 0.000000000000000e+00 1851878480
-5.422338 -0.249970 -9.301569 0.000000000000000e+00 1851878480
-5.523856 0.000000 -9.475714 0.000000000000000e+00 1851878480
-6.856506 -1.263624 -11.680652 0.000000000000000e+00 1701537140
-5.450253 -0.752862 -9.284978 0.000000000000000e+00 1851878480
-5.481960 -0.505003 -9.338992 0.000000000000000e+00 1851878480
-5.442862 -0.249626 -9.272386 0.000000000000000e+00 1851878480
-5.561800 0.000000 -9.475007 0.000000000000000e+00 1851878480
-6.880860 -1.261636 -11.641573 0.000000000000000e+00 1701537140
-5.486475 -0.753995 -9.282444 0.000000000000000e+00 1851878480
-5.511548 -0.505136 -9.324864 0.000000000000000e+00 1851878480
-5.480376 -0.250063 -9.272125 0.000000000000000e+00 1851878480
-5.605016 0.000000 -9.483000 0.000000000000000e+00 1851878480
-6.939443 -1.265924 -11.660267 0.000000000000000e+00 1701537140
-5.529294 -0.756026 -9.290810 0.000000000000000e+00 1851878480
-5.531720 -0.504413 -9.294885 0.000000000000000e+00 1851878480
-5.515563 -0.250392 -9.267736 0.000000000000000e+00 1851878480
-5.657421 0.000000 -9.506101 0.000000000000000e+00 1851878480
-6.998904 -1.270339 -11.679879 0.000000000000000e+00 1701537140
-5.564597 -0.757020 -9.286284 0.000000000000000e+00 1851878480
-5.557028 -0.504168 -9.273654 0.000000000000000e+00 1851878480
-5.565333 -0.251378 -9.287513 0.000000000000000e+00 1851878480
-5.692834 0.000000 -9.500290 0.000000000000000e+00 1851878480
-7.075179 -1.277758 -11.726806 0.000000000000000e+00 1701537140
-5.601096 -0.758173 -9.283575 0.000000000000000e+00 1851878480
-5.586642 -0.504319 -9.259618 0.000000000000000e+00 1851878480
-5.625612 -0.252830 -9.324210 0.000000000000000e+00 1736094148
-5.750203 0.000000 -9.530714 0.000000000000000e+00 1851878480
-7.137939 -1.282686 -11.750560 0.000000000000000e+00 1701537140
