# .PCD v0.7 - Point Cloud Data file format
VERSION 0.7
FIELDS x y z rgb label
SIZE 4 4 4 4 4
TYPE F F F F U
COUNT 1 1 1 1 1
WIDTH 751
HEIGHT 1
VIEWPOINT 0 0 0 1 0 0 0
POINTS 751
DATA ascii
-0.290718 -1.498935 -16.063931 0.000000000000000e+00 1701537140
-0.293815 -1.135451 -16.235052 0.000000000000000e+00 1701537140
-0.292378 -0.753526 -16.155642 0.000000000000000e+00 1701537140
-0.290377 -0.372581 -16.045086 0.000000000000000e+00 1851878480
-0.338237 -1.494832 -16.019014 0.000000000000000e+00 1701537140
-0.343373 -1.137423 -16.262283 0.000000000000000e+00 1701537140
-0.340878 -0.753033 -16.144115 0.000000000000000e+00 1701537140
-0.338990 -0.372826 -16.054689 0.000000000000000e+00 1851878480
-0.386305 -1.493905 -16.007990 0.000000000000000e+00 1701537140
-0.393508 -1.140593 -16.306490 0.000000000000000e+00 1701537140
-0.389989 -0.753855 -16.160639 0.000000000000000e+00 1701537140
-0.388079 -0.373473 -16.081490 0.000000000000000e+00 1851878480
-0.435160 -1.495890 -16.028011 0.000000000000000e+00 1701537140
-0.431029 -1.110557 -15.875858 0.000000000000000e+00 1701537140
-0.430394 -0.739537 -15.852467 0.000000000000000e+00 1701537140
-0.436640 -0.373526 -16.082504 0.000000000000000e+00 1851878480
-0.485402 -1.501777 -16.089705 0.000000000000000e+00 1701537140
-0.476402 -1.104743 -15.791385 0.000000000000000e+00 1701537140
-0.475599 -0.735509 -15.764756 0.000000000000000e+00 1701537140
-0.486243 -0.374373 -16.117601 0.000000000000000e+00 1851878480
-0.483267 0.000000 -16.018946 0.000000000000000e+00 1851878480
-0.519274 -1.460565 -15.646675 0.000000000000000e+00 1701537140
-0.521456 -1.099324 -15.712420 0.000000000000000e+00 1701537140
-0.524504 -0.737423 -15.804264 0.000000000000000e+00 1701537140
-0.535653 -0.374934 -16.140196 0.000000000000000e+00 1851878480
-0.528139 0.000000 -15.913784 0.000000000000000e+00 1851878480
-0.566430 -1.460493 -15.644261 0.000000000000000e+00 1701537140
-0.564689 -1.091306 -15.596188 0.000000000000000e+00 1701537140
-0.562423 -0.724869 -15.533590 0.000000000000000e+00 1701537140
-0.586116 -0.376083 -16.187979 0.000000000000000e+00 1851878480
-0.571438 0.000000 -15.782585 0.000000000000000e+00 1851878480
-0.605989 -1.442353 -15.448195 0.000000000000000e+00 1701537140
-0.609889 -1.088031 -15.547616 0.000000000000000e+00 1701537140
-0.609759 -0.725451 -15.544293 0.000000000000000e+00 1701537140
-0.602486 -0.356863 -15.358906 0.000000000000000e+00 1851878480
-0.616220 0.000000 -15.709011 0.000000000000000e+00 1851878480
-0.650207 -1.437112 -15.390175 0.000000000000000e+00 1701537140
-0.652272 -1.080567 -15.439056 0.000000000000000e+00 1701537140
-0.651608 -0.719894 -15.423330 0.000000000000000e+00 1701537140
-0.646074 -0.355360 -15.292361 0.000000000000000e+00 1851878480
-0.659309 0.000000 -15.605614 0.000000000000000e+00 1851878480
-0.695652 -1.435113 -15.366741 0.000000000000000e+00 1701537140
-0.692875 -1.071355 -15.305412 0.000000000000000e+00 1701537140
-0.692355 -0.713948 -15.293924 0.000000000000000e+00 1701537140
-0.690343 -0.354411 -15.249481 0.000000000000000e+00 1851878480
-0.703684 0.000000 -15.544182 0.000000000000000e+00 1851878480
-0.743251 -1.437551 -15.390672 0.000000000000000e+00 1701537140
-0.736238 -1.067308 -15.245445 0.000000000000000e+00 1701537140
-0.736753 -0.712284 -15.256117 0.000000000000000e+00 1701537140
-0.732556 -0.352595 -15.169215 0.000000000000000e+00 1851878480
-0.745917 0.000000 -15.445874 0.000000000000000e+00 1851878480
-0.789846 -1.437879 -15.391872 0.000000000000000e+00 1701537140
-0.780501 -1.064970 -15.209765 0.000000000000000e+00 1701537140
-0.774417 -0.704690 -15.091201 0.000000000000000e+00 1851878480
-0.775388 -0.351274 -15.110134 0.000000000000000e+00 1851878480
-0.789996 0.000000 -15.394796 0.000000000000000e+00 1851878480
-0.838094 -1.441026 -15.423100 0.000000000000000e+00 1701537140
-0.819351 -1.055924 -15.078176 0.000000000000000e+00 1851878480
-0.816865 -0.702057 -15.032432 0.000000000000000e+00 1851878480
-0.817401 -0.349753 -15.042296 0.000000000000000e+00 1851878480
-0.831807 0.000000 -15.307393 0.000000000000000e+00 1851878480
-0.885661 -1.442750 -15.438952 0.000000000000000e+00 1701537140
-0.862115 -1.052622 -15.028495 0.000000000000000e+00 1851878480
-0.860799 -0.700921 -15.005561 0.000000000000000e+00 1851878480
-0.859028 -0.348240 -14.974688 0.000000000000000e+00 1851878480
-0.874130 0.000000 -15.237946 0.000000000000000e+00 1851878480
-0.933632 -1.444934 -15.459578 0.000000000000000e+00 1701537140
-0.904142 -1.048800 -14.971268 0.000000000000000e+00 1851878480
-0.901230 -0.697190 -14.923045 0.000000000000000e+00 1851878480
-0.901435 -0.347179 -14.926445 0.000000000000000e+00 1851878480
-0.915765 0.000000 -15.163722 0.000000000000000e+00 1851878480
-0.981841 -1.447275 -15.481729 0.000000000000000e+00 1701537140
-0.947270 -1.046567 -14.936606 0.000000000000000e+00 1851878480
-0.942476 -0.694421 -14.861011 0.000000000000000e+00 1851878480
-0.942151 -0.345603 -14.855883 0.000000000000000e+00 1851878480
-0.958354 0.000000 -15.111376 0.000000000000000e+00 1851878480
-1.032320 -1.452608 -15.535741 0.000000000000000e+00 1701537140
-0.986793 -1.040744 -14.850578 0.000000000000000e+00 1851878480
-0.981994 -0.690695 -14.778368 0.000000000000000e+00 1851878480
-0.981016 -0.343524 -14.763645 0.000000000000000e+00 1851878480
-0.997677 0.000000 -15.014376 0.000000000000000e+00 1851878480
-1.081323 -1.455510 -15.563588 0.000000000000000e+00 1701537140
-1.027527 -1.036661 -14.789291 0.000000000000000e+00 1851878480
-1.021238 -0.687116 -14.698769 0.000000000000000e+00 1851878480
-1.019729 -0.341579 -14.677050 0.000000000000000e+00 1851878480
-1.038670 0.000000 -14.949675 0.000000000000000e+00 1851878480
-1.068288 -1.032949 -14.733187 0.000000000000000e+00 1851878480
-1.061768 -0.684668 -14.643269 0.000000000000000e+00 1851878480
-1.060220 -0.340369 -14.621920 0.000000000000000e+00 1851878480
-1.076705 0.000000 -14.849259 0.000000000000000e+00 1851878480
-1.108333 -1.028878 -14.671839 0.000000000000000e+00 1851878480
-1.100825 -0.681509 -14.572458 0.000000000000000e+00 1851878480
-1.098417 -0.338551 -14.540572 0.000000000000000e+00 1851878480
-1.115786 0.000000 -14.770500 0.000000000000000e+00 1851878480
-1.146302 -1.023276 -14.588563 0.000000000000000e+00 1851878480
-1.138172 -0.677580 -14.485087 0.000000000000000e+00 1851878480
-1.136512 -0.336846 -14.463966 0.000000000000000e+00 1851878480
-1.151639 0.000000 -14.656483 0.000000000000000e+00 1851878480
-1.182852 -1.016879 -14.493867 0.000000000000000e+00 1851878480
-1.177330 -0.674989 -14.426202 0.000000000000000e+00 1851878480
-1.174984 -0.335378 -14.397458 0.000000000000000e+00 1851878480
-1.191340 0.000000 -14.597871 0.000000000000000e+00 1851878480
-1.221720 -1.012867 -14.433062 0.000000000000000e+00 1851878480
-1.216529 -0.672609 -14.371735 0.000000000000000e+00 1851878480
-1.210654 -0.333245 -14.302322 0.000000000000000e+00 1851878480
-1.227523 0.000000 -14.501607 0.000000000000000e+00 1851878480
-1.295593 0.356626 -15.305768 0.000000000000000e+00 1851878480
-1.258995 -1.007864 -14.358041 0.000000000000000e+00 1851878480
-1.252794 -0.668832 -14.287314 0.000000000000000e+00 1851878480
-1.248203 -0.331762 -14.234963 0.000000000000000e+00 1851878480
-1.265605 0.000000 -14.433419 0.000000000000000e+00 1851878480
-1.330990 0.353766 -15.179089 0.000000000000000e+00 1851878480
-1.296431 -1.003330 -14.289602 0.000000000000000e+00 1851878480
-1.287360 -0.664437 -14.189612 0.000000000000000e+00 1851878480
-1.285601 -0.330342 -14.170232 0.000000000000000e+00 1851878480
-1.301847 0.000000 -14.349291 0.000000000000000e+00 1851878480
-1.367015 0.351262 -15.067588 0.000000000000000e+00 1851878480
-1.332863 -0.998342 -14.214604 0.000000000000000e+00 1851878480
-1.324648 -0.661689 -14.126992 0.000000000000000e+00 1851878480
-1.321085 -0.328540 -14.088991 0.000000000000000e+00 1851878480
-1.338068 0.000000 -14.270112 0.000000000000000e+00 1851878480
-1.401642 0.348574 -14.948118 0.000000000000000e+00 1851878480
-1.367018 -0.992021 -14.120545 0.000000000000000e+00 1851878480
-1.360637 -0.658489 -14.054637 0.000000000000000e+00 1851878480
-1.358040 -0.327207 -14.027808 0.000000000000000e+00 1851878480
-1.374519 0.000000 -14.198033 0.000000000000000e+00 1851878480
-1.437019 0.346236 -14.843622 0.000000000000000e+00 1851878480
-1.404572 -0.988483 -14.066013 0.000000000000000e+00 1851878480
-1.398522 -0.656378 -14.005432 0.000000000000000e+00 1851878480
-1.396875 -0.326397 -13.988936 0.000000000000000e+00 1851878480
-1.411603 0.000000 -14.136426 0.000000000000000e+00 1851878480
-1.474309 0.344490 -14.764393 0.000000000000000e+00 1851878480
-1.440218 -0.983861 -13.995959 0.000000000000000e+00 1851878480
-1.432070 -0.652423 -13.916772 0.000000000000000e+00 1851878480
-1.447484 -0.328309 -14.066566 0.000000000000000e+00 1851878480
-1.446568 0.000000 -14.057664 0.000000000000000e+00 1851878480
-1.511231 0.342767 -14.686058 0.000000000000000e+00 1851878480
-1.474828 -0.978820 -13.919863 0.000000000000000e+00 1851878480
-1.466679 -0.649166 -13.842954 0.000000000000000e+00 1851878480
-1.495169 -0.329469 -14.111849 0.000000000000000e+00 1851878480
-1.482147 0.000000 -13.988935 0.000000000000000e+00 1851878480
-1.550002 0.341552 -14.629379 0.000000000000000e+00 1851878480
-1.510498 -0.974751 -13.857506 0.000000000000000e+00 1851878480
-1.514840 -0.651928 -13.897334 0.000000000000000e+00 1851878480
-1.522263 -0.326157 -13.965440 0.000000000000000e+00 1851878480
-1.515391 0.000000 -13.902391 0.000000000000000e+00 1851878480
-1.584375 0.339465 -14.535261 0.000000000000000e+00 1851878480
-1.544748 -0.970020 -13.785648 0.000000000000000e+00 1851878480
-1.566670 -0.656085 -13.981285 0.000000000000000e+00 1851878480
-1.556168 -0.324446 -13.887568 0.000000000000000e+00 1851878480
-1.551025 0.000000 -13.841668 0.000000000000000e+00 1851878480
-1.621242 0.338014 -14.468297 0.000000000000000e+00 1851878480
-1.582096 -0.967438 -13.744250 0.000000000000000e+00 1851878480
-1.602942 -0.653683 -13.925347 0.000000000000000e+00 1851878480
-1.589527 -0.322717 -13.808805 0.000000000000000e+00 1851878480
-1.586447 0.000000 -13.782044 0.000000000000000e+00 1851878480
-1.661533 0.337336 -14.434347 0.000000000000000e+00 1851878480
-1.635454 -0.974536 -13.840226 0.000000000000000e+00 1851878480
-1.632956 -0.648924 -13.819085 0.000000000000000e+00 1851878480
-1.623639 -0.321227 -13.740246 0.000000000000000e+00 1851878480
-1.617112 0.000000 -13.685002 0.000000000000000e+00 1851878480
-1.710901 0.338492 -14.478705 0.000000000000000e+00 1851878480
-1.677411 -0.974666 -13.837068 0.000000000000000e+00 1851878480
-1.667552 -0.646182 -13.755740 0.000000000000000e+00 1851878480
-1.654423 -0.319173 -13.647433 0.000000000000000e+00 1851878480
-1.650718 0.000000 -13.616877 0.000000000000000e+00 1851878480
-1.743829 0.336421 -14.384955 0.000000000000000e+00 1851878480
-1.710585 -0.969819 -13.763167 0.000000000000000e+00 1851878480
-1.695553 -0.641087 -13.642226 0.000000000000000e+00 1851878480
-1.690325 -0.318185 -13.600159 0.000000000000000e+00 1851878480
-1.684204 0.000000 -13.550910 0.000000000000000e+00 1851878480
-1.774954 0.334116 -14.281081 0.000000000000000e+00 1851878480
-1.852417 0.700397 -14.904334 0.000000000000000e+00 1851878480
-1.741543 -0.963983 -13.675155 0.000000000000000e+00 1851878480
-1.732942 -0.639704 -13.607618 0.000000000000000e+00 1851878480
-1.722538 -0.316568 -13.525923 0.000000000000000e+00 1851878480
-1.717015 0.000000 -13.482558 0.000000000000000e+00 1851878480
-1.807684 0.332216 -14.194514 0.000000000000000e+00 1851878480
-1.874116 0.691817 -14.716166 0.000000000000000e+00 1851878480
-1.777983 -0.961390 -13.633065 0.000000000000000e+00 1851878480
-1.765985 -0.636823 -13.541072 0.000000000000000e+00 1851878480
-1.754419 -0.314970 -13.452387 0.000000000000000e+00 1851878480
-1.749019 0.000000 -13.410977 0.000000000000000e+00 1851878480
-1.835705 0.329563 -14.075663 0.000000000000000e+00 1851878480
-1.907118 0.687716 -14.623238 0.000000000000000e+00 1851878480
-1.810374 -0.956782 -13.562329 0.000000000000000e+00 1851878480
-1.797266 -0.633456 -13.464135 0.000000000000000e+00 1851878480
-1.786644 -0.313506 -13.384558 0.000000000000000e+00 1851878480
-1.782683 0.000000 -13.354887 0.000000000000000e+00 1851878480
-1.868885 0.327937 -14.000664 0.000000000000000e+00 1851878480
-1.942365 0.684597 -14.551137 0.000000000000000e+00 1851878480
-1.841874 -0.951928 -13.488027 0.000000000000000e+00 1851878480
-1.827771 -0.629978 -13.384753 0.000000000000000e+00 1851878480
-1.813689 -0.311222 -13.281634 0.000000000000000e+00 1851878480
-1.812621 0.000000 -13.273813 0.000000000000000e+00 1851878480
-1.894782 0.325137 -13.875473 0.000000000000000e+00 1851878480
-1.974354 0.680501 -14.458178 0.000000000000000e+00 1851878480
-1.872394 -0.946795 -13.409707 0.000000000000000e+00 1851878480
-1.859505 -0.627069 -13.317398 0.000000000000000e+00 1851878480
-1.849863 -0.310572 -13.248349 0.000000000000000e+00 1851878480
-1.845173 0.000000 -13.214764 0.000000000000000e+00 1851878480
-1.929044 0.323865 -13.815427 0.000000000000000e+00 1851878480
-2.007995 0.677143 -14.380855 0.000000000000000e+00 1851878480
-1.906558 -0.943691 -13.360059 0.000000000000000e+00 1851878480
-1.891542 -0.624389 -13.254834 0.000000000000000e+00 1851878480
-1.878463 -0.308706 -13.163183 0.000000000000000e+00 1851878480
-1.878145 0.000000 -13.160954 0.000000000000000e+00 1851878480
-1.958279 0.321824 -13.722491 0.000000000000000e+00 1851878480
-2.044257 0.674800 -14.324974 0.000000000000000e+00 1851878480
-1.934706 -0.937810 -13.271020 0.000000000000000e+00 1851878480
-1.922298 -0.621412 -13.185902 0.000000000000000e+00 1851878480
-1.907695 -0.307024 -13.085733 0.000000000000000e+00 1851878480
-1.908117 0.000000 -13.088629 0.000000000000000e+00 1851878480
-1.990118 0.320289 -13.651113 0.000000000000000e+00 1851878480
-2.074414 0.670586 -14.229336 0.000000000000000e+00 1851878480
-1.966556 -0.933931 -13.210262 0.000000000000000e+00 1851878480
-1.950711 -0.617818 -13.103822 0.000000000000000e+00 1851878480
-1.939687 -0.305846 -13.029769 0.000000000000000e+00 1851878480
-1.940279 0.000000 -13.033751 0.000000000000000e+00 1851878480
-2.021006 0.318669 -13.576027 0.000000000000000e+00 1851878480
-2.105715 0.666911 -14.145059 0.000000000000000e+00 1851878480
-1.995445 -0.928837 -13.132249 0.000000000000000e+00 1851878480
-1.979027 -0.614343 -13.024198 0.000000000000000e+00 1851878480
-1.969115 -0.304322 -12.958963 0.000000000000000e+00 1851878480
-1.972228 0.000000 -12.979454 0.000000000000000e+00 1851878480
-2.050679 0.316928 -13.495745 0.000000000000000e+00 1851878480
-2.137906 0.663663 -14.069798 0.000000000000000e+00 1851878480
-2.024522 -0.924035 -13.058311 0.000000000000000e+00 1851878480
-2.009032 -0.611522 -12.958396 0.000000000000000e+00 1851878480
-1.998247 -0.302816 -12.888833 0.000000000000000e+00 1851878480
-2.004214 0.000000 -12.927322 0.000000000000000e+00 1851878480
-2.081651 0.315455 -13.426793 0.000000000000000e+00 1851878480
-2.167892 0.659877 -13.983053 0.000000000000000e+00 1851878480
-2.055958 -0.920482 -13.001959 0.000000000000000e+00 1851878480
-2.042552 -0.609865 -12.917181 0.000000000000000e+00 1851878480
-2.028159 -0.301486 -12.826159 0.000000000000000e+00 1851878480
-2.033235 0.000000 -12.858260 0.000000000000000e+00 1851878480
-2.112658 0.314046 -13.360531 0.000000000000000e+00 1851878480
-2.201938 0.657454 -13.925146 0.000000000000000e+00 1851878480
-2.085788 -0.916364 -12.937557 0.000000000000000e+00 1851878480
-2.070137 -0.606535 -12.840472 0.000000000000000e+00 1851878480
-2.057804 -0.300168 -12.763977 0.000000000000000e+00 1851878480
-2.060000 0.000000 -12.777601 0.000000000000000e+00 1851878480
-2.140856 0.312283 -13.279123 0.000000000000000e+00 1851878480
-2.230165 0.653423 -13.833087 0.000000000000000e+00 1851878480
-2.114326 -0.911847 -12.867471 0.000000000000000e+00 1851878480
-2.101966 -0.604554 -12.792251 0.000000000000000e+00 1851878480
-2.090270 -0.299306 -12.721068 0.000000000000000e+00 1851878480
-2.093626 0.000000 -12.741496 0.000000000000000e+00 1851878480
-2.172523 0.311084 -13.221647 0.000000000000000e+00 1851878480
-2.264117 0.651191 -13.779078 0.000000000000000e+00 1851878480
-2.135263 -1.206483 -12.754367 0.000000000000000e+00 1851878480
-2.145362 -0.908561 -12.814689 0.000000000000000e+00 1851878480
-2.130358 -0.601680 -12.725067 0.000000000000000e+00 1851878480
-2.114751 -0.297356 -12.631842 0.000000000000000e+00 1851878480
-2.123055 0.000000 -12.681446 0.000000000000000e+00 1851878480
-2.201630 0.309572 -13.150788 0.000000000000000e+00 1851878480
-2.291516 0.647196 -13.687695 0.000000000000000e+00 1851878480
-2.163638 -1.200887 -12.688740 0.000000000000000e+00 1851878480
-2.171771 -0.903473 -12.736433 0.000000000000000e+00 1851878480
-2.157331 -0.598518 -12.651751 0.000000000000000e+00 1851878480
-2.142386 -0.295912 -12.564106 0.000000000000000e+00 1851878480
-2.152057 0.000000 -12.620824 0.000000000000000e+00 1851878480
-2.230785 0.308122 -13.082527 0.000000000000000e+00 1851878480
-2.321497 0.644064 -13.614509 0.000000000000000e+00 1851878480
-2.194904 -1.197073 -12.641876 0.000000000000000e+00 1851878480
-2.204633 -0.901208 -12.697912 0.000000000000000e+00 1851878480
-2.186554 -0.596085 -12.593785 0.000000000000000e+00 1851878480
-2.173325 -0.294969 -12.517591 0.000000000000000e+00 1851878480
-2.179882 0.000000 -12.555358 0.000000000000000e+00 1851878480
-2.256133 0.306208 -12.994534 0.000000000000000e+00 1851878480
-2.350450 0.640766 -13.537765 0.000000000000000e+00 1851878480
-2.227687 -1.194213 -12.605012 0.000000000000000e+00 1851878480
-2.226377 -0.894561 -12.597600 0.000000000000000e+00 1851878480
-2.214449 -0.593385 -12.530107 0.000000000000000e+00 1851878480
-2.203488 -0.293958 -12.468087 0.000000000000000e+00 1851878480
-2.207587 0.000000 -12.491280 0.000000000000000e+00 1851878480
-2.130176 0.284178 -12.053265 0.000000000000000e+00 1768716611
-2.384790 0.639030 -13.493957 0.000000000000000e+00 1851878480
-2.256591 -1.189416 -12.547639 0.000000000000000e+00 1851878480
-2.259879 -0.892792 -12.565923 0.000000000000000e+00 1851878480
-2.243854 -0.591179 -12.476815 0.000000000000000e+00 1851878480
-2.234833 -0.293139 -12.426661 0.000000000000000e+00 1851878480
-2.237539 0.000000 -12.441703 0.000000000000000e+00 1851878480
-2.160596 0.283401 -12.013867 0.000000000000000e+00 1768716611
-2.412089 0.635503 -13.412277 0.000000000000000e+00 1851878480
-2.282245 -1.183103 -12.474212 0.000000000000000e+00 1851878480
-2.289323 -0.889511 -12.512895 0.000000000000000e+00 1851878480
-2.272011 -0.588727 -12.418271 0.000000000000000e+00 1851878480
-2.261242 -0.291712 -12.359414 0.000000000000000e+00 1851878480
-2.263625 0.000000 -12.372437 0.000000000000000e+00 1851878480
-2.191955 0.282774 -11.980707 0.000000000000000e+00 1768716611
-2.440774 0.632457 -13.340691 0.000000000000000e+00 1851878480
-2.310779 -1.178473 -12.418482 0.000000000000000e+00 1851878480
-2.315485 -0.885090 -12.443777 0.000000000000000e+00 1851878480
-2.303958 -0.587326 -12.381826 0.000000000000000e+00 1851878480
-2.288457 -0.290437 -12.298524 0.000000000000000e+00 1851878480
-2.296291 0.000000 -12.340623 0.000000000000000e+00 1851878480
-2.230709 0.283108 -11.988178 0.000000000000000e+00 1768716611
-2.473588 0.630568 -13.293444 0.000000000000000e+00 1851878480
-2.339352 -1.174022 -12.364576 0.000000000000000e+00 1851878480
-2.343109 -0.881367 -12.384433 0.000000000000000e+00 1851878480
-2.326689 -0.583663 -12.297643 0.000000000000000e+00 1851878480
-2.320191 -0.289769 -12.263303 0.000000000000000e+00 1851878480
-2.324076 0.000000 -12.283834 0.000000000000000e+00 1851878480
-2.262521 0.282566 -11.958485 0.000000000000000e+00 1768716611
-2.499573 0.627032 -13.211417 0.000000000000000e+00 1851878480
-2.369713 -1.170605 -12.321495 0.000000000000000e+00 1851878480
-2.372859 -0.878558 -12.337858 0.000000000000000e+00 1851878480
-2.359260 -0.582551 -12.267145 0.000000000000000e+00 1851878480
-2.347502 -0.288581 -12.206009 0.000000000000000e+00 1851878480
-2.349978 0.000000 -12.218884 0.000000000000000e+00 1851878480
-2.293390 0.281929 -11.924652 0.000000000000000e+00 1768716611
-2.531623 0.625111 -13.163363 0.000000000000000e+00 1851878480
-2.396900 -1.165759 -12.263319 0.000000000000000e+00 1851878480
-2.398851 -0.874472 -12.273299 0.000000000000000e+00 1851878480
-2.381590 -0.578987 -12.184987 0.000000000000000e+00 1851878480
-2.374381 -0.287380 -12.148104 0.000000000000000e+00 1851878480
-2.372711 0.000000 -12.139558 0.000000000000000e+00 1851878480
-2.330776 0.282102 -11.925007 0.000000000000000e+00 1768716611
-2.559329 0.622197 -13.094357 0.000000000000000e+00 1851878480
-2.427160 -1.162543 -12.222219 0.000000000000000e+00 1851878480
-2.427891 -0.871612 -12.225896 0.000000000000000e+00 1851878480
-2.411623 -0.577382 -12.143977 0.000000000000000e+00 1851878480
-2.401429 -0.286238 -12.092645 0.000000000000000e+00 1851878480
-2.406560 0.000000 -12.118484 0.000000000000000e+00 1851878480
-2.368100 0.282265 -11.924812 0.000000000000000e+00 1768716611
-2.588411 0.619708 -13.034213 0.000000000000000e+00 1851878480
-2.454712 -1.158157 -12.168757 0.000000000000000e+00 1851878480
-2.454268 -0.867906 -12.166559 0.000000000000000e+00 1851878480
-2.437737 -0.574906 -12.084610 0.000000000000000e+00 1851878480
-2.431032 -0.285433 -12.051370 0.000000000000000e+00 1851878480
-2.435596 0.000000 -12.073997 0.000000000000000e+00 1851878480
-2.406745 0.282582 -11.930971 0.000000000000000e+00 1768716611
-2.619044 0.617665 -12.983401 0.000000000000000e+00 1851878480
-2.484492 -1.154944 -12.127571 0.000000000000000e+00 1851878480
-2.482308 -0.864894 -12.116913 0.000000000000000e+00 1851878480
-2.466766 -0.573185 -12.041045 0.000000000000000e+00 1851878480
-2.459629 -0.284538 -12.006207 0.000000000000000e+00 1851878480
-2.459718 0.000000 -12.006645 0.000000000000000e+00 1851878480
-2.443374 0.282658 -11.926862 0.000000000000000e+00 1768716611
-2.647166 0.615103 -12.921635 0.000000000000000e+00 1851878480
-2.510607 -1.150157 -12.069782 0.000000000000000e+00 1851878480
-2.503589 -0.859657 -12.036044 0.000000000000000e+00 1851878480
-2.490535 -0.570314 -11.973289 0.000000000000000e+00 1851878480
-2.483590 -0.283143 -11.939896 0.000000000000000e+00 1851878480
-2.486869 0.000000 -11.955660 0.000000000000000e+00 1851878480
-2.481168 0.282867 -11.928251 0.000000000000000e+00 1768716611
-2.674061 0.612341 -12.855592 0.000000000000000e+00 1851878480
-2.538075 -1.146127 -12.019897 0.000000000000000e+00 1851878480
-2.532705 -0.857229 -11.994466 0.000000000000000e+00 1851878480
-2.513844 -0.567427 -11.905143 0.000000000000000e+00 1851878480
-2.509031 -0.281956 -11.882350 0.000000000000000e+00 1851878480
-2.513100 0.000000 -11.901623 0.000000000000000e+00 1851878480
-2.525407 0.283797 -11.959908 0.000000000000000e+00 1768716611
-2.700225 0.609497 -12.787813 0.000000000000000e+00 1851878480
-2.564645 -1.141824 -11.967080 0.000000000000000e+00 1851878480
-2.555482 -0.852763 -11.924322 0.000000000000000e+00 1851878480
-2.538425 -0.564910 -11.844731 0.000000000000000e+00 1851878480
-2.534259 -0.280782 -11.825294 0.000000000000000e+00 1851878480
-2.540799 0.000000 -11.855807 0.000000000000000e+00 1851878480
-2.561800 0.283834 -11.953803 0.000000000000000e+00 1768716611
-2.724897 0.606408 -12.714844 0.000000000000000e+00 1851878480
-2.593743 -1.138758 -11.927177 0.000000000000000e+00 1851878480
-2.580057 -0.849019 -11.864244 0.000000000000000e+00 1851878480
-2.559921 -0.561790 -11.771651 0.000000000000000e+00 1851878480
-2.554008 -0.279045 -11.744458 0.000000000000000e+00 1851878480
-2.565247 0.000000 -11.796141 0.000000000000000e+00 1851878480
-2.655267 0.290108 -12.210094 0.000000000000000e+00 1851878480
-2.754333 0.604455 -12.665642 0.000000000000000e+00 1851878480
-2.619093 -1.134163 -11.871208 0.000000000000000e+00 1851878480
-2.601459 -0.844355 -11.791280 0.000000000000000e+00 1851878480
-2.583021 -0.559108 -11.707714 0.000000000000000e+00 1851878480
-2.578665 -0.277886 -11.687967 0.000000000000000e+00 1851878480
-2.590248 0.000000 -11.740468 0.000000000000000e+00 1851878480
-2.674904 0.288257 -12.124177 0.000000000000000e+00 1851878480
-2.778242 0.601365 -12.592564 0.000000000000000e+00 1851878480
-2.974940 0.965576 -13.484110 0.000000000000000e+00 1851878480
-2.645355 -1.130093 -11.820687 0.000000000000000e+00 1851878480
-2.613335 -0.836776 -11.677606 0.000000000000000e+00 1851878480
-2.600682 -0.555342 -11.621065 0.000000000000000e+00 1851878480
-2.601039 -0.276519 -11.622663 0.000000000000000e+00 1851878480
-2.620085 0.000000 -11.707767 0.000000000000000e+00 1851878480
-2.700345 0.287076 -12.066408 0.000000000000000e+00 1851878480
-2.803620 0.598677 -12.527890 0.000000000000000e+00 1851878480
-3.010787 0.964038 -13.453606 0.000000000000000e+00 1851878480
-2.671407 -1.126052 -11.770416 0.000000000000000e+00 1851878480
-2.638544 -0.833617 -11.625615 0.000000000000000e+00 1851878480
-2.627871 -0.553689 -11.578593 0.000000000000000e+00 1851878480
-2.625314 -0.275389 -11.567324 0.000000000000000e+00 1851878480
-2.647638 0.000000 -11.665686 0.000000000000000e+00 1851878480
-3.710282 0.389200 -16.347773 0.000000000000000e+00 1851878480
-2.839442 0.598266 -12.510787 0.000000000000000e+00 1851878480
-3.052070 0.964266 -13.447641 0.000000000000000e+00 1851878480
-2.692096 -1.119896 -11.697999 0.000000000000000e+00 1851878480
-2.679051 -0.835318 -11.641315 0.000000000000000e+00 1851878480
-2.663229 -0.553782 -11.572564 0.000000000000000e+00 1851878480
-2.640323 -0.273333 -11.473028 0.000000000000000e+00 1851878480
-2.668829 0.000000 -11.596901 0.000000000000000e+00 1851878480
-3.750945 0.388307 -16.299030 0.000000000000000e+00 1851878480
-2.866996 0.596153 -12.457996 0.000000000000000e+00 1851878480
-3.092395 0.964197 -13.437424 0.000000000000000e+00 1851878480
-2.726245 -1.119437 -11.685030 0.000000000000000e+00 1851878480
-2.662205 -0.819332 -11.410545 0.000000000000000e+00 1701537140
-2.668002 -0.547601 -11.435391 0.000000000000000e+00 1701537140
-2.662196 -0.272033 -11.410509 0.000000000000000e+00 1851878480
-2.692337 0.000000 -11.539694 0.000000000000000e+00 1851878480
-3.791332 0.387412 -16.250124 0.000000000000000e+00 1851878480
-2.898867 0.594985 -12.424909 0.000000000000000e+00 1851878480
-3.135388 0.964961 -13.438665 0.000000000000000e+00 1851878480
-2.763430 -1.120230 -11.685032 0.000000000000000e+00 1851878480
-2.697811 -0.819699 -11.407569 0.000000000000000e+00 1701537140
-2.690414 -0.545156 -11.376289 0.000000000000000e+00 1701537140
-2.701974 -0.272576 -11.425168 0.000000000000000e+00 1851878480
-2.712480 0.000000 -11.469594 0.000000000000000e+00 1851878480
-2.801534 0.282619 -11.846154 0.000000000000000e+00 1851878480
-2.932537 0.594218 -12.400093 0.000000000000000e+00 1851878480
-3.179311 0.965997 -13.443566 0.000000000000000e+00 1851878480
-2.716258 -1.087247 -11.332849 0.000000000000000e+00 1701537140
-2.729727 -0.818955 -11.389047 0.000000000000000e+00 1701537140
-2.764305 -0.553078 -11.533313 0.000000000000000e+00 1701537140
-2.739653 -0.272898 -11.430457 0.000000000000000e+00 1851878480
-2.734079 0.000000 -11.407202 0.000000000000000e+00 1851878480
-2.832151 0.282111 -11.816381 0.000000000000000e+00 1851878480
-2.979312 0.596096 -12.430368 0.000000000000000e+00 1851878480
-3.245320 0.973640 -13.540218 0.000000000000000e+00 1851878480
-2.746460 -1.085680 -11.308280 0.000000000000000e+00 1701537140
-2.773567 -0.821771 -11.419888 0.000000000000000e+00 1701537140
-2.754150 -0.544201 -11.339942 0.000000000000000e+00 1701537140
-2.734441 -0.268995 -11.258793 0.000000000000000e+00 1701537140
-2.754965 0.000000 -11.343296 0.000000000000000e+00 1851878480
-2.855765 0.280930 -11.758330 0.000000000000000e+00 1851878480
-3.013653 0.595477 -12.408418 0.000000000000000e+00 1851878480
-2.779845 -1.085403 -11.297066 0.000000000000000e+00 1701537140
-2.812736 -0.823158 -11.430730 0.000000000000000e+00 1701537140
-2.800507 -0.546576 -11.381035 0.000000000000000e+00 1701537140
-2.751307 -0.267335 -11.181087 0.000000000000000e+00 1701537140
-2.768368 0.000000 -11.250424 0.000000000000000e+00 1851878480
-2.884293 0.280257 -11.721534 0.000000000000000e+00 1851878480
-3.049894 0.595249 -12.394524 0.000000000000000e+00 1851878480
-2.812546 -1.084880 -11.283191 0.000000000000000e+00 1701537140
-2.861122 -0.827184 -11.478066 0.000000000000000e+00 1701537140
-2.839505 -0.547480 -11.391346 0.000000000000000e+00 1701537140
-2.782361 -0.267081 -11.162096 0.000000000000000e+00 1701537140
-2.788373 0.000000 -11.186216 0.000000000000000e+00 1851878480
-2.910408 0.279372 -11.675789 0.000000000000000e+00 1851878480
-3.091142 0.595997 -12.400848 0.000000000000000e+00 1851878480
-2.821443 -1.075306 -11.175164 0.000000000000000e+00 1701537140
-2.900320 -0.828496 -11.487579 0.000000000000000e+00 1701537140
-2.883175 -0.549256 -11.419670 0.000000000000000e+00 1701537140
-2.879651 -0.273116 -11.405711 0.000000000000000e+00 1701537140
-2.804327 0.000000 -11.107371 0.000000000000000e+00 1851878480
-2.931565 0.278040 -11.611333 0.000000000000000e+00 1851878480
-3.120979 0.594559 -12.361564 0.000000000000000e+00 1851878480
-2.849533 -1.073197 -11.144694 0.000000000000000e+00 1701537140
-2.935297 -0.828593 -11.480123 0.000000000000000e+00 1701537140
-2.926310 -0.550895 -11.444974 0.000000000000000e+00 1701537140
-2.842485 -0.266410 -11.117131 0.000000000000000e+00 1701537140
-2.829665 0.000000 -11.066989 0.000000000000000e+00 1851878480
-2.958282 0.277263 -11.570017 0.000000000000000e+00 1851878480
-3.167887 0.596374 -12.389797 0.000000000000000e+00 1851878480
-2.896432 -1.078148 -11.187429 0.000000000000000e+00 1701537140
-2.980773 -0.831626 -11.513198 0.000000000000000e+00 1701537140
-2.963661 -0.551426 -11.447104 0.000000000000000e+00 1701537140
-2.875885 -0.266400 -11.108070 0.000000000000000e+00 1701537140
-2.858516 0.000000 -11.040981 0.000000000000000e+00 1851878480
-2.984315 0.276444 -11.526877 0.000000000000000e+00 1851878480
-3.206324 0.596576 -12.384386 0.000000000000000e+00 1851878480
-2.900393 -1.335666 -11.065081 0.000000000000000e+00 1701537140
-2.981787 -1.097144 -11.375605 0.000000000000000e+00 1701537140
-3.017887 -0.832289 -11.513325 0.000000000000000e+00 1701537140
-3.008400 -0.553307 -11.477135 0.000000000000000e+00 1701537140
-2.881930 -0.263887 -10.994644 0.000000000000000e+00 1701537140
-2.890255 0.000000 -11.026406 0.000000000000000e+00 1851878480
-3.015641 0.276130 -11.504760 0.000000000000000e+00 1851878480
-3.242150 0.596298 -12.368896 0.000000000000000e+00 1851878480
-2.922112 -1.330367 -11.012419 0.000000000000000e+00 1701537140
-3.022165 -1.099357 -11.389482 0.000000000000000e+00 1701537140
-2.919169 -0.795910 -11.001328 0.000000000000000e+00 1701537140
-3.046474 -0.553938 -11.481093 0.000000000000000e+00 1701537140
-2.905708 -0.263039 -10.950597 0.000000000000000e+00 1701537140
-2.927813 0.000000 -11.033904 0.000000000000000e+00 1851878480
-3.038104 0.275024 -11.449550 0.000000000000000e+00 1851878480
-3.282734 0.596897 -12.371475 0.000000000000000e+00 1851878480
-2.940968 -1.323910 -10.950148 0.000000000000000e+00 1701537140
-3.057262 -1.099631 -11.383146 0.000000000000000e+00 1701537140
-2.943066 -0.793410 -10.957959 0.000000000000000e+00 1701537140
-2.933595 -0.527421 -10.922693 0.000000000000000e+00 1701537140
-2.930342 -0.262289 -10.910585 0.000000000000000e+00 1701537140
-2.967148 0.000000 -11.047623 0.000000000000000e+00 1851878480
-3.062305 0.274100 -11.401923 0.000000000000000e+00 1851878480
-3.329810 0.598655 -12.397926 0.000000000000000e+00 1851878480
-2.968000 -1.321249 -10.919237 0.000000000000000e+00 1701537140
-3.101615 -1.103201 -11.410804 0.000000000000000e+00 1701537140
-2.966722 -0.790911 -10.914536 0.000000000000000e+00 1701537140
-2.974065 -0.528762 -10.941550 0.000000000000000e+00 1701537140
-2.967337 -0.262652 -10.916798 0.000000000000000e+00 1701537140
-3.007023 0.000000 -11.062803 0.000000000000000e+00 1851878480
-3.086542 0.273203 -11.355350 0.000000000000000e+00 1851878480
-3.364147 0.598115 -12.376658 0.000000000000000e+00 1851878480
-2.992344 -1.317473 -10.879061 0.000000000000000e+00 1701537140
-2.982309 -1.049129 -10.842578 0.000000000000000e+00 1701537140
-3.000648 -0.791180 -10.909251 0.000000000000000e+00 1701537140
-3.016305 -0.530390 -10.966176 0.000000000000000e+00 1701537140
-3.014495 -0.263899 -10.959594 0.000000000000000e+00 1701537140
-3.038303 0.000000 -11.046150 0.000000000000000e+00 1851878480
-3.117973 0.272958 -11.335800 0.000000000000000e+00 1851878480
-3.405786 0.598876 -12.382183 0.000000000000000e+00 1851878480
-3.010541 -1.311115 -10.817523 0.000000000000000e+00 1701537140
-3.014981 -1.049124 -10.833476 0.000000000000000e+00 1701537140
-3.017090 -0.786891 -10.841057 0.000000000000000e+00 1701537140
-2.998107 -0.521474 -10.772847 0.000000000000000e+00 1701537140
-3.118541 -0.270048 -11.205591 0.000000000000000e+00 1701537140
-3.076149 0.000000 -11.053267 0.000000000000000e+00 1851878480
-3.143776 0.272233 -11.296267 0.000000000000000e+00 1851878480
-3.445724 0.599330 -12.381230 0.000000000000000e+00 1851878480
-3.044326 -1.311620 -10.812560 0.000000000000000e+00 1701537140
-3.024827 -1.041270 -10.743308 0.000000000000000e+00 1701537140
-3.059011 -0.789274 -10.864718 0.000000000000000e+00 1701537140
-3.037282 -0.522626 -10.787542 0.000000000000000e+00 1701537140
-3.158139 -0.270546 -11.216790 0.000000000000000e+00 1701537140
-3.114741 0.000000 -11.062653 0.000000000000000e+00 1851878480
-3.169381 0.271509 -11.256719 0.000000000000000e+00 1851878480
-3.486010 0.599839 -12.381293 0.000000000000000e+00 1851878480
-3.066572 -1.307209 -10.766997 0.000000000000000e+00 1701537140
-3.063398 -1.043377 -10.755855 0.000000000000000e+00 1701537140
-3.049651 -0.778524 -10.707587 0.000000000000000e+00 1701537140
-3.044420 -0.518305 -10.689219 0.000000000000000e+00 1701537140
-3.192972 -0.270633 -11.210797 0.000000000000000e+00 1701537140
-3.041346 0.000000 -10.678427 0.000000000000000e+00 1851878480
-3.196681 0.270947 -11.223823 0.000000000000000e+00 1851878480
-3.531307 0.601197 -12.398724 0.000000000000000e+00 1851878480
-3.100842 -1.307973 -10.763988 0.000000000000000e+00 1701537140
-3.098855 -1.044399 -10.757089 0.000000000000000e+00 1701537140
-3.071990 -0.776013 -10.663834 0.000000000000000e+00 1701537140
-3.081203 -0.519073 -10.695811 0.000000000000000e+00 1701537140
-3.048784 -0.255705 -10.583276 0.000000000000000e+00 1701537140
-3.061095 0.000000 -10.626013 0.000000000000000e+00 1851878480
-3.228360 0.270766 -11.206642 0.000000000000000e+00 1851878480
-3.572958 0.601917 -12.402848 0.000000000000000e+00 1851878480
-3.144013 -1.312448 -10.791382 0.000000000000000e+00 1701537140
-3.229048 -1.077007 -11.083256 0.000000000000000e+00 1701537140
-3.097246 -0.774289 -10.630861 0.000000000000000e+00 1701537140
-3.120541 -0.520256 -10.710820 0.000000000000000e+00 1701537140
-3.075742 -0.255294 -10.557054 0.000000000000000e+00 1701537140
-3.082188 0.000000 -10.579176 0.000000000000000e+00 1851878480
-3.253620 0.270059 -11.167594 0.000000000000000e+00 1851878480
-3.614239 0.602565 -12.405369 0.000000000000000e+00 1851878480
-3.179484 -1.313663 -10.791835 0.000000000000000e+00 1701537140
-3.254390 -1.074343 -11.046082 0.000000000000000e+00 1701537140
-3.133182 -0.775252 -10.634677 0.000000000000000e+00 1701537140
-3.236431 -0.534051 -10.985125 0.000000000000000e+00 1701537140
-3.097160 -0.254439 -10.512411 0.000000000000000e+00 1701537140
-3.108760 0.000000 -10.551785 0.000000000000000e+00 1851878480
-3.287860 0.270106 -11.159686 0.000000000000000e+00 1851878480
-3.653311 0.602842 -12.400104 0.000000000000000e+00 1851878480
-3.223455 -1.318341 -10.820592 0.000000000000000e+00 1701537140
-3.132696 -1.023695 -10.515929 0.000000000000000e+00 1701537140
-3.168511 -0.776053 -10.636151 0.000000000000000e+00 1701537140
-3.263095 -0.532998 -10.953656 0.000000000000000e+00 1701537140
-3.124923 -0.254120 -10.489837 0.000000000000000e+00 1701537140
-3.136750 0.000000 -10.529536 0.000000000000000e+00 1851878480
-3.318667 0.269875 -11.140202 0.000000000000000e+00 1851878480
-3.701017 0.604528 -12.423683 0.000000000000000e+00 1851878480
-3.262361 -1.320886 -10.831688 0.000000000000000e+00 1701537140
-3.164850 -1.023841 -10.507933 0.000000000000000e+00 1701537140
-3.213660 -0.779225 -10.669991 0.000000000000000e+00 1701537140
-3.283203 -0.530909 -10.900889 0.000000000000000e+00 1701537140
-3.153133 -0.253845 -10.469030 0.000000000000000e+00 1701537140
-3.165833 0.000000 -10.511196 0.000000000000000e+00 1851878480
-3.341748 0.269030 -11.095270 0.000000000000000e+00 1851878480
-3.746590 0.605841 -12.439427 0.000000000000000e+00 1851878480
-3.314409 -1.328661 -10.885500 0.000000000000000e+00 1701537140
-3.185701 -1.020373 -10.462782 0.000000000000000e+00 1701537140
-3.173762 -0.761925 -10.423573 0.000000000000000e+00 1701537140
-3.169349 -0.507420 -10.409077 0.000000000000000e+00 1701537140
-3.191072 -0.254354 -10.480426 0.000000000000000e+00 1701537140
-3.187274 0.000000 -10.467950 0.000000000000000e+00 1851878480
-3.373162 0.268868 -11.078462 0.000000000000000e+00 1851878480
-3.794260 0.607469 -12.461470 0.000000000000000e+00 1851878480
-3.362135 -1.334581 -10.923909 0.000000000000000e+00 1701537140
-3.220196 -1.021311 -10.462734 0.000000000000000e+00 1701537140
-3.201990 -0.761166 -10.403580 0.000000000000000e+00 1701537140
-3.200955 -0.507456 -10.400220 0.000000000000000e+00 1701537140
-3.233453 -0.255205 -10.505807 0.000000000000000e+00 1701537140
-3.222456 0.000000 -10.470076 0.000000000000000e+00 1851878480
-3.394885 0.267946 -11.030313 0.000000000000000e+00 1851878480
-3.836611 0.608228 -12.465527 0.000000000000000e+00 1851878480
-3.259933 -1.023885 -10.479322 0.000000000000000e+00 1701537140
-3.230534 -0.760503 -10.384815 0.000000000000000e+00 1701537140
-3.229955 -0.507087 -10.382956 0.000000000000000e+00 1701537140
-3.209312 -0.250843 -10.316598 0.000000000000000e+00 1851878480
-3.241974 0.000000 -10.421590 0.000000000000000e+00 1851878480
-3.424228 0.267641 -11.007462 0.000000000000000e+00 1851878480
-3.883476 0.609686 -12.483752 0.000000000000000e+00 1851878480
-3.303068 -1.027476 -10.506160 0.000000000000000e+00 1701537140
-3.266061 -0.761487 -10.388452 0.000000000000000e+00 1701537140
-3.266298 -0.507871 -10.389206 0.000000000000000e+00 1701537140
-3.242478 -0.251003 -10.313440 0.000000000000000e+00 1851878480
-3.273141 0.000000 -10.410970 0.000000000000000e+00 1851878480
-3.458498 0.267725 -11.000541 0.000000000000000e+00 1851878480
-3.930120 0.611087 -12.500642 0.000000000000000e+00 1851878480
-3.337105 -1.028206 -10.503606 0.000000000000000e+00 1701537140
-3.302645 -0.762704 -10.395141 0.000000000000000e+00 1701537140
-3.299472 -0.508157 -10.385154 0.000000000000000e+00 1701537140
-3.269012 -0.250654 -10.289283 0.000000000000000e+00 1851878480
-3.302353 0.000000 -10.394224 0.000000000000000e+00 1851878480
-3.484338 0.267164 -10.967022 0.000000000000000e+00 1851878480
-3.975368 0.612253 -12.512552 0.000000000000000e+00 1851878480
-3.379912 -1.031607 -10.528204 0.000000000000000e+00 1701537140
-3.341959 -0.764529 -10.409982 0.000000000000000e+00 1701537140
-3.292954 -0.502386 -10.257337 0.000000000000000e+00 1851878480
-3.300149 -0.250663 -10.279749 0.000000000000000e+00 1851878480
-3.316823 0.000000 -10.331689 0.000000000000000e+00 1851878480
-3.519456 0.267320 -10.962875 0.000000000000000e+00 1851878480
-4.022911 0.613751 -12.531102 0.000000000000000e+00 1851878480
-3.423148 -1.035084 -10.553411 0.000000000000000e+00 1701537140
-3.325898 -0.753776 -10.253593 0.000000000000000e+00 1851878480
-3.321060 -0.501961 -10.238679 0.000000000000000e+00 1851878480
-3.321404 -0.249930 -10.239739 0.000000000000000e+00 1851878480
-3.347001 0.000000 -10.318654 0.000000000000000e+00 1851878480
-3.548515 0.267020 -10.939914 0.000000000000000e+00 1851878480
-4.071466 0.615381 -12.552148 0.000000000000000e+00 1851878480
-3.469424 -1.039417 -10.587173 0.000000000000000e+00 1701537140
-3.358394 -0.754133 -10.248359 0.000000000000000e+00 1851878480
-3.348919 -0.501511 -10.219444 0.000000000000000e+00 1851878480
-3.344850 -0.249377 -10.207027 0.000000000000000e+00 1851878480
-3.373533 0.000000 -10.294555 0.000000000000000e+00 1851878480
-3.585540 0.267322 -10.941509 0.000000000000000e+00 1851878480
-4.118692 0.616787 -12.568458 0.000000000000000e+00 1851878480
-3.413080 -1.013217 -10.310061 0.000000000000000e+00 1851878480
-3.385971 -0.753395 -10.228171 0.000000000000000e+00 1851878480
-3.373597 -0.500602 -10.190792 0.000000000000000e+00 1851878480
-3.371600 -0.249080 -10.184759 0.000000000000000e+00 1851878480
-3.409418 0.000000 -10.298998 0.000000000000000e+00 1851878480
-3.613963 0.266985 -10.916880 0.000000000000000e+00 1851878480
-4.175381 0.619577 -12.612782 0.000000000000000e+00 1851878480
-3.439888 -1.011960 -10.286946 0.000000000000000e+00 1851878480
-3.409567 -0.751800 -10.196274 0.000000000000000e+00 1851878480
-3.402072 -0.500272 -10.173858 0.000000000000000e+00 1851878480
-3.402151 -0.249069 -10.174095 0.000000000000000e+00 1851878480
-3.426181 0.000000 -10.245955 0.000000000000000e+00 1851878480
-3.659945 0.267942 -10.945025 0.000000000000000e+00 1851878480
-4.220844 0.620671 -12.622387 0.000000000000000e+00 1851878480
-3.467876 -1.011079 -10.267579 0.000000000000000e+00 1851878480
-3.434600 -0.750553 -10.169057 0.000000000000000e+00 1851878480
-3.433514 -0.500384 -10.165840 0.000000000000000e+00 1851878480
-3.427097 -0.248654 -10.146841 0.000000000000000e+00 1851878480
-3.454980 0.000000 -10.229398 0.000000000000000e+00 1851878480
-3.699779 0.268438 -10.954188 0.000000000000000e+00 1851878480
-4.278249 0.623492 -12.666904 0.000000000000000e+00 1851878480
-3.494098 -1.009712 -10.243207 0.000000000000000e+00 1851878480
-3.465857 -0.750684 -10.160419 0.000000000000000e+00 1851878480
-3.458486 -0.499565 -10.138811 0.000000000000000e+00 1851878480
-3.453748 -0.248371 -10.124920 0.000000000000000e+00 1851878480
-3.482086 0.000000 -10.207996 0.000000000000000e+00 1851878480
-3.741272 0.269048 -10.967818 0.000000000000000e+00 1851878480
-4.338271 0.626647 -12.717966 0.000000000000000e+00 1851878480
-3.522055 -1.008877 -10.224153 0.000000000000000e+00 1851878480
-3.493570 -0.750059 -10.141467 0.000000000000000e+00 1851878480
-3.479968 -0.498265 -10.101981 0.000000000000000e+00 1851878480
-3.486740 -0.248547 -10.121639 0.000000000000000e+00 1851878480
-3.504947 0.000000 -10.174492 0.000000000000000e+00 1851878480
-3.782091 0.269601 -10.979011 0.000000000000000e+00 1851878480
-4.400921 0.630128 -12.775410 0.000000000000000e+00 1851878480
-3.558493 -1.010472 -10.229634 0.000000000000000e+00 1851878480
-3.522198 -0.749645 -10.125299 0.000000000000000e+00 1851878480
-3.510296 -0.498248 -10.091083 0.000000000000000e+00 1851878480
-3.505684 -0.247730 -10.077826 0.000000000000000e+00 1851878480
-3.535073 0.000000 -10.162310 0.000000000000000e+00 1851878480
-3.826872 0.270427 -11.001147 0.000000000000000e+00 1851878480
-4.463602 0.633559 -12.831562 0.000000000000000e+00 1851878480
-3.581295 -1.008210 -10.195981 0.000000000000000e+00 1851878480
-3.544443 -0.747899 -10.091064 0.000000000000000e+00 1851878480
-3.540346 -0.498196 -10.079401 0.000000000000000e+00 1851878480
-3.539525 -0.247972 -10.077064 0.000000000000000e+00 1851878480
-3.568861 0.000000 -10.160583 0.000000000000000e+00 1851878480
-3.867898 0.270977 -11.011945 0.000000000000000e+00 1851878480
-4.525497 0.636826 -12.884136 0.000000000000000e+00 1851878480
-3.604828 -1.006201 -10.164837 0.000000000000000e+00 1851878480
-3.576258 -0.748191 -10.084275 0.000000000000000e+00 1851878480
-3.566030 -0.497540 -10.055431 0.000000000000000e+00 1851878480
-3.560365 -0.247310 -10.039461 0.000000000000000e+00 1851878480
-3.601462 0.000000 -10.155342 0.000000000000000e+00 1851878480
-3.905808 0.271305 -11.013535 0.000000000000000e+00 1851878480
-4.598456 0.641587 -12.966652 0.000000000000000e+00 1851878480
-3.629954 -1.004674 -10.138515 0.000000000000000e+00 1851878480
-3.599216 -0.746648 -10.052662 0.000000000000000e+00 1851878480
-3.592697 -0.497036 -10.034455 0.000000000000000e+00 1851878480
-3.602029 -0.248095 -10.060520 0.000000000000000e+00 1700951363
-3.629354 0.000000 -10.136838 0.000000000000000e+00 1851878480
-3.954845 0.272396 -11.045939 0.000000000000000e+00 1851878480
-4.679924 0.647450 -13.071095 0.000000000000000e+00 1851878480
-3.661646 -1.004985 -10.130649 0.000000000000000e+00 1851878480
-3.626054 -0.745935 -10.032178 0.000000000000000e+00 1851878480
-3.620879 -0.496753 -10.017861 0.000000000000000e+00 1851878480
-3.624438 -0.247555 -10.027707 0.000000000000000e+00 1700951363
-3.659135 0.000000 -10.123702 0.000000000000000e+00 1851878480
-3.989904 0.272516 -11.038839 0.000000000000000e+00 1851878480
-4.765673 0.653809 -13.185154 0.000000000000000e+00 1851878480
-3.682394 -1.002320 -10.092730 0.000000000000000e+00 1851878480
-3.651508 -0.744959 -10.008078 0.000000000000000e+00 1851878480
-3.645291 -0.495966 -9.991038 0.000000000000000e+00 1851878480
-3.655823 -0.247633 -10.019904 0.000000000000000e+00 1700951363
-3.693842 0.000000 -10.124106 0.000000000000000e+00 1851878480
-4.026029 0.272709 -11.034566 0.000000000000000e+00 1851878480
-4.896023 0.666136 -13.419052 0.000000000000000e+00 1851878480
-3.718546 -1.003868 -10.097142 0.000000000000000e+00 1851878480
-3.681541 -0.744932 -9.996661 0.000000000000000e+00 1851878480
-3.681692 -0.496814 -9.997069 0.000000000000000e+00 1851878480
-3.678877 -0.247153 -9.989428 0.000000000000000e+00 1700951363
-3.720956 0.000000 -10.103685 0.000000000000000e+00 1851878480
-4.064208 0.273040 -11.035732 0.000000000000000e+00 1851878480
-3.740798 -1.001676 -10.063865 0.000000000000000e+00 1851878480
-3.706139 -0.743821 -9.970620 0.000000000000000e+00 1851878480
-3.766060 -0.504073 -10.131826 0.000000000000000e+00 1851878480
-3.711231 -0.247302 -9.984320 0.000000000000000e+00 1700951363
-3.754596 0.000000 -10.100985 0.000000000000000e+00 1851878480
-4.114202 0.274155 -11.068430 0.000000000000000e+00 1851878480
-3.770077 -1.001395 -10.049718 0.000000000000000e+00 1851878480
-3.733551 -0.743295 -9.952352 0.000000000000000e+00 1851878480
-3.794274 -0.503764 -10.114221 0.000000000000000e+00 1851878480
-3.737565 -0.247054 -9.963054 0.000000000000000e+00 1700951363
-3.782335 0.000000 -10.082395 0.000000000000000e+00 1851878480
-4.153668 0.274558 -11.072240 0.000000000000000e+00 1851878480
-3.791082 -0.998949 -10.013778 0.000000000000000e+00 1851878480
-3.764852 -0.743553 -9.944493 0.000000000000000e+00 1851878480
-3.828937 -0.504315 -10.113767 0.000000000000000e+00 1851878480
-3.767809 -0.247068 -9.952305 0.000000000000000e+00 1700951363
-3.815303 0.000000 -10.077756 0.000000000000000e+00 1851878480
-4.196388 0.275171 -11.084353 0.000000000000000e+00 1851878480
-3.822492 -0.999269 -10.005506 0.000000000000000e+00 1851878480
-3.794518 -0.743492 -9.932285 0.000000000000000e+00 1851878480
-3.870271 -0.505732 -10.130569 0.000000000000000e+00 1851878480
-3.794036 -0.246822 -9.931024 0.000000000000000e+00 1700951363
-3.835028 0.000000 -10.038320 0.000000000000000e+00 1851878480
-4.243165 0.276041 -11.106633 0.000000000000000e+00 1851878480
-3.843982 -0.997021 -9.971443 0.000000000000000e+00 1851878480
-3.819739 -0.742575 -9.908558 0.000000000000000e+00 1851878480
-3.899515 -0.505565 -10.115499 0.000000000000000e+00 1851878480
-3.817464 -0.246402 -9.902657 0.000000000000000e+00 1700951363
-3.876983 0.000000 -10.057051 0.000000000000000e+00 1851878480
-4.295871 0.277282 -11.143661 0.000000000000000e+00 1851878480
-3.882013 -0.999073 -9.980308 0.000000000000000e+00 1851878480
-3.851133 -0.742870 -9.900918 0.000000000000000e+00 1851878480
-3.930876 -0.505677 -10.105929 0.000000000000000e+00 1851878480
-3.856999 -0.247023 -9.915998 0.000000000000000e+00 1700951363
-3.900935 0.000000 -10.028955 0.000000000000000e+00 1851878480
-4.346759 0.278390 -11.175127 0.000000000000000e+00 1851878480
-3.911895 -0.999022 -9.968049 0.000000000000000e+00 1851878480
-3.880385 -0.742757 -9.887758 0.000000000000000e+00 1851878480
