# .PCD v0.7 - Point Cloud Data file format
VERSION 0.7
FIELDS x y z rgb label
SIZE 4 4 4 4 4
TYPE F F F F U
COUNT 1 1 1 1 1
WIDTH 776
HEIGHT 1
VIEWPOINT 0 0 0 1 0 0 0
POINTS 776
DATA ascii
-9.070574 -0.211650 0.910354 0.000000000000000e+00 1701537140
-8.999529 0.000000 0.903224 0.000000000000000e+00 1701537140
-9.003766 0.210091 0.903649 0.000000000000000e+00 1701537140
-9.058736 0.424568 0.909166 0.000000000000000e+00 1701537140
-8.989847 0.631789 0.902252 0.000000000000000e+00 1851878480
-9.058115 0.849325 0.909104 0.000000000000000e+00 1851878480
-9.195418 1.080735 0.922884 0.000000000000000e+00 1851878480
-10.402988 1.469390 1.044080 0.000000000000000e+00 1634431585
-9.377672 -0.439651 0.969753 0.000000000000000e+00 1701537140
-9.036667 -0.210924 0.934489 0.000000000000000e+00 1701537140
-8.996332 0.000000 0.930318 0.000000000000000e+00 1701537140
-9.001222 0.210096 0.930823 0.000000000000000e+00 1701537140
-9.046022 0.424102 0.935456 0.000000000000000e+00 1701537140
-8.995700 0.632395 0.930252 0.000000000000000e+00 1851878480
-9.064052 0.850143 0.937321 0.000000000000000e+00 1851878480
-9.203310 1.081995 0.951722 0.000000000000000e+00 1851878480
-10.368355 1.464948 1.072200 0.000000000000000e+00 1634431585
-9.326735 -0.437401 0.992920 0.000000000000000e+00 1701537140
-9.033798 -0.210923 0.961734 0.000000000000000e+00 1701537140
-9.004432 0.000000 0.958607 0.000000000000000e+00 1701537140
-9.013307 0.210445 0.959552 0.000000000000000e+00 1701537140
-9.043813 0.424133 0.962800 0.000000000000000e+00 1701537140
-9.318915 0.655324 0.992087 0.000000000000000e+00 1701537140
-9.070103 0.850980 0.965599 0.000000000000000e+00 1851878480
-9.211575 1.083309 0.980660 0.000000000000000e+00 1851878480
-10.339078 1.461274 1.100693 0.000000000000000e+00 1634431585
-9.280173 -0.435359 1.016278 0.000000000000000e+00 1701537140
-9.031980 -0.210950 0.989098 0.000000000000000e+00 1701537140
-9.418221 0.000000 1.031396 0.000000000000000e+00 1701537140
-9.082644 0.212133 0.994646 0.000000000000000e+00 1701537140
-9.041904 0.424182 0.990185 0.000000000000000e+00 1701537140
-9.264203 0.651689 1.014529 0.000000000000000e+00 1701537140
-9.076445 0.851852 0.993968 0.000000000000000e+00 1851878480
-9.220218 1.084679 1.009712 0.000000000000000e+00 1851878480
-10.319817 1.459027 1.130130 0.000000000000000e+00 1634431585
-9.239527 -0.433598 1.040037 0.000000000000000e+00 1701537140
-9.031608 -0.211012 1.016633 0.000000000000000e+00 1701537140
-9.432899 0.000000 1.061803 0.000000000000000e+00 1701537140
-9.084230 0.212241 1.022556 0.000000000000000e+00 1701537140
-9.049080 0.424660 1.018599 0.000000000000000e+00 1701537140
-9.220937 0.648863 1.037944 0.000000000000000e+00 1701537140
-9.082956 0.852749 1.022413 0.000000000000000e+00 1851878480
-9.229200 1.086099 1.038875 0.000000000000000e+00 1851878480
-10.006712 1.415233 1.126394 0.000000000000000e+00 1851878480
-9.204673 -0.432111 1.064236 0.000000000000000e+00 1701537140
-9.041443 -0.211314 1.045364 0.000000000000000e+00 1701537140
-9.447643 0.000000 1.092328 0.000000000000000e+00 1701537140
-9.084720 0.212325 1.050367 0.000000000000000e+00 1701537140
-9.074596 0.426004 1.049197 0.000000000000000e+00 1701537140
-9.181921 0.646340 1.061606 0.000000000000000e+00 1701537140
-9.089725 0.853678 1.050946 0.000000000000000e+00 1851878480
-9.238551 1.087574 1.068153 0.000000000000000e+00 1851878480
-9.989553 1.413293 1.154983 0.000000000000000e+00 1851878480
-9.173150 -0.430783 1.088637 0.000000000000000e+00 1701537140
-9.108984 -0.212968 1.081022 0.000000000000000e+00 1701537140
-9.462464 0.000000 1.122972 0.000000000000000e+00 1701537140
-9.087426 0.212464 1.078464 0.000000000000000e+00 1701537140
-9.781328 0.459344 1.160814 0.000000000000000e+00 1701537140
-9.144430 0.643928 1.085229 0.000000000000000e+00 1701537140
-9.096688 0.854634 1.079563 0.000000000000000e+00 1851878480
-9.248435 1.089122 1.097572 0.000000000000000e+00 1851878480
-9.976065 1.411883 1.183925 0.000000000000000e+00 1851878480
-9.142871 -0.429517 1.113017 0.000000000000000e+00 1701537140
-9.119924 -0.213301 1.110224 0.000000000000000e+00 1701537140
-9.477371 0.000000 1.153738 0.000000000000000e+00 1701537140
-9.090908 0.212622 1.106691 0.000000000000000e+00 1701537140
-9.797461 0.460268 1.192704 0.000000000000000e+00 1701537140
-9.144670 0.644178 1.113236 0.000000000000000e+00 1701537140
-9.103915 0.855623 1.108275 0.000000000000000e+00 1851878480
-9.258750 1.090732 1.127124 0.000000000000000e+00 1851878480
-9.965041 1.410835 1.213105 0.000000000000000e+00 1851878480
-9.127059 -0.428933 1.139038 0.000000000000000e+00 1701537140
-9.217045 -0.215653 1.150268 0.000000000000000e+00 1701537140
-9.492375 0.000000 1.184629 0.000000000000000e+00 1701537140
-9.107745 0.213095 1.136628 0.000000000000000e+00 1701537140
-9.812661 0.461154 1.224600 0.000000000000000e+00 1701537140
-9.148047 0.644656 1.141657 0.000000000000000e+00 1701537140
-9.111987 0.856700 1.137157 0.000000000000000e+00 1851878480
-9.269414 1.092394 1.156803 0.000000000000000e+00 1851878480
-9.955453 1.410001 1.242420 0.000000000000000e+00 1851878480
-9.132129 -0.429335 1.167648 0.000000000000000e+00 1701537140
-9.180864 -0.214888 1.173880 0.000000000000000e+00 1701537140
-9.507507 0.000000 1.215645 0.000000000000000e+00 1701537140
-9.515969 0.222731 1.216727 0.000000000000000e+00 1701537140
-9.529737 0.448028 1.218487 0.000000000000000e+00 1701537140
-9.151277 0.645129 1.170097 0.000000000000000e+00 1701537140
-9.121572 0.857928 1.166298 0.000000000000000e+00 1851878480
-9.280462 1.094113 1.186614 0.000000000000000e+00 1851878480
-9.947243 1.409375 1.271870 0.000000000000000e+00 1851878480
-9.136419 -0.429705 1.196213 0.000000000000000e+00 1701537140
-9.156976 -0.214412 1.198905 0.000000000000000e+00 1701537140
-9.488174 0.000000 1.242268 0.000000000000000e+00 1701537140
-9.531415 0.223180 1.247930 0.000000000000000e+00 1701537140
-9.545560 0.448947 1.249781 0.000000000000000e+00 1701537140
-9.156532 0.645752 1.198847 0.000000000000000e+00 1701537140
-9.131908 0.859236 1.195623 0.000000000000000e+00 1851878480
-9.291964 1.095897 1.216579 0.000000000000000e+00 1851878480
-9.940123 1.408916 1.301441 0.000000000000000e+00 1851878480
-9.142024 -0.430140 1.225003 0.000000000000000e+00 1701537140
-9.148157 -0.214292 1.225825 0.000000000000000e+00 1701537140
-9.445937 0.000000 1.265727 0.000000000000000e+00 1701537140
-9.502417 0.222590 1.273295 0.000000000000000e+00 1701537140
-9.561544 0.449879 1.281218 0.000000000000000e+00 1701537140
-9.165204 0.646622 1.228110 0.000000000000000e+00 1701537140
-9.142758 0.860600 1.225102 0.000000000000000e+00 1851878480
-9.303920 1.097745 1.246697 0.000000000000000e+00 1851878480
-9.934443 1.408674 1.331185 0.000000000000000e+00 1851878480
-9.148602 -0.430625 1.253984 0.000000000000000e+00 1701537140
-9.150812 -0.214441 1.254287 0.000000000000000e+00 1701537140
-9.294440 0.000000 1.273974 0.000000000000000e+00 1701537140
-9.447844 0.221402 1.295001 0.000000000000000e+00 1701537140
-9.258076 0.435778 1.268989 0.000000000000000e+00 1701537140
-9.178557 0.647828 1.258090 0.000000000000000e+00 1701537140
-9.154154 0.862025 1.254745 0.000000000000000e+00 1851878480
-9.316374 1.099664 1.276980 0.000000000000000e+00 1851878480
-9.930348 1.408669 1.361137 0.000000000000000e+00 1851878480
-9.158128 -0.431254 1.283441 0.000000000000000e+00 1701537140
-9.568492 -0.224323 1.340950 0.000000000000000e+00 1701537140
-9.249222 0.000000 1.296207 0.000000000000000e+00 1701537140
-9.351943 0.219246 1.310603 0.000000000000000e+00 1701537140
-9.219798 0.434158 1.292084 0.000000000000000e+00 1701537140
-9.195001 0.649260 1.288609 0.000000000000000e+00 1701537140
-9.166130 0.863514 1.284563 0.000000000000000e+00 1851878480
-9.328952 1.101609 1.307381 0.000000000000000e+00 1851878480
-9.927353 1.408833 1.391242 0.000000000000000e+00 1851878480
-9.170791 -0.432035 1.313430 0.000000000000000e+00 1701537140
-9.584841 -0.224802 1.372730 0.000000000000000e+00 1701537140
-9.241515 0.000000 1.323559 0.000000000000000e+00 1701537140
-9.301386 0.218154 1.332134 0.000000000000000e+00 1701537140
-9.207236 0.433752 1.318650 0.000000000000000e+00 1701537140
-9.212637 0.650784 1.319423 0.000000000000000e+00 1701537140
-9.178621 0.865060 1.314551 0.000000000000000e+00 1851878480
-9.342432 1.103672 1.338012 0.000000000000000e+00 1851878480
-9.926085 1.409255 1.421602 0.000000000000000e+00 1851878480
-9.185801 -0.432931 1.343865 0.000000000000000e+00 1701537140
-9.601360 -0.225288 1.404660 0.000000000000000e+00 1701537140
-9.255227 0.000000 1.354022 0.000000000000000e+00 1701537140
-9.263539 0.217361 1.355238 0.000000000000000e+00 1701537140
-9.266566 0.436738 1.355681 0.000000000000000e+00 1701537140
-9.230523 0.652332 1.350407 0.000000000000000e+00 1701537140
-9.191548 0.866657 1.344705 0.000000000000000e+00 1851878480
-9.358915 1.106103 1.369191 0.000000000000000e+00 1851878480
-9.926449 1.409922 1.452220 0.000000000000000e+00 1851878480
-9.201832 -0.433880 1.374565 0.000000000000000e+00 1701537140
-9.618042 -0.225780 1.436738 0.000000000000000e+00 1701537140
-9.284196 0.000000 1.386868 0.000000000000000e+00 1701537140
-9.292034 0.218127 1.388039 0.000000000000000e+00 1701537140
-9.249331 0.436120 1.381660 0.000000000000000e+00 1701537140
-9.248063 0.653863 1.381471 0.000000000000000e+00 1701537140
-9.205124 0.868324 1.375057 0.000000000000000e+00 1851878480
-9.376470 1.108671 1.400652 0.000000000000000e+00 1851878480
-9.928234 1.410804 1.483074 0.000000000000000e+00 1851878480
-9.218422 -0.434860 1.405479 0.000000000000000e+00 1701537140
-9.876041 -0.231942 1.505742 0.000000000000000e+00 1701537140
-9.271873 0.000000 1.413628 0.000000000000000e+00 1701537140
-9.278229 0.217902 1.414597 0.000000000000000e+00 1701537140
-9.827240 0.463580 1.498302 0.000000000000000e+00 1701537140
-9.265059 0.655363 1.412589 0.000000000000000e+00 1701537140
-9.219182 0.870046 1.405595 0.000000000000000e+00 1851878480
-9.394312 1.111287 1.432296 0.000000000000000e+00 1851878480
-9.931184 1.411866 1.514150 0.000000000000000e+00 1851878480
-9.234549 -0.435823 1.436450 0.000000000000000e+00 1701537140
-9.848274 -0.231398 1.531916 0.000000000000000e+00 1701537140
-9.290278 0.000000 1.445119 0.000000000000000e+00 1701537140
-9.301130 0.218542 1.446807 0.000000000000000e+00 1701537140
-9.803139 0.462658 1.524895 0.000000000000000e+00 1701537140
-9.280050 0.656728 1.443528 0.000000000000000e+00 1701537140
-9.235098 0.871953 1.436535 0.000000000000000e+00 1851878480
-9.413173 1.114035 1.464235 0.000000000000000e+00 1851878480
-9.935271 1.413103 1.545448 0.000000000000000e+00 1851878480
-9.250338 -0.436775 1.467493 0.000000000000000e+00 1701537140
-9.370717 -0.220281 1.486591 0.000000000000000e+00 1701537140
-9.310692 0.000000 1.477068 0.000000000000000e+00 1701537140
-9.328810 0.219296 1.479942 0.000000000000000e+00 1701537140
-9.778484 0.461713 1.551279 0.000000000000000e+00 1701537140
-9.294436 0.658058 1.474489 0.000000000000000e+00 1701537140
-9.253499 0.874104 1.467995 0.000000000000000e+00 1851878480
-9.433267 1.116943 1.496514 0.000000000000000e+00 1851878480
-9.941008 1.414589 1.577063 0.000000000000000e+00 1851878480
-11.672457 1.941696 1.851743 0.000000000000000e+00 1851878480
-9.265548 -0.437705 1.498568 0.000000000000000e+00 1701537140
-9.328087 -0.219385 1.508683 0.000000000000000e+00 1701537140
-9.691133 0.000000 1.567400 0.000000000000000e+00 1701537140
-9.375125 0.220491 1.516291 0.000000000000000e+00 1701537140
-9.752707 0.460718 1.577359 0.000000000000000e+00 1701537140
-9.308571 0.659377 1.505527 0.000000000000000e+00 1701537140
-9.272467 0.876319 1.499687 0.000000000000000e+00 1851878480
-9.454486 1.119996 1.529126 0.000000000000000e+00 1851878480
-9.947984 1.416266 1.608942 0.000000000000000e+00 1851878480
-11.615973 1.933234 1.878715 0.000000000000000e+00 1851878480
-9.280597 -0.438632 1.529739 0.000000000000000e+00 1701537140
-9.301681 -0.218872 1.533214 0.000000000000000e+00 1701537140
-9.708829 0.000000 1.600325 0.000000000000000e+00 1701537140
-9.354568 0.220116 1.541931 0.000000000000000e+00 1701537140
-9.725999 0.459683 1.603155 0.000000000000000e+00 1701537140
-9.322468 0.660687 1.536640 0.000000000000000e+00 1701537140
-9.292296 0.878626 1.531667 0.000000000000000e+00 1851878480
-9.476560 1.123164 1.562040 0.000000000000000e+00 1851878480
-9.956776 1.418216 1.641194 0.000000000000000e+00 1851878480
-11.558471 1.924611 1.905205 0.000000000000000e+00 1851878480
-9.296117 -0.439586 1.561110 0.000000000000000e+00 1701537140
-9.314580 -0.219285 1.564210 0.000000000000000e+00 1701537140
-9.880860 0.000000 1.659307 0.000000000000000e+00 1701537140
-9.867325 0.232298 1.657034 0.000000000000000e+00 1701537140
-9.431226 0.445975 1.583799 0.000000000000000e+00 1701537140
-9.337251 0.662067 1.568018 0.000000000000000e+00 1701537140
-9.313121 0.881037 1.563966 0.000000000000000e+00 1851878480
-9.499106 1.126401 1.595199 0.000000000000000e+00 1851878480
-9.967369 1.420437 1.673834 0.000000000000000e+00 1851878480
-11.500542 1.915927 1.931302 0.000000000000000e+00 1851878480
-9.314122 -0.440662 1.593027 0.000000000000000e+00 1701537140
-9.344114 -0.220093 1.598157 0.000000000000000e+00 1701537140
-9.848062 0.000000 1.684349 0.000000000000000e+00 1701537140
-9.835667 0.231671 1.682229 0.000000000000000e+00 1701537140
-9.388103 0.444163 1.605681 0.000000000000000e+00 1701537140
-9.354140 0.663603 1.599872 0.000000000000000e+00 1701537140
-9.334870 0.883546 1.596576 0.000000000000000e+00 1851878480
-9.521850 1.129675 1.628556 0.000000000000000e+00 1851878480
-9.979573 1.422904 1.706842 0.000000000000000e+00 1851878480
-11.444963 1.907642 1.957473 0.000000000000000e+00 1851878480
-9.337734 -0.442010 1.626067 0.000000000000000e+00 1701537140
-9.338933 -0.220085 1.626276 0.000000000000000e+00 1701537140
-9.815236 0.000000 1.709219 0.000000000000000e+00 1701537140
-9.804025 0.231046 1.707267 0.000000000000000e+00 1701537140
-9.378974 0.443962 1.633249 0.000000000000000e+00 1701537140
-9.378373 0.665669 1.633144 0.000000000000000e+00 1701537140
-9.357430 0.886142 1.629497 0.000000000000000e+00 1851878480
-9.544743 1.132981 1.662116 0.000000000000000e+00 1851878480
-9.993690 1.425658 1.740295 0.000000000000000e+00 1851878480
-11.391461 1.899713 1.983702 0.000000000000000e+00 1851878480
-9.369353 -0.443741 1.660704 0.000000000000000e+00 1701537140
-9.635367 -0.227192 1.707854 0.000000000000000e+00 1701537140
-9.476616 0.000000 1.679716 0.000000000000000e+00 1701537140
-9.772331 0.230421 1.732131 0.000000000000000e+00 1701537140
-9.415003 0.445903 1.668795 0.000000000000000e+00 1701537140
-9.414131 0.668561 1.668640 0.000000000000000e+00 1701537140
-9.381078 0.888853 1.662782 0.000000000000000e+00 1851878480
-9.567411 1.136274 1.695809 0.000000000000000e+00 1851878480
-10.009316 1.428644 1.774136 0.000000000000000e+00 1851878480
-11.339993 1.892132 2.009996 0.000000000000000e+00 1851878480
-9.404659 -0.445654 1.696233 0.000000000000000e+00 1701537140
-9.551340 -0.225332 1.722688 0.000000000000000e+00 1701537140
-9.439961 0.000000 1.702600 0.000000000000000e+00 1701537140
-9.740609 0.229797 1.756825 0.000000000000000e+00 1701537140
-9.488336 0.449619 1.711325 0.000000000000000e+00 1701537140
-9.452928 0.671678 1.704938 0.000000000000000e+00 1701537140
-9.407140 0.891803 1.696680 0.000000000000000e+00 1851878480
-9.590108 1.139583 1.729680 0.000000000000000e+00 1851878480
-10.026220 1.431829 1.808338 0.000000000000000e+00 1851878480
-11.180993 1.866609 2.016614 0.000000000000000e+00 1634431585
-9.507630 -0.224424 1.744429 0.000000000000000e+00 1701537140
-9.419112 0.000000 1.728188 0.000000000000000e+00 1701537140
-9.708368 0.229162 1.781260 0.000000000000000e+00 1701537140
-9.477078 0.449332 1.738823 0.000000000000000e+00 1701537140
-9.680879 0.688253 1.776216 0.000000000000000e+00 1851878480
-9.434576 0.894895 1.731025 0.000000000000000e+00 1851878480
-9.612581 1.142881 1.763685 0.000000000000000e+00 1851878480
-10.044662 1.435250 1.842961 0.000000000000000e+00 1851878480
-10.997797 1.837033 2.017839 0.000000000000000e+00 1634431585
-9.466438 -0.223576 1.766399 0.000000000000000e+00 1701537140
-9.416517 0.000000 1.757084 0.000000000000000e+00 1701537140
-9.675976 0.228525 1.805498 0.000000000000000e+00 1701537140
-9.482216 0.449826 1.769343 0.000000000000000e+00 1701537140
-9.644843 0.686074 1.799689 0.000000000000000e+00 1851878480
-9.462463 0.898041 1.765658 0.000000000000000e+00 1851878480
-9.635209 1.146211 1.797891 0.000000000000000e+00 1851878480
-10.066234 1.439135 1.878319 0.000000000000000e+00 1851878480
-10.906625 1.822821 2.035132 0.000000000000000e+00 1634431585
-9.473676 -0.223874 1.797334 0.000000000000000e+00 1701537140
-9.436378 0.000000 1.790258 0.000000000000000e+00 1701537140
-9.597726 0.226806 1.820868 0.000000000000000e+00 1701537140
-9.476979 0.449833 1.797961 0.000000000000000e+00 1701537140
-9.609096 0.683919 1.823026 0.000000000000000e+00 1851878480
-9.489889 0.901155 1.800410 0.000000000000000e+00 1851878480
-9.657568 1.149523 1.832222 0.000000000000000e+00 1851878480
-10.078749 1.441742 1.912128 0.000000000000000e+00 1851878480
-10.842193 1.813081 2.056967 0.000000000000000e+00 1634431585
-9.444016 -0.223302 1.821232 0.000000000000000e+00 1701537140
-9.480193 0.000000 1.828209 0.000000000000000e+00 1701537140
-9.555928 0.225948 1.842814 0.000000000000000e+00 1701537140
-9.465972 0.449570 1.825466 0.000000000000000e+00 1701537140
-9.573398 0.681771 1.846183 0.000000000000000e+00 1851878480
-9.516720 0.904224 1.835253 0.000000000000000e+00 1851878480
-9.680552 1.152923 1.866847 0.000000000000000e+00 1851878480
-10.094625 1.444847 1.946699 0.000000000000000e+00 1851878480
-10.499023 1.756708 2.024685 0.000000000000000e+00 1851878480
-9.452177 -0.223626 1.852386 0.000000000000000e+00 1701537140
-9.520482 0.000000 1.865773 0.000000000000000e+00 1701537140
-9.524124 0.225328 1.866486 0.000000000000000e+00 1701537140
-9.477613 0.450387 1.857371 0.000000000000000e+00 1701537140
-9.539139 0.679730 1.869429 0.000000000000000e+00 1851878480
-9.541902 0.907149 1.869970 0.000000000000000e+00 1851878480
-9.704939 1.156506 1.901921 0.000000000000000e+00 1851878480
-10.110950 1.448032 1.981489 0.000000000000000e+00 1851878480
-10.506460 1.758983 2.058999 0.000000000000000e+00 1851878480
-9.488266 -0.224614 1.889192 0.000000000000000e+00 1701537140
-9.732263 0.000000 1.937774 0.000000000000000e+00 1701537140
-9.518557 0.225331 1.895223 0.000000000000000e+00 1701537140
-9.532895 0.453284 1.898078 0.000000000000000e+00 1701537140
-9.507130 0.677853 1.892948 0.000000000000000e+00 1851878480
-9.565804 0.909963 1.904631 0.000000000000000e+00 1851878480
-9.730938 1.160295 1.937510 0.000000000000000e+00 1851878480
-10.127863 1.451319 2.016541 0.000000000000000e+00 1851878480
-10.514929 1.761450 2.093609 0.000000000000000e+00 1851878480
-9.499822 0.000000 1.921298 0.000000000000000e+00 1701537140
-9.506563 0.225183 1.922662 0.000000000000000e+00 1701537140
-9.704202 0.461709 1.962633 0.000000000000000e+00 1851878480
-9.494722 0.677378 1.920267 0.000000000000000e+00 1851878480
-9.588775 0.912700 1.939288 0.000000000000000e+00 1851878480
-9.756774 1.164080 1.973266 0.000000000000000e+00 1851878480
-10.145195 1.454682 2.051822 0.000000000000000e+00 1851878480
-10.523979 1.764033 2.128430 0.000000000000000e+00 1851878480
-9.512487 0.000000 1.953742 0.000000000000000e+00 1701537140
-9.524308 0.225742 1.956169 0.000000000000000e+00 1701537140
-9.664845 0.460119 1.985034 0.000000000000000e+00 1851878480
-9.526793 0.680084 1.956679 0.000000000000000e+00 1851878480
-9.611266 0.915404 1.974029 0.000000000000000e+00 1851878480
-9.782597 1.167878 2.009218 0.000000000000000e+00 1851878480
-10.163198 1.458160 2.087389 0.000000000000000e+00 1851878480
-10.533275 1.766677 2.163398 0.000000000000000e+00 1851878480
-9.792866 0.000000 2.042128 0.000000000000000e+00 1851878480
-9.752651 0.231299 2.033742 0.000000000000000e+00 1851878480
-9.626617 0.458585 2.007459 0.000000000000000e+00 1851878480
-9.555506 0.682560 1.992630 0.000000000000000e+00 1851878480
-9.633614 0.918105 2.008919 0.000000000000000e+00 1851878480
-9.808643 1.171719 2.045418 0.000000000000000e+00 1851878480
-10.181817 1.461743 2.123237 0.000000000000000e+00 1851878480
-10.542504 1.769329 2.198452 0.000000000000000e+00 1851878480
-9.751058 0.000000 2.064117 0.000000000000000e+00 1851878480
-9.711690 0.230473 2.055784 0.000000000000000e+00 1851878480
-9.589433 0.457103 2.029904 0.000000000000000e+00 1851878480
-9.579191 0.684685 2.027736 0.000000000000000e+00 1851878480
-9.655882 0.920811 2.043970 0.000000000000000e+00 1851878480
-9.830477 1.175072 2.080929 0.000000000000000e+00 1851878480
-10.201111 1.465441 2.159385 0.000000000000000e+00 1851878480
-10.551544 1.771969 2.233565 0.000000000000000e+00 1851878480
-9.710736 0.000000 2.086201 0.000000000000000e+00 1851878480
-9.671881 0.229676 2.077854 0.000000000000000e+00 1851878480
-9.560307 0.456008 2.053884 0.000000000000000e+00 1851878480
-9.602181 0.686770 2.062880 0.000000000000000e+00 1851878480
-9.678078 0.923521 2.079185 0.000000000000000e+00 1851878480
-9.847624 1.177879 2.115609 0.000000000000000e+00 1851878480
-10.221264 1.469281 2.195880 0.000000000000000e+00 1851878480
-10.560431 1.774602 2.268745 0.000000000000000e+00 1851878480
-9.672471 0.000000 2.108514 0.000000000000000e+00 1851878480
-9.633557 0.228915 2.100031 0.000000000000000e+00 1851878480
-9.589581 0.457703 2.090445 0.000000000000000e+00 1851878480
-9.624945 0.688848 2.098154 0.000000000000000e+00 1851878480
-9.700571 0.926272 2.114640 0.000000000000000e+00 1851878480
-9.867635 1.181043 2.151058 0.000000000000000e+00 1851878480
-10.242133 1.473242 2.232695 0.000000000000000e+00 1851878480
-10.569111 1.777220 2.303974 0.000000000000000e+00 1851878480
-9.655361 0.000000 2.135309 0.000000000000000e+00 1851878480
-9.605284 0.228395 2.124234 0.000000000000000e+00 1851878480
-9.622402 0.459574 2.128020 0.000000000000000e+00 1851878480
-9.647458 0.690916 2.133561 0.000000000000000e+00 1851878480
-9.723044 0.929033 2.150277 0.000000000000000e+00 1851878480
-9.887798 1.184240 2.186713 0.000000000000000e+00 1851878480
-10.263576 1.477305 2.269817 0.000000000000000e+00 1851878480
-10.577628 1.779831 2.339270 0.000000000000000e+00 1851878480
-9.693969 0.000000 2.174534 0.000000000000000e+00 1851878480
-9.642390 0.229431 2.162964 0.000000000000000e+00 1851878480
-9.648657 0.461138 2.164370 0.000000000000000e+00 1851878480
-9.669727 0.692976 2.169096 0.000000000000000e+00 1851878480
-9.745837 0.931836 2.186169 0.000000000000000e+00 1851878480
-9.908198 1.187481 2.222590 0.000000000000000e+00 1851878480
-10.285565 1.481465 2.307240 0.000000000000000e+00 1851878480
-10.585958 1.782429 2.374624 0.000000000000000e+00 1851878480
-9.724227 0.000000 2.212147 0.000000000000000e+00 1851878480
-9.674582 0.230354 2.200853 0.000000000000000e+00 1851878480
-9.673863 0.462657 2.200690 0.000000000000000e+00 1851878480
-9.691708 0.695025 2.204749 0.000000000000000e+00 1851878480
-9.775797 0.935338 2.223878 0.000000000000000e+00 1851878480
-9.928779 1.190758 2.258680 0.000000000000000e+00 1851878480
-10.308076 1.485719 2.344965 0.000000000000000e+00 1851878480
-10.594627 1.785105 2.410153 0.000000000000000e+00 1851878480
-9.750995 0.000000 2.249188 0.000000000000000e+00 1851878480
-9.701530 0.231155 2.237779 0.000000000000000e+00 1851878480
-9.697845 0.464125 2.236928 0.000000000000000e+00 1851878480
-9.713530 0.697071 2.240546 0.000000000000000e+00 1851878480
-9.783178 0.936691 2.256612 0.000000000000000e+00 1851878480
-9.949544 1.194073 2.294986 0.000000000000000e+00 1851878480
-10.331090 1.490065 2.382994 0.000000000000000e+00 1851878480
-10.603575 1.787847 2.445847 0.000000000000000e+00 1851878480
-9.776592 0.000000 2.286169 0.000000000000000e+00 1851878480
-9.727209 0.231929 2.274621 0.000000000000000e+00 1851878480
-9.720724 0.465546 2.273105 0.000000000000000e+00 1851878480
-9.735264 0.699121 2.276505 0.000000000000000e+00 1851878480
-9.800944 0.939050 2.291864 0.000000000000000e+00 1851878480
-9.970495 1.197426 2.331512 0.000000000000000e+00 1851878480
-10.354639 1.494508 2.421340 0.000000000000000e+00 1851878480
-10.614001 1.790859 2.481990 0.000000000000000e+00 1851878480
-9.800986 0.000000 2.323072 0.000000000000000e+00 1851878480
-9.751584 0.232676 2.311362 0.000000000000000e+00 1851878480
-9.742929 0.466941 2.309311 0.000000000000000e+00 1851878480
-9.757065 0.701184 2.312661 0.000000000000000e+00 1851878480
-9.818789 0.941428 2.327291 0.000000000000000e+00 1851878480
-9.991641 1.200818 2.368262 0.000000000000000e+00 1851878480
-10.378714 1.499047 2.460007 0.000000000000000e+00 1851878480
-10.626662 1.794269 2.518777 0.000000000000000e+00 1851878480
-9.824244 0.000000 2.359896 0.000000000000000e+00 1851878480
-9.774787 0.233397 2.348016 0.000000000000000e+00 1851878480
-9.764868 0.468329 2.345634 0.000000000000000e+00 1851878480
-9.780349 0.703363 2.349352 0.000000000000000e+00 1851878480
-9.836733 0.943827 2.362896 0.000000000000000e+00 1851878480
-10.012986 1.204250 2.405235 0.000000000000000e+00 1851878480
-10.403085 1.503648 2.498941 0.000000000000000e+00 1851878480
-10.641956 1.798145 2.556320 0.000000000000000e+00 1851878480
-9.847081 0.000000 2.396818 0.000000000000000e+00 1851878480
-9.797522 0.234111 2.384755 0.000000000000000e+00 1851878480
-9.787006 0.469733 2.382195 0.000000000000000e+00 1851878480
-9.798312 0.705169 2.384947 0.000000000000000e+00 1851878480
-9.854774 0.946248 2.398690 0.000000000000000e+00 1851878480
-10.034550 1.207723 2.442448 0.000000000000000e+00 1851878480
-10.427822 1.508323 2.538172 0.000000000000000e+00 1851878480
-10.660823 1.802647 2.594885 0.000000000000000e+00 1851878480
-9.870238 0.000000 2.434010 0.000000000000000e+00 1851878480
-9.820519 0.234834 2.421749 0.000000000000000e+00 1851878480
-9.809500 0.471161 2.419031 0.000000000000000e+00 1851878480
-9.816868 0.707027 2.420848 0.000000000000000e+00 1851878480
-9.872903 0.948689 2.434667 0.000000000000000e+00 1851878480
-10.056361 1.211243 2.479908 0.000000000000000e+00 1851878480
-10.453115 1.513100 2.577748 0.000000000000000e+00 1851878480
-10.684213 1.807937 2.634737 0.000000000000000e+00 1851878480
-9.893573 0.000000 2.471441 0.000000000000000e+00 1851878480
-9.843987 0.235571 2.459054 0.000000000000000e+00 1851878480
-9.833109 0.472649 2.456337 0.000000000000000e+00 1851878480
-9.835334 0.708887 2.456893 0.000000000000000e+00 1851878480
-9.891119 0.951151 2.470828 0.000000000000000e+00 1851878480
-10.078390 1.214806 2.517609 0.000000000000000e+00 1851878480
-10.478753 1.517947 2.617621 0.000000000000000e+00 1851878480
-10.707095 1.813166 2.674661 0.000000000000000e+00 1851878480
-9.916194 0.000000 2.508889 0.000000000000000e+00 1851878480
-9.867426 0.236311 2.496550 0.000000000000000e+00 1851878480
-9.854515 0.474037 2.493284 0.000000000000000e+00 1851878480
-9.853894 0.710764 2.493127 0.000000000000000e+00 1851878480
-9.909439 0.953636 2.507180 0.000000000000000e+00 1851878480
-10.100624 1.218409 2.555552 0.000000000000000e+00 1851878480
-10.580490 1.533847 2.676962 0.000000000000000e+00 1851878480
-10.731618 1.818697 2.715199 0.000000000000000e+00 1851878480
-9.937653 0.000000 2.546234 0.000000000000000e+00 1851878480
-9.890285 0.237041 2.534097 0.000000000000000e+00 1851878480
-9.872092 0.475247 2.529436 0.000000000000000e+00 1851878480
-9.872555 0.712657 2.529554 0.000000000000000e+00 1851878480
-9.927857 0.956142 2.543724 0.000000000000000e+00 1851878480
-10.123061 1.222054 2.593739 0.000000000000000e+00 1851878480
-10.595755 1.537240 2.714853 0.000000000000000e+00 1851878480
-10.750969 1.823376 2.754622 0.000000000000000e+00 1851878480
-9.958024 0.000000 2.583483 0.000000000000000e+00 1851878480
-9.910673 0.237714 2.571199 0.000000000000000e+00 1851878480
-9.890766 0.476516 2.566034 0.000000000000000e+00 1851878480
-9.891347 0.714569 2.566185 0.000000000000000e+00 1851878480
-9.946368 0.958670 2.580459 0.000000000000000e+00 1851878480
-10.145716 1.225741 2.632177 0.000000000000000e+00 1851878480
-10.610768 1.540615 2.752830 0.000000000000000e+00 1851878480
-10.770502 1.828110 2.794270 0.000000000000000e+00 1851878480
-9.977798 0.000000 2.620752 0.000000000000000e+00 1851878480
-9.928816 0.238337 2.607886 0.000000000000000e+00 1851878480
-9.909792 0.477809 2.602890 0.000000000000000e+00 1851878480
-9.910274 0.716500 2.603016 0.000000000000000e+00 1851878480
-9.964981 0.961221 2.617385 0.000000000000000e+00 1851878480
-10.168475 1.229458 2.670835 0.000000000000000e+00 1851878480
-10.625997 1.544042 2.791007 0.000000000000000e+00 1851878480
-10.790206 1.832897 2.834138 0.000000000000000e+00 1851878480
-9.997334 0.000000 2.658141 0.000000000000000e+00 1851878480
-9.946263 0.238946 2.644562 0.000000000000000e+00 1851878480
-9.928969 0.479115 2.639964 0.000000000000000e+00 1851878480
-9.929305 0.718448 2.640053 0.000000000000000e+00 1851878480
-9.983706 0.963795 2.654517 0.000000000000000e+00 1851878480
-10.191675 1.233246 2.709813 0.000000000000000e+00 1851878480
-10.641503 1.547528 2.829416 0.000000000000000e+00 1851878480
-10.809783 1.837687 2.874159 0.000000000000000e+00 1851878480
-10.017004 0.000000 2.695744 0.000000000000000e+00 1851878480
-9.963853 0.239562 2.681440 0.000000000000000e+00 1851878480
-9.948286 0.480435 2.677251 0.000000000000000e+00 1851878480
-9.948447 0.720414 2.677294 0.000000000000000e+00 1851878480
-10.002530 0.966391 2.691849 0.000000000000000e+00 1851878480
-10.214986 1.237064 2.749024 0.000000000000000e+00 1851878480
-10.656895 1.551017 2.867949 0.000000000000000e+00 1851878480
-10.830889 1.842761 2.914774 0.000000000000000e+00 1851878480
-10.036819 0.000000 2.733566 0.000000000000000e+00 1851878480
-9.981977 0.240194 2.718630 0.000000000000000e+00 1851878480
-9.967723 0.481767 2.714748 0.000000000000000e+00 1851878480
-9.967720 0.722399 2.714747 0.000000000000000e+00 1851878480
-10.021440 0.969009 2.729378 0.000000000000000e+00 1851878480
-10.238571 1.240933 2.788514 0.000000000000000e+00 1851878480
-10.672432 1.554547 2.906678 0.000000000000000e+00 1851878480
-10.852350 1.847921 2.955679 0.000000000000000e+00 1851878480
-10.056784 0.000000 2.771612 0.000000000000000e+00 1851878480
-10.000623 0.240841 2.756134 0.000000000000000e+00 1851878480
-9.987280 0.483111 2.752457 0.000000000000000e+00 1851878480
-9.987091 0.724402 2.752405 0.000000000000000e+00 1851878480
-10.040472 0.971652 2.767116 0.000000000000000e+00 1851878480
-10.262476 1.244859 2.828299 0.000000000000000e+00 1851878480
-10.687997 1.558101 2.945572 0.000000000000000e+00 1851878480
-10.873997 1.853137 2.996833 0.000000000000000e+00 1851878480
-10.076884 0.000000 2.809879 0.000000000000000e+00 1851878480
-10.021208 0.241539 2.794354 0.000000000000000e+00 1851878480
-10.006960 0.484468 2.790380 0.000000000000000e+00 1851878480
-10.006533 0.726419 2.790262 0.000000000000000e+00 1851878480
-10.059628 0.974320 2.805067 0.000000000000000e+00 1851878480
-10.287422 1.248929 2.868586 0.000000000000000e+00 1851878480
-10.699688 1.561110 2.983544 0.000000000000000e+00 1851878480
-10.895889 1.858421 3.038253 0.000000000000000e+00 1851878480
-10.097108 0.000000 2.848367 0.000000000000000e+00 1851878480
-10.045404 0.242327 2.833781 0.000000000000000e+00 1851878480
-10.026780 0.485838 2.828527 0.000000000000000e+00 1851878480
-10.026132 0.728458 2.828344 0.000000000000000e+00 1851878480
-10.078879 0.977011 2.843224 0.000000000000000e+00 1851878480
-10.312366 1.253017 2.909090 0.000000000000000e+00 1851878480
-10.719602 1.565339 3.023970 0.000000000000000e+00 1851878480
-10.917903 1.863752 3.079910 0.000000000000000e+00 1851878480
-10.117456 0.000000 2.887077 0.000000000000000e+00 1851878480
-10.060040 0.242888 2.870693 0.000000000000000e+00 1851878480
-10.046709 0.487221 2.866889 0.000000000000000e+00 1851878480
-10.045883 0.730518 2.866654 0.000000000000000e+00 1851878480
-10.098229 0.979724 2.881591 0.000000000000000e+00 1851878480
-10.335948 1.256957 2.949425 0.000000000000000e+00 1851878480
-10.736279 1.569116 3.063662 0.000000000000000e+00 1851878480
-10.940087 1.869137 3.121820 0.000000000000000e+00 1851878480
-10.137954 0.000000 2.926015 0.000000000000000e+00 1851878480
-10.077681 0.243524 2.908619 0.000000000000000e+00 1851878480
-10.066738 0.488615 2.905461 0.000000000000000e+00 1851878480
-10.065708 0.732593 2.905164 0.000000000000000e+00 1851878480
-10.117698 0.982463 2.920169 0.000000000000000e+00 1851878480
-10.359748 1.260942 2.990030 0.000000000000000e+00 1851878480
-10.753632 1.573013 3.103712 0.000000000000000e+00 1851878480
-10.962337 1.874560 3.163949 0.000000000000000e+00 1851878480
-10.158629 0.000000 2.965203 0.000000000000000e+00 1851878480
-10.096712 0.244198 2.947129 0.000000000000000e+00 1851878480
-10.086908 0.490023 2.944268 0.000000000000000e+00 1851878480
-10.085616 0.734685 2.943890 0.000000000000000e+00 1851878480
-10.137276 0.985226 2.958970 0.000000000000000e+00 1851878480
-10.383618 1.264954 3.030874 0.000000000000000e+00 1851878480
-10.771746 1.577043 3.144165 0.000000000000000e+00 1851878480
-10.984706 1.880031 3.206326 0.000000000000000e+00 1851878480
-10.179460 0.000000 3.004629 0.000000000000000e+00 1851878480
-10.116452 0.244892 2.986031 0.000000000000000e+00 1851878480
-10.107220 0.491444 2.983306 0.000000000000000e+00 1851878480
-10.105680 0.736798 2.982852 0.000000000000000e+00 1851878480
-10.156953 0.988013 2.997986 0.000000000000000e+00 1851878480
-10.407159 1.268945 3.071838 0.000000000000000e+00 1851878480
-10.790479 1.581185 3.184981 0.000000000000000e+00 1851878480
-11.007070 1.885527 3.248911 0.000000000000000e+00 1851878480
-10.200424 0.000000 3.044292 0.000000000000000e+00 1851878480
-10.136413 0.245595 3.025188 0.000000000000000e+00 1851878480
-10.127633 0.492878 3.022568 0.000000000000000e+00 1851878480
-10.125892 0.738933 3.022048 0.000000000000000e+00 1851878480
-10.176745 0.990825 3.037225 0.000000000000000e+00 1851878480
-10.430267 1.272902 3.112888 0.000000000000000e+00 1851878480
-10.809432 1.585381 3.226048 0.000000000000000e+00 1851878480
-11.029531 1.891066 3.291737 0.000000000000000e+00 1851878480
-10.221562 0.000000 3.084204 0.000000000000000e+00 1851878480
-10.156538 0.246305 3.064584 0.000000000000000e+00 1851878480
-10.148159 0.494324 3.062056 0.000000000000000e+00 1851878480
-10.146173 0.741084 3.061457 0.000000000000000e+00 1851878480
-10.205766 0.994550 3.079438 0.000000000000000e+00 1851878480
-10.453170 1.276852 3.154089 0.000000000000000e+00 1851878480
-10.828875 1.589670 3.267452 0.000000000000000e+00 1851878480
-11.052206 1.896670 3.334839 0.000000000000000e+00 1851878480
-10.242837 0.000000 3.124360 0.000000000000000e+00 1851878480
-10.176863 0.247024 3.104236 0.000000000000000e+00 1851878480
-10.168824 0.495784 3.101784 0.000000000000000e+00 1851878480
-10.166581 0.743254 3.101099 0.000000000000000e+00 1851878480
-10.225437 0.997379 3.119052 0.000000000000000e+00 1851878480
-10.476021 1.280814 3.195487 0.000000000000000e+00 1851878480
-10.848700 1.594038 3.309165 0.000000000000000e+00 1851878480
-11.074949 1.902313 3.378178 0.000000000000000e+00 1851878480
-10.264227 0.000000 3.164752 0.000000000000000e+00 1851878480
-10.197389 0.247751 3.144145 0.000000000000000e+00 1851878480
-10.189616 0.497257 3.141748 0.000000000000000e+00 1851878480
-10.187154 0.745447 3.140989 0.000000000000000e+00 1851878480
-10.245411 1.000252 3.158951 0.000000000000000e+00 1851878480
-10.498895 1.284799 3.237107 0.000000000000000e+00 1851878480
-10.868570 1.598436 3.351089 0.000000000000000e+00 1851878480
-11.098038 1.908042 3.421840 0.000000000000000e+00 1851878480
-10.285789 0.000000 3.205398 0.000000000000000e+00 1851878480
-10.218065 0.248486 3.184293 0.000000000000000e+00 1851878480
-10.210519 0.498743 3.181942 0.000000000000000e+00 1851878480
-10.207809 0.747657 3.181097 0.000000000000000e+00 1851878480
-10.265585 1.003159 3.199102 0.000000000000000e+00 1851878480
-10.521890 1.288817 3.278975 0.000000000000000e+00 1851878480
-10.888808 1.602910 3.393320 0.000000000000000e+00 1851878480
-11.121449 1.913856 3.465818 0.000000000000000e+00 1851878480
-10.307556 0.000000 3.246320 0.000000000000000e+00 1851878480
-10.238896 0.249228 3.224696 0.000000000000000e+00 1851878480
-10.231546 0.500243 3.222381 0.000000000000000e+00 1851878480
-10.388508 0.761611 3.271816 0.000000000000000e+00 1851878480
-10.285622 1.006067 3.239412 0.000000000000000e+00 1851878480
-10.545214 1.292895 3.321170 0.000000000000000e+00 1851878480
-10.909389 1.607458 3.435865 0.000000000000000e+00 1851878480
-11.145252 1.919765 3.510149 0.000000000000000e+00 1851878480
-10.329469 0.000000 3.287498 0.000000000000000e+00 1851878480
-10.259870 0.249977 3.265347 0.000000000000000e+00 1851878480
-10.252715 0.501757 3.263071 0.000000000000000e+00 1851878480
-10.404937 0.763544 3.311517 0.000000000000000e+00 1851878480
-10.305178 1.008943 3.279768 0.000000000000000e+00 1851878480
-10.569093 1.297060 3.363762 0.000000000000000e+00 1851878480
-10.930150 1.612055 3.478673 0.000000000000000e+00 1851878480
-11.169402 1.925763 3.554819 0.000000000000000e+00 1851878480
-10.351543 0.000000 3.328939 0.000000000000000e+00 1851878480
-10.280972 0.250733 3.306245 0.000000000000000e+00 1851878480
-10.273987 0.503283 3.303998 0.000000000000000e+00 1851878480
-10.423312 0.765631 3.352019 0.000000000000000e+00 1851878480
-10.324587 1.011819 3.320271 0.000000000000000e+00 1851878480
-10.593655 1.301330 3.406800 0.000000000000000e+00 1851878480
-10.951359 1.616742 3.521833 0.000000000000000e+00 1851878480
-11.194012 1.931869 3.599868 0.000000000000000e+00 1851878480
-10.372845 0.000000 3.370343 0.000000000000000e+00 1851878480
-10.302217 0.251496 3.347395 0.000000000000000e+00 1851878480
-10.464434 0.513112 3.400102 0.000000000000000e+00 1851878480
-10.442779 0.767809 3.393066 0.000000000000000e+00 1851878480
-10.344479 1.014757 3.361126 0.000000000000000e+00 1851878480
-10.618937 1.305708 3.450303 0.000000000000000e+00 1851878480
-10.973025 1.621521 3.565354 0.000000000000000e+00 1851878480
-11.219147 1.938095 3.645324 0.000000000000000e+00 1851878480
-10.390011 0.000000 3.410599 0.000000000000000e+00 1851878480
-10.323589 0.252266 3.388796 0.000000000000000e+00 1851878480
-10.483125 0.514536 3.441165 0.000000000000000e+00 1851878480
-10.462636 0.770028 3.434439 0.000000000000000e+00 1851878480
-10.365909 1.017862 3.402688 0.000000000000000e+00 1851878480
-10.644663 1.310161 3.494191 0.000000000000000e+00 1851878480
-10.995140 1.626390 3.609238 0.000000000000000e+00 1851878480
-11.244753 1.944433 3.691175 0.000000000000000e+00 1851878480
-10.407503 0.000000 3.451147 0.000000000000000e+00 1851878480
-10.345096 0.253043 3.430453 0.000000000000000e+00 1851878480
-10.502742 0.516012 3.482729 0.000000000000000e+00 1851878480
-10.482433 0.772253 3.475994 0.000000000000000e+00 1851878480
-10.387169 1.020965 3.444404 0.000000000000000e+00 1851878480
-10.671071 1.314719 3.538547 0.000000000000000e+00 1851878480
-11.017960 1.631388 3.653575 0.000000000000000e+00 1851878480
-11.270807 1.950879 3.737421 0.000000000000000e+00 1851878480
-10.425508 0.000000 3.492048 0.000000000000000e+00 1851878480
-10.552752 0.258382 3.534668 0.000000000000000e+00 1851878480
-10.522730 0.517513 3.524612 0.000000000000000e+00 1851878480
-10.501940 0.774468 3.517649 0.000000000000000e+00 1851878480
-10.404989 1.023745 3.485175 0.000000000000000e+00 1851878480
-10.697867 1.319346 3.583275 0.000000000000000e+00 1851878480
-11.041130 1.636463 3.698252 0.000000000000000e+00 1851878480
-11.297422 1.957452 3.784098 0.000000000000000e+00 1851878480
-10.444180 0.000000 3.533371 0.000000000000000e+00 1851878480
-10.574104 0.259168 3.577326 0.000000000000000e+00 1851878480
-10.542695 0.519022 3.566700 0.000000000000000e+00 1851878480
-10.521066 0.776666 3.559382 0.000000000000000e+00 1851878480
-10.429542 1.027203 3.528419 0.000000000000000e+00 1851878480
-10.724989 1.324034 3.628372 0.000000000000000e+00 1851878480
-11.064906 1.641653 3.743369 0.000000000000000e+00 1851878480
-11.324357 1.964112 3.831144 0.000000000000000e+00 1851878480
-10.463831 0.000000 3.575226 0.000000000000000e+00 1851878480
-10.595351 0.259955 3.620163 0.000000000000000e+00 1851878480
-10.562389 0.520525 3.608901 0.000000000000000e+00 1851878480
-10.539817 0.778849 3.601189 0.000000000000000e+00 1851878480
-10.451813 1.030452 3.571120 0.000000000000000e+00 1851878480
-10.752605 1.328805 3.673894 0.000000000000000e+00 1851878480
-11.089416 1.646977 3.788973 0.000000000000000e+00 1851878480
-11.351195 1.970786 3.878416 0.000000000000000e+00 1851878480
-10.484434 0.000000 3.617615 0.000000000000000e+00 1851878480
-10.616099 0.260734 3.663046 0.000000000000000e+00 1851878480
-10.581697 0.522017 3.651175 0.000000000000000e+00 1851878480
-10.558280 0.781021 3.643095 0.000000000000000e+00 1851878480
-10.474835 1.033792 3.614303 0.000000000000000e+00 1851878480
-10.780471 1.333629 3.719761 0.000000000000000e+00 1851878480
-11.114499 1.652413 3.835017 0.000000000000000e+00 1851878480
-11.375398 1.977035 3.925039 0.000000000000000e+00 1851878480
-10.505645 0.000000 3.660428 0.000000000000000e+00 1851878480
-10.636206 0.261501 3.705918 0.000000000000000e+00 1851878480
-10.600639 0.523499 3.693527 0.000000000000000e+00 1851878480
-10.576570 0.783193 3.685139 0.000000000000000e+00 1851878480
-10.498958 1.037257 3.658098 0.000000000000000e+00 1851878480
-10.808811 1.338534 3.766058 0.000000000000000e+00 1851878480
-11.140144 1.657958 3.881503 0.000000000000000e+00 1851878480
-11.421975 1.987207 3.979700 0.000000000000000e+00 1851878480
-10.527369 0.000000 3.703640 0.000000000000000e+00 1851878480
-10.655596 0.262255 3.748751 0.000000000000000e+00 1851878480
-10.619333 0.524976 3.735994 0.000000000000000e+00 1851878480
-10.595011 0.785387 3.727437 0.000000000000000e+00 1851878480
-10.522004 1.040632 3.701752 0.000000000000000e+00 1851878480
-10.837435 1.343497 3.812724 0.000000000000000e+00 1851878480
-11.166416 1.663624 3.928463 0.000000000000000e+00 1851878480
-11.463194 1.996485 4.032873 0.000000000000000e+00 1851878480
-10.549251 0.000000 3.747130 0.000000000000000e+00 1851878480
-10.674710 0.263006 3.791695 0.000000000000000e+00 1851878480
-10.637911 0.526455 3.778623 0.000000000000000e+00 1851878480
-10.613456 0.787594 3.769936 0.000000000000000e+00 1851878480
-10.545423 1.044061 3.745771 0.000000000000000e+00 1851878480
-10.866404 1.348525 3.859784 0.000000000000000e+00 1851878480
-11.193222 1.669397 3.975871 0.000000000000000e+00 1851878480
-11.523640 2.009154 4.093237 0.000000000000000e+00 1851878480
-10.571342 0.000000 3.790916 0.000000000000000e+00 1851878480
-10.693772 0.263759 3.834820 0.000000000000000e+00 1851878480
-10.656566 0.527946 3.821477 0.000000000000000e+00 1851878480
-10.632140 0.789830 3.812718 0.000000000000000e+00 1851878480
-10.568651 1.047487 3.789951 0.000000000000000e+00 1851878480
-10.895579 1.353602 3.907189 0.000000000000000e+00 1851878480
-11.220385 1.675250 4.023665 0.000000000000000e+00 1851878480
-10.593616 0.000000 3.835002 0.000000000000000e+00 1851878480
-10.712864 0.264517 3.878171 0.000000000000000e+00 1851878480
-10.675328 0.529451 3.864582 0.000000000000000e+00 1851878480
-10.650926 0.792086 3.855748 0.000000000000000e+00 1851878480
-10.592114 1.050954 3.834459 0.000000000000000e+00 1851878480
-10.925071 1.358741 3.954992 0.000000000000000e+00 1851878480
-11.247703 1.681154 4.071788 0.000000000000000e+00 1851878480
-10.615991 0.000000 3.879355 0.000000000000000e+00 1851878480
-10.732126 0.265284 3.921794 0.000000000000000e+00 1851878480
-10.694314 0.530975 3.907976 0.000000000000000e+00 1851878480
-10.669995 0.794375 3.899090 0.000000000000000e+00 1851878480
-10.615651 1.054446 3.879231 0.000000000000000e+00 1851878480
-10.954596 1.363909 4.003090 0.000000000000000e+00 1851878480
-11.275057 1.687093 4.120194 0.000000000000000e+00 1851878480
-10.638453 0.000000 3.923974 0.000000000000000e+00 1851878480
-10.751526 0.266058 3.965680 0.000000000000000e+00 1851878480
-10.713468 0.532515 3.951643 0.000000000000000e+00 1851878480
-10.689281 0.796692 3.942721 0.000000000000000e+00 1851878480
-10.639389 1.057974 3.924319 0.000000000000000e+00 1851878480
-10.984396 1.369134 4.051574 0.000000000000000e+00 1851878480
-11.302312 1.693045 4.168837 0.000000000000000e+00 1851878480
-10.661076 0.000000 3.968887 0.000000000000000e+00 1851878480
-10.771253 0.266844 4.009903 0.000000000000000e+00 1851878480
-10.732921 0.534078 3.995634 0.000000000000000e+00 1851878480
-10.708845 0.799043 3.986670 0.000000000000000e+00 1851878480
-10.663434 1.061551 3.969765 0.000000000000000e+00 1851878480
-11.014101 1.374372 4.100311 0.000000000000000e+00 1851878480
-11.329591 1.699028 4.217761 0.000000000000000e+00 1851878480
-10.684030 0.000000 4.014163 0.000000000000000e+00 1851878480
-10.791133 0.267638 4.054403 0.000000000000000e+00 1851878480
-10.752547 0.535659 4.039906 0.000000000000000e+00 1851878480
-10.728605 0.801421 4.030910 0.000000000000000e+00 1851878480
-10.687686 1.065166 4.015536 0.000000000000000e+00 1851878480
-11.043725 1.379624 4.149306 0.000000000000000e+00 1851878480
-11.356913 1.705048 4.266975 0.000000000000000e+00 1851878480
-10.707202 0.000000 4.059762 0.000000000000000e+00 1851878480
-10.811359 0.268445 4.099254 0.000000000000000e+00 1851878480
-10.772495 0.537264 4.084519 0.000000000000000e+00 1851878480
-10.748656 0.803833 4.075480 0.000000000000000e+00 1851878480
-10.712102 1.068815 4.061620 0.000000000000000e+00 1851878480
-11.073895 1.384968 4.198798 0.000000000000000e+00 1851878480
-11.384336 1.711112 4.316505 0.000000000000000e+00 1851878480
-10.730745 0.000000 4.105742 0.000000000000000e+00 1851878480
-10.831731 0.269260 4.144381 0.000000000000000e+00 1851878480
-10.792584 0.538884 4.129403 0.000000000000000e+00 1851878480
-10.768985 0.806279 4.120373 0.000000000000000e+00 1851878480
-10.736702 1.072501 4.108021 0.000000000000000e+00 1851878480
-11.104496 1.390392 4.248744 0.000000000000000e+00 1851878480
-11.411868 1.717221 4.366349 0.000000000000000e+00 1851878480
-10.754500 0.000000 4.152058 0.000000000000000e+00 1851878480
-10.852509 0.270089 4.189897 0.000000000000000e+00 1851878480
-10.813068 0.540533 4.174670 0.000000000000000e+00 1851878480
-10.789388 0.808744 4.165527 0.000000000000000e+00 1851878480
-10.761502 1.076225 4.154761 0.000000000000000e+00 1851878480
-11.138569 1.396275 4.300337 0.000000000000000e+00 1851878480
-11.439476 1.723372 4.416511 0.000000000000000e+00 1851878480
-10.778600 0.000000 4.198760 0.000000000000000e+00 1851878480
-10.873414 0.270926 4.235694 0.000000000000000e+00 1851878480
-10.833675 0.542197 4.220214 0.000000000000000e+00 1851878480
-10.810310 0.811260 4.211112 0.000000000000000e+00 1851878480
-10.786413 1.079979 4.201803 0.000000000000000e+00 1851878480
-12.907653 1.619933 5.028124 0.000000000000000e+00 1851878480
-11.467143 1.729562 4.466979 0.000000000000000e+00 1851878480
-10.803061 0.000000 4.245859 0.000000000000000e+00 1851878480
-10.894791 0.271780 4.281910 0.000000000000000e+00 1851878480
-10.854716 0.543892 4.266161 0.000000000000000e+00 1851878480
-10.831298 0.813795 4.256957 0.000000000000000e+00 1851878480
-10.811596 1.083779 4.249213 0.000000000000000e+00 1851878480
-11.238535 1.412121 4.417010 0.000000000000000e+00 1851878480
-11.494736 1.735771 4.517703 0.000000000000000e+00 1851878480
-10.827827 0.000000 4.293339 0.000000000000000e+00 1851878480
-10.916324 0.272641 4.328428 0.000000000000000e+00 1851878480
-10.875922 0.545604 4.312408 0.000000000000000e+00 1851878480
-10.852629 0.816369 4.303173 0.000000000000000e+00 1851878480
-10.836806 1.087600 4.296898 0.000000000000000e+00 1851878480
-11.250966 1.415367 4.461117 0.000000000000000e+00 1851878480
-11.522221 1.741994 4.568672 0.000000000000000e+00 1851878480
-10.853051 0.000000 4.341264 0.000000000000000e+00 1851878480
-10.938333 0.273519 4.375377 0.000000000000000e+00 1851878480
-10.897533 0.547345 4.359057 0.000000000000000e+00 1851878480
-10.874282 0.818981 4.349757 0.000000000000000e+00 1851878480
