# .PCD v0.7 - Point Cloud Data file format
VERSION 0.7
FIELDS x y z rgb label
SIZE 4 4 4 4 4
TYPE F F F F U
COUNT 1 1 1 1 1
WIDTH 777
HEIGHT 1
VIEWPOINT 0 0 0 1 0 0 0
POINTS 777
DATA ascii
-10.102752 -0.234935 -0.574453 0.000000000000000e+00 7103860
-9.706762 0.000000 -0.551937 0.000000000000000e+00 1851878480
-9.612880 0.223543 -0.546598 0.000000000000000e+00 1851878480
-10.161107 0.474619 -0.577771 0.000000000000000e+00 1851878480
-10.179046 0.712938 -0.578791 0.000000000000000e+00 1851878480
-10.166403 0.950010 -0.578072 0.000000000000000e+00 1851878480
-10.045918 -0.233574 -0.540830 0.000000000000000e+00 7103860
-9.646605 0.000000 -0.519333 0.000000000000000e+00 1851878480
-9.585655 0.222873 -0.516051 0.000000000000000e+00 1851878480
-10.107026 0.472014 -0.544120 0.000000000000000e+00 1851878480
-10.116733 0.708455 -0.544642 0.000000000000000e+00 1851878480
-10.089486 0.942665 -0.543176 0.000000000000000e+00 1851878480
-9.975724 -0.231906 -0.506882 0.000000000000000e+00 7103860
-9.636590 0.000000 -0.489650 0.000000000000000e+00 1851878480
-9.524869 0.221425 -0.483973 0.000000000000000e+00 1851878480
-10.103559 0.471778 -0.513377 0.000000000000000e+00 1851878480
-10.067064 0.704866 -0.511523 0.000000000000000e+00 1851878480
-10.015222 0.935579 -0.508889 0.000000000000000e+00 1851878480
-9.955398 -0.231399 -0.475755 0.000000000000000e+00 1851878480
-9.566242 0.000000 -0.457158 0.000000000000000e+00 1851878480
-9.488175 0.220539 -0.453428 0.000000000000000e+00 1851878480
-10.060751 0.469709 -0.480790 0.000000000000000e+00 1851878480
-9.954460 0.696878 -0.475711 0.000000000000000e+00 1851878480
-9.959567 0.930242 -0.475955 0.000000000000000e+00 1851878480
-9.941779 -0.231050 -0.445056 0.000000000000000e+00 1851878480
-9.552363 0.000000 -0.427623 0.000000000000000e+00 1851878480
-9.428574 0.219123 -0.422082 0.000000000000000e+00 1851878480
-10.006749 0.467123 -0.447965 0.000000000000000e+00 1851878480
-9.952724 0.696659 -0.445546 0.000000000000000e+00 1851878480
-9.925673 0.926946 -0.444335 0.000000000000000e+00 1851878480
-9.918846 -0.230487 -0.414058 0.000000000000000e+00 1851878480
-9.514834 0.000000 -0.397193 0.000000000000000e+00 1851878480
-9.396834 0.218357 -0.392267 0.000000000000000e+00 1851878480
-9.741762 0.454693 -0.406666 0.000000000000000e+00 1851878480
-9.908510 0.693474 -0.413627 0.000000000000000e+00 1851878480
-9.847084 0.919487 -0.411063 0.000000000000000e+00 1851878480
-12.314937 -0.574726 -0.476880 0.000000000000000e+00 1701537140
-9.898371 -0.229983 -0.383302 0.000000000000000e+00 1851878480
-9.465863 0.000000 -0.366553 0.000000000000000e+00 1851878480
-9.382174 0.217990 -0.363313 0.000000000000000e+00 1851878480
-9.744256 0.454755 -0.377334 0.000000000000000e+00 1851878480
-9.874882 0.691036 -0.382392 0.000000000000000e+00 1851878480
-9.816514 0.916521 -0.380132 0.000000000000000e+00 1851878480
-12.231676 -0.570776 -0.436714 0.000000000000000e+00 1701537140
-9.817819 -0.228086 -0.350531 0.000000000000000e+00 1851878480
-9.442538 0.000000 -0.337132 0.000000000000000e+00 1851878480
-9.342707 0.217048 -0.333568 0.000000000000000e+00 1851878480
-9.725153 0.453812 -0.347222 0.000000000000000e+00 1851878480
-9.839101 0.688455 -0.351291 0.000000000000000e+00 1851878480
-9.757088 0.910871 -0.348363 0.000000000000000e+00 1851878480
-12.181793 -0.568390 -0.398150 0.000000000000000e+00 1701537140
-9.813843 -0.227970 -0.320756 0.000000000000000e+00 1851878480
-9.398204 0.000000 -0.307171 0.000000000000000e+00 1851878480
-9.307784 0.216215 -0.304216 0.000000000000000e+00 1851878480
-9.679920 0.451655 -0.316379 0.000000000000000e+00 1851878480
-9.581290 0.670347 -0.313155 0.000000000000000e+00 1851878480
-9.718020 0.907130 -0.317624 0.000000000000000e+00 1851878480
-12.136227 -0.566210 -0.360022 0.000000000000000e+00 1701537140
-9.790993 -0.227418 -0.290451 0.000000000000000e+00 1851878480
-9.376522 0.000000 -0.278155 0.000000000000000e+00 1851878480
-9.287571 0.215725 -0.275517 0.000000000000000e+00 1851878480
-9.667169 0.451018 -0.286777 0.000000000000000e+00 1851878480
-9.560232 0.668811 -0.283605 0.000000000000000e+00 1851878480
-9.715758 0.906834 -0.288219 0.000000000000000e+00 1851878480
-12.101514 -0.564543 -0.322471 0.000000000000000e+00 1701537140
-9.816855 -0.227999 -0.261592 0.000000000000000e+00 1851878480
-9.351697 0.000000 -0.249196 0.000000000000000e+00 1851878480
-9.262494 0.215124 -0.246819 0.000000000000000e+00 1851878480
-9.640850 0.449751 -0.256902 0.000000000000000e+00 1851878480
-9.569847 0.669426 -0.255009 0.000000000000000e+00 1851878480
-9.670229 0.902507 -0.257684 0.000000000000000e+00 1851878480
-12.112195 -0.564998 -0.286202 0.000000000000000e+00 1701537140
-9.791770 -0.227399 -0.231372 0.000000000000000e+00 1851878480
-9.325253 0.000000 -0.220349 0.000000000000000e+00 1851878480
-9.210742 0.213906 -0.217643 0.000000000000000e+00 1851878480
-9.634899 0.449440 -0.227666 0.000000000000000e+00 1851878480
-9.542563 0.667467 -0.225484 0.000000000000000e+00 1851878480
-9.648049 0.900369 -0.227976 0.000000000000000e+00 1851878480
-12.119129 -0.565284 -0.249797 0.000000000000000e+00 1701537140
-9.809990 -0.227807 -0.202202 0.000000000000000e+00 1851878480
-9.320482 0.000000 -0.192112 0.000000000000000e+00 1851878480
-9.217728 0.214054 -0.189994 0.000000000000000e+00 1851878480
-9.611253 0.448307 -0.198105 0.000000000000000e+00 1851878480
-9.497894 0.664298 -0.195769 0.000000000000000e+00 1851878480
-9.585238 0.894448 -0.197569 0.000000000000000e+00 1851878480
-12.141639 -0.566301 -0.213629 0.000000000000000e+00 1701537140
-9.801731 -0.227602 -0.172459 0.000000000000000e+00 1851878480
-9.250216 0.000000 -0.162755 0.000000000000000e+00 1851878480
-9.167983 0.212886 -0.161308 0.000000000000000e+00 1851878480
-9.594776 0.447513 -0.168817 0.000000000000000e+00 1851878480
-9.487167 0.663510 -0.166924 0.000000000000000e+00 1851878480
-9.577163 0.893643 -0.168507 0.000000000000000e+00 1851878480
-12.152233 -0.566768 -0.177154 0.000000000000000e+00 1701537140
-9.787100 -0.227252 -0.142676 0.000000000000000e+00 1851878480
-9.251145 0.000000 -0.134863 0.000000000000000e+00 1851878480
-9.144711 0.212336 -0.133311 0.000000000000000e+00 1851878480
-9.589767 0.447257 -0.139799 0.000000000000000e+00 1851878480
-9.477270 0.662786 -0.138159 0.000000000000000e+00 1851878480
-9.552116 0.891263 -0.139250 0.000000000000000e+00 1851878480
-12.185822 -0.568312 -0.140885 0.000000000000000e+00 1701537140
-9.799097 -0.227521 -0.113291 0.000000000000000e+00 1851878480
-9.142088 0.000000 -0.105696 0.000000000000000e+00 1870292837
-9.110886 0.211542 -0.105335 0.000000000000000e+00 1851878480
-9.564800 0.446075 -0.110583 0.000000000000000e+00 1851878480
-9.459495 0.661516 -0.109365 0.000000000000000e+00 1851878480
-9.513965 0.887668 -0.109995 0.000000000000000e+00 1851878480
-12.197442 -0.568837 -0.104229 0.000000000000000e+00 1701537140
-9.791611 -0.227341 -0.083670 0.000000000000000e+00 1851878480
-9.123590 0.000000 -0.077962 0.000000000000000e+00 1870292837
-9.074199 0.210684 -0.077540 0.000000000000000e+00 1851878480
-9.542681 0.445030 -0.081543 0.000000000000000e+00 1851878480
-9.461626 0.661645 -0.080851 0.000000000000000e+00 1851878480
-9.489394 0.885348 -0.081088 0.000000000000000e+00 1851878480
-12.219985 -0.569876 -0.067564 0.000000000000000e+00 1701537140
-9.769278 -0.226817 -0.054014 0.000000000000000e+00 1851878480
-9.163630 0.000000 -0.050665 0.000000000000000e+00 1870292837
-9.071807 0.210624 -0.050158 0.000000000000000e+00 1851878480
-9.494195 0.442760 -0.052493 0.000000000000000e+00 1851878480
-9.445616 0.660512 -0.052225 0.000000000000000e+00 1851878480
-9.460073 0.882594 -0.052304 0.000000000000000e+00 1851878480
-12.242867 -0.570936 -0.030771 0.000000000000000e+00 1701537140
-9.785501 -0.227191 -0.024595 0.000000000000000e+00 1851878480
-9.068372 0.000000 -0.022792 0.000000000000000e+00 1870292837
-9.051255 0.210144 -0.022749 0.000000000000000e+00 1851878480
-9.481005 0.442139 -0.023830 0.000000000000000e+00 1851878480
-9.421036 0.658785 -0.023679 0.000000000000000e+00 1851878480
-9.433860 0.880138 -0.023711 0.000000000000000e+00 1851878480
-12.231871 -0.570422 0.006148 0.000000000000000e+00 1701537140
-9.788213 -0.227253 0.004920 0.000000000000000e+00 1851878480
-9.115759 0.000000 0.004582 0.000000000000000e+00 1870292837
-8.996501 0.208872 0.004522 0.000000000000000e+00 1851878480
-9.461115 0.441210 0.004755 0.000000000000000e+00 1851878480
-9.359189 0.654458 0.004704 0.000000000000000e+00 1851878480
-9.398686 0.876854 0.004724 0.000000000000000e+00 1851878480
-10.097642 1.180841 0.005075 0.000000000000000e+00 1851878480
-12.268215 -0.572120 0.043167 0.000000000000000e+00 1701537140
-9.777552 -0.227007 0.034403 0.000000000000000e+00 1851878480
-9.140997 0.000000 0.032164 0.000000000000000e+00 1870292837
-8.999902 0.208952 0.031667 0.000000000000000e+00 1851878480
-9.417448 0.439176 0.033136 0.000000000000000e+00 1851878480
-9.350543 0.653858 0.032901 0.000000000000000e+00 1851878480
-9.381135 0.875222 0.033009 0.000000000000000e+00 1851878480
-9.937764 1.162151 0.034967 0.000000000000000e+00 1851878480
-12.291917 -0.573234 0.080324 0.000000000000000e+00 1701537140
-9.796217 -0.227444 0.064015 0.000000000000000e+00 1851878480
-9.196855 0.000000 0.060099 0.000000000000000e+00 1870292837
-8.988479 0.208690 0.058737 0.000000000000000e+00 1851878480
-9.389088 0.437861 0.061355 0.000000000000000e+00 1851878480
-9.314659 0.651358 0.060868 0.000000000000000e+00 1851878480
-9.372703 0.874448 0.061248 0.000000000000000e+00 1851878480
-9.849229 1.151815 0.064362 0.000000000000000e+00 1851878480
-12.320122 -0.574563 0.117668 0.000000000000000e+00 1701537140
-9.794453 -0.227409 0.093546 0.000000000000000e+00 1851878480
-8.982867 0.000000 0.085794 0.000000000000000e+00 1870292837
-8.953506 0.207883 0.085514 0.000000000000000e+00 1851878480
-9.371827 0.437066 0.089509 0.000000000000000e+00 1851878480
-9.279527 0.648917 0.088628 0.000000000000000e+00 1851878480
-9.333443 0.870806 0.089143 0.000000000000000e+00 1851878480
-9.758924 1.141282 0.093206 0.000000000000000e+00 1851878480
-9.783956 -0.227173 0.122957 0.000000000000000e+00 1851878480
-8.955862 0.000000 0.112550 0.000000000000000e+00 1870292837
-8.936996 0.207507 0.112313 0.000000000000000e+00 1851878480
-9.349689 0.436048 0.117500 0.000000000000000e+00 1851878480
-9.249672 0.646851 0.116243 0.000000000000000e+00 1851878480
-9.316923 0.869294 0.117088 0.000000000000000e+00 1851878480
-9.720416 1.136817 0.122159 0.000000000000000e+00 1851878480
-9.788738 -0.227293 0.152546 0.000000000000000e+00 1851878480
-9.013344 0.000000 0.140462 0.000000000000000e+00 1870292837
-8.920972 0.207144 0.139023 0.000000000000000e+00 1851878480
-9.315760 0.434484 0.145175 0.000000000000000e+00 1851878480
-9.240792 0.646258 0.144007 0.000000000000000e+00 1851878480
-9.273194 0.865251 0.144512 0.000000000000000e+00 1851878480
-9.662173 1.130053 0.150574 0.000000000000000e+00 1851878480
-9.794550 -0.227440 0.182181 0.000000000000000e+00 1851878480
-9.013086 0.000000 0.167646 0.000000000000000e+00 1851878480
-8.936501 0.207515 0.166221 0.000000000000000e+00 1851878480
-9.299706 0.433758 0.172977 0.000000000000000e+00 1851878480
-9.199209 0.643383 0.171107 0.000000000000000e+00 1851878480
-9.252490 0.863363 0.172099 0.000000000000000e+00 1851878480
-9.619854 1.125162 0.178932 0.000000000000000e+00 1851878480
-9.187559 -0.213358 0.198612 0.000000000000000e+00 1851878480
-8.984274 0.000000 0.194217 0.000000000000000e+00 1851878480
-8.908946 0.206888 0.192589 0.000000000000000e+00 1851878480
-9.234771 0.430755 0.199632 0.000000000000000e+00 1851878480
-9.176491 0.641833 0.198372 0.000000000000000e+00 1851878480
-9.240325 0.862281 0.199752 0.000000000000000e+00 1851878480
-9.572153 1.119650 0.206926 0.000000000000000e+00 1851878480
-9.185927 -0.213335 0.226296 0.000000000000000e+00 1851878480
-8.957181 0.000000 0.220661 0.000000000000000e+00 1851878480
-8.876784 0.206155 0.218680 0.000000000000000e+00 1851878480
-9.220708 0.430129 0.227153 0.000000000000000e+00 1851878480
-9.148071 0.639890 0.225363 0.000000000000000e+00 1851878480
-9.206571 0.859191 0.226804 0.000000000000000e+00 1851878480
-9.530860 1.114898 0.234793 0.000000000000000e+00 1851878480
-9.151848 -0.212560 0.253077 0.000000000000000e+00 1851878480
-8.938769 0.000000 0.247185 0.000000000000000e+00 1851878480
-8.864679 0.205890 0.245136 0.000000000000000e+00 1851878480
-9.183454 0.428425 0.253951 0.000000000000000e+00 1851878480
-9.116075 0.637702 0.252088 0.000000000000000e+00 1851878480
-9.201762 0.858810 0.254457 0.000000000000000e+00 1851878480
-9.484998 1.109621 0.262290 0.000000000000000e+00 1851878480
-9.129410 -0.212058 0.280014 0.000000000000000e+00 1851878480
-8.937952 0.000000 0.274142 0.000000000000000e+00 1851878480
-8.840497 0.205347 0.271153 0.000000000000000e+00 1851878480
-9.055768 0.422506 0.277756 0.000000000000000e+00 1851878480
-9.078211 0.635109 0.278444 0.000000000000000e+00 1851878480
-9.161985 0.855172 0.281014 0.000000000000000e+00 1851878480
-9.483017 1.109486 0.290860 0.000000000000000e+00 1851878480
-9.106890 -0.211555 0.306818 0.000000000000000e+00 1851878480
-8.949238 0.000000 0.301507 0.000000000000000e+00 1851878480
-8.844859 0.205468 0.297990 0.000000000000000e+00 1851878480
-9.061192 0.422800 0.305279 0.000000000000000e+00 1851878480
-9.055110 0.633554 0.305074 0.000000000000000e+00 1851878480
-9.169618 0.855968 0.308932 0.000000000000000e+00 1851878480
-9.441645 1.104753 0.318097 0.000000000000000e+00 1851878480
-9.079692 -0.210946 0.333320 0.000000000000000e+00 1851878480
-8.941655 0.000000 0.328253 0.000000000000000e+00 1851878480
-8.843999 0.205470 0.324668 0.000000000000000e+00 1851878480
-9.049480 0.422298 0.332211 0.000000000000000e+00 1851878480
-9.042717 0.632754 0.331963 0.000000000000000e+00 1851878480
-9.141112 0.853397 0.335575 0.000000000000000e+00 1851878480
-9.422664 1.102649 0.345911 0.000000000000000e+00 1851878480
-9.065345 -0.210637 0.360170 0.000000000000000e+00 1851878480
-8.927029 0.000000 0.354675 0.000000000000000e+00 1851878480
-8.838732 0.205371 0.351167 0.000000000000000e+00 1851878480
-9.059471 0.422813 0.359937 0.000000000000000e+00 1851878480
-8.990069 0.629143 0.357180 0.000000000000000e+00 1851878480
-9.114119 0.850976 0.362108 0.000000000000000e+00 1851878480
-9.392581 1.099256 0.373172 0.000000000000000e+00 1851878480
-9.046337 -0.210221 0.386745 0.000000000000000e+00 1851878480
-8.905969 0.000000 0.380744 0.000000000000000e+00 1851878480
-8.832630 0.205255 0.377609 0.000000000000000e+00 1851878480
-9.056223 0.422714 0.387168 0.000000000000000e+00 1851878480
-8.937870 0.625568 0.382108 0.000000000000000e+00 1851878480
-9.095855 0.849376 0.388862 0.000000000000000e+00 1851878480
-9.356065 1.095118 0.399987 0.000000000000000e+00 1851878480
-9.027686 -0.209816 0.413229 0.000000000000000e+00 1851878480
-8.916737 0.000000 0.408150 0.000000000000000e+00 1851878480
-8.839948 0.205452 0.404635 0.000000000000000e+00 1851878480
-9.049219 0.422444 0.414214 0.000000000000000e+00 1851878480
-8.945795 0.626206 0.409480 0.000000000000000e+00 1851878480
-9.083208 0.848308 0.415770 0.000000000000000e+00 1851878480
-9.362994 1.096076 0.428577 0.000000000000000e+00 1851878480
-9.020325 -0.209675 0.440158 0.000000000000000e+00 1851878480
-8.904354 0.000000 0.434499 0.000000000000000e+00 1851878480
-8.803507 0.204635 0.429578 0.000000000000000e+00 1851878480
-9.026745 0.421455 0.440471 0.000000000000000e+00 1851878480
-8.938491 0.625784 0.436165 0.000000000000000e+00 1851878480
-9.070877 0.847277 0.442625 0.000000000000000e+00 1851878480
-9.314011 1.090497 0.454489 0.000000000000000e+00 1851878480
-9.007156 -0.209400 0.466750 0.000000000000000e+00 1851878480
-8.902422 0.000000 0.461322 0.000000000000000e+00 1851878480
-8.819749 0.205043 0.457038 0.000000000000000e+00 1851878480
-9.032113 0.421769 0.468043 0.000000000000000e+00 1851878480
-8.930662 0.625331 0.462786 0.000000000000000e+00 1851878480
-9.037077 0.844248 0.468300 0.000000000000000e+00 1851878480
-9.318784 1.091221 0.482898 0.000000000000000e+00 1851878480
-9.014449 -0.209603 0.494392 0.000000000000000e+00 1851878480
-8.900155 0.000000 0.488124 0.000000000000000e+00 1851878480
-8.808589 0.204817 0.483102 0.000000000000000e+00 1851878480
-9.028853 0.421685 0.495182 0.000000000000000e+00 1851878480
-8.936592 0.625846 0.490122 0.000000000000000e+00 1851878480
-9.042207 0.844864 0.495915 0.000000000000000e+00 1851878480
-9.295151 1.088629 0.509787 0.000000000000000e+00 1851878480
-8.990307 -0.209078 0.520269 0.000000000000000e+00 1851878480
-8.884691 0.000000 0.514157 0.000000000000000e+00 1851878480
-8.818304 0.205078 0.510315 0.000000000000000e+00 1851878480
-9.026698 0.421656 0.522375 0.000000000000000e+00 1851878480
-8.931048 0.625565 0.516840 0.000000000000000e+00 1851878480
-9.038341 0.844646 0.523049 0.000000000000000e+00 1851878480
-9.273229 1.086246 0.536642 0.000000000000000e+00 1851878480
-9.014165 -0.209670 0.548928 0.000000000000000e+00 1851878480
-8.878789 0.000000 0.540684 0.000000000000000e+00 1851878480
-8.809445 0.204908 0.536462 0.000000000000000e+00 1851878480
-9.005799 0.420755 0.548419 0.000000000000000e+00 1851878480
-8.937305 0.626115 0.544248 0.000000000000000e+00 1851878480
-9.045097 0.845429 0.550812 0.000000000000000e+00 1851878480
-9.253143 1.084087 0.563481 0.000000000000000e+00 1851878480
-8.967472 -0.208623 0.573236 0.000000000000000e+00 1851878480
-8.869525 0.000000 0.566975 0.000000000000000e+00 1851878480
-8.805228 0.204849 0.562865 0.000000000000000e+00 1851878480
-9.032423 0.422078 0.577388 0.000000000000000e+00 1851878480
-8.913465 0.624562 0.569784 0.000000000000000e+00 1851878480
-9.039308 0.845046 0.577828 0.000000000000000e+00 1851878480
-9.243155 1.083121 0.590859 0.000000000000000e+00 1851878480
-8.968895 -0.208697 0.600493 0.000000000000000e+00 1851878480
-8.882097 0.000000 0.594682 0.000000000000000e+00 1851878480
-8.790181 0.204539 0.588528 0.000000000000000e+00 1851878480
-9.009566 0.421093 0.603216 0.000000000000000e+00 1851878480
-8.918651 0.625049 0.597129 0.000000000000000e+00 1851878480
-9.030636 0.844402 0.604627 0.000000000000000e+00 1851878480
-9.220908 1.080727 0.617366 0.000000000000000e+00 1851878480
-8.988828 -0.209204 0.629065 0.000000000000000e+00 1851878480
-8.878698 0.000000 0.621358 0.000000000000000e+00 1851878480
-8.794011 0.204670 0.615431 0.000000000000000e+00 1851878480
-9.013458 0.421362 0.630789 0.000000000000000e+00 1851878480
-8.923040 0.625486 0.624461 0.000000000000000e+00 1851878480
-9.039793 0.845433 0.632631 0.000000000000000e+00 1851878480
-9.222992 1.081195 0.645452 0.000000000000000e+00 1851878480
-8.998605 -0.209477 0.657028 0.000000000000000e+00 1851878480
-8.875647 0.000000 0.648050 0.000000000000000e+00 1851878480
-8.786947 0.204550 0.641574 0.000000000000000e+00 1851878480
-9.008547 0.421223 0.657753 0.000000000000000e+00 1851878480
-8.898094 0.623872 0.649689 0.000000000000000e+00 1851878480
-9.045307 0.846131 0.660437 0.000000000000000e+00 1851878480
-9.187034 1.077212 0.670786 0.000000000000000e+00 1851878480
-8.893253 0.000000 0.676306 0.000000000000000e+00 1851878480
-8.777787 0.204383 0.667526 0.000000000000000e+00 1851878480
-9.005481 0.421175 0.684841 0.000000000000000e+00 1851878480
-8.927931 0.626104 0.678944 0.000000000000000e+00 1851878480
-9.037782 0.845617 0.687297 0.000000000000000e+00 1851878480
-9.187352 1.077491 0.698672 0.000000000000000e+00 1851878480
-9.326700 -0.217215 0.737567 0.000000000000000e+00 1701537140
-8.879717 0.000000 0.702219 0.000000000000000e+00 1851878480
-8.799103 0.204927 0.695844 0.000000000000000e+00 1851878480
-9.010137 0.421491 0.712533 0.000000000000000e+00 1851878480
-8.913679 0.625251 0.704905 0.000000000000000e+00 1851878480
-9.035028 0.845558 0.714501 0.000000000000000e+00 1851878480
-9.176449 1.076465 0.725685 0.000000000000000e+00 1851878480
-9.262191 -0.215765 0.760582 0.000000000000000e+00 1701537140
-9.093836 0.000000 0.746757 0.000000000000000e+00 1701537140
-8.802274 0.205051 0.722815 0.000000000000000e+00 1851878480
-8.999252 0.421084 0.738990 0.000000000000000e+00 1851878480
-8.926967 0.626335 0.733055 0.000000000000000e+00 1851878480
-9.052933 0.847439 0.743398 0.000000000000000e+00 1851878480
-9.181268 1.077292 0.753937 0.000000000000000e+00 1851878480
-10.952230 1.544417 0.899363 0.000000000000000e+00 1634431585
-9.208733 -0.214573 0.784156 0.000000000000000e+00 1701537140
-9.058573 0.000000 0.771369 0.000000000000000e+00 1701537140
-9.006137 0.209853 0.766904 0.000000000000000e+00 1701537140
-9.005751 0.421495 0.766871 0.000000000000000e+00 1851878480
-8.924689 0.626334 0.759968 0.000000000000000e+00 1851878480
-9.040398 0.846479 0.769821 0.000000000000000e+00 1851878480
-9.188273 1.078386 0.782413 0.000000000000000e+00 1851878480
-10.855621 1.531180 0.924394 0.000000000000000e+00 1634431585
-9.144295 -0.213128 0.806455 0.000000000000000e+00 1701537140
-9.031662 0.000000 0.796522 0.000000000000000e+00 1701537140
-8.949831 0.208595 0.789305 0.000000000000000e+00 1701537140
-8.999816 0.421327 0.793713 0.000000000000000e+00 1851878480
-8.927890 0.626722 0.787370 0.000000000000000e+00 1851878480
-9.054747 0.848045 0.798558 0.000000000000000e+00 1851878480
-9.156900 1.074984 0.807567 0.000000000000000e+00 1851878480
-10.746015 1.516116 0.947714 0.000000000000000e+00 1634431585
-9.097776 -0.212101 0.830012 0.000000000000000e+00 1701537140
-8.967334 0.000000 0.818111 0.000000000000000e+00 1701537140
-8.922755 0.208020 0.814044 0.000000000000000e+00 1701537140
-9.245714 0.432956 0.843509 0.000000000000000e+00 1701537140
-8.930106 0.627047 0.814715 0.000000000000000e+00 1851878480
-9.043494 0.847220 0.825060 0.000000000000000e+00 1851878480
-9.165832 1.076324 0.836221 0.000000000000000e+00 1851878480
-10.645556 1.502349 0.971220 0.000000000000000e+00 1634431585
-9.067370 -0.211451 0.854820 0.000000000000000e+00 1701537140
-8.944009 0.000000 0.843191 0.000000000000000e+00 1701537140
-8.896402 0.207464 0.838703 0.000000000000000e+00 1701537140
-9.208595 0.431338 0.868134 0.000000000000000e+00 1701537140
-8.944407 0.628227 0.843228 0.000000000000000e+00 1851878480
-9.061420 0.849137 0.854260 0.000000000000000e+00 1851878480
-9.172162 1.077369 0.864700 0.000000000000000e+00 1851878480
-10.595115 1.495649 0.998848 0.000000000000000e+00 1634431585
-9.485739 -0.444448 0.923133 0.000000000000000e+00 1701537140
-9.021323 -0.210438 0.877937 0.000000000000000e+00 1701537140
-8.936667 0.000000 0.869699 0.000000000000000e+00 1701537140
-8.882168 0.207192 0.864395 0.000000000000000e+00 1701537140
-9.167909 0.429557 0.892203 0.000000000000000e+00 1701537140
-8.918295 0.626574 0.867911 0.000000000000000e+00 1851878480
-9.062089 0.849445 0.881905 0.000000000000000e+00 1851878480
-9.195846 1.080463 0.894921 0.000000000000000e+00 1851878480
-10.531361 1.487079 1.024891 0.000000000000000e+00 1634431585
-9.411541 -0.441103 0.944575 0.000000000000000e+00 1701537140
-8.982206 -0.209588 0.901486 0.000000000000000e+00 1701537140
-8.927497 0.000000 0.895995 0.000000000000000e+00 1701537140
-8.875451 0.207097 0.890771 0.000000000000000e+00 1701537140
-9.138823 0.428321 0.917204 0.000000000000000e+00 1701537140
-8.909995 0.626178 0.894238 0.000000000000000e+00 1851878480
-9.070104 0.850449 0.910307 0.000000000000000e+00 1851878480
-9.195043 1.080691 0.922846 0.000000000000000e+00 1851878480
-10.485505 1.481045 1.052362 0.000000000000000e+00 1634431585
-9.336177 -0.437706 0.965461 0.000000000000000e+00 1701537140
-8.953382 -0.208980 0.925876 0.000000000000000e+00 1701537140
-8.909581 0.000000 0.921347 0.000000000000000e+00 1701537140
-8.865106 0.206919 0.916748 0.000000000000000e+00 1701537140
-9.124676 0.427790 0.943590 0.000000000000000e+00 1701537140
-8.961148 0.629966 0.926679 0.000000000000000e+00 1851878480
-9.083439 0.851962 0.939326 0.000000000000000e+00 1851878480
-9.203102 1.081970 0.951700 0.000000000000000e+00 1851878480
-10.475696 1.480114 1.083300 0.000000000000000e+00 1634431585
-9.280350 -0.435226 0.987982 0.000000000000000e+00 1701537140
-8.950240 -0.208972 0.952838 0.000000000000000e+00 1701537140
-8.920183 0.000000 0.949638 0.000000000000000e+00 1701537140
-8.883862 0.207423 0.945772 0.000000000000000e+00 1701537140
-9.108795 0.427180 0.969718 0.000000000000000e+00 1701537140
-9.259591 0.651153 0.985772 0.000000000000000e+00 1701537140
-9.090940 0.852935 0.967817 0.000000000000000e+00 1851878480
-9.208666 1.082967 0.980350 0.000000000000000e+00 1851878480
-10.443959 1.476097 1.111859 0.000000000000000e+00 1634431585
-9.241398 -0.433540 1.012032 0.000000000000000e+00 1701537140
-8.960480 -0.209280 0.981268 0.000000000000000e+00 1701537140
-9.341204 0.000000 1.022962 0.000000000000000e+00 1701537140
-8.950003 0.209035 0.980121 0.000000000000000e+00 1701537140
-9.110175 0.427384 0.997661 0.000000000000000e+00 1701537140
-9.219882 0.648571 1.009676 0.000000000000000e+00 1701537140
-9.103383 0.854381 0.996918 0.000000000000000e+00 1851878480
-9.233306 1.086218 1.011146 0.000000000000000e+00 1851878480
-10.434509 1.475242 1.142690 0.000000000000000e+00 1634431585
-9.201892 -0.431832 1.035800 0.000000000000000e+00 1701537140
-8.956654 -0.209260 1.008196 0.000000000000000e+00 1701537140
-9.357952 0.000000 1.053367 0.000000000000000e+00 1701537140
-8.965585 0.209469 1.009201 0.000000000000000e+00 1701537140
-9.135855 0.428733 1.028367 0.000000000000000e+00 1701537140
-9.159841 0.644563 1.031067 0.000000000000000e+00 1701537140
-9.092330 0.853629 1.023468 0.000000000000000e+00 1851878480
-9.237968 1.087131 1.039861 0.000000000000000e+00 1851878480
-10.099012 1.428287 1.136784 0.000000000000000e+00 1851878480
-9.170434 -0.430503 1.060278 0.000000000000000e+00 1701537140
-8.960515 -0.209423 1.036007 0.000000000000000e+00 1701537140
-9.376200 0.000000 1.084068 0.000000000000000e+00 1701537140
-8.935926 0.208848 1.033164 0.000000000000000e+00 1701537140
-9.164971 0.430247 1.059646 0.000000000000000e+00 1701537140
-9.129638 0.642659 1.055561 0.000000000000000e+00 1701537140
-9.105888 0.855196 1.052815 0.000000000000000e+00 1851878480
-9.221508 1.085567 1.066183 0.000000000000000e+00 1851878480
-10.091525 1.427720 1.166773 0.000000000000000e+00 1851878480
-9.141691 -0.429306 1.084904 0.000000000000000e+00 1701537140
-9.017471 -0.210828 1.070162 0.000000000000000e+00 1701537140
-9.369617 0.000000 1.111953 0.000000000000000e+00 1701537140
-8.955506 0.209379 1.062808 0.000000000000000e+00 1701537140
-9.846334 0.462397 1.168529 0.000000000000000e+00 1701537140
-9.100190 0.640813 1.079979 0.000000000000000e+00 1701537140
-9.103749 0.855297 1.080401 0.000000000000000e+00 1851878480
-9.261995 1.090719 1.099181 0.000000000000000e+00 1851878480
-10.077857 1.426290 1.196005 0.000000000000000e+00 1851878480
-9.103681 -0.427676 1.108246 0.000000000000000e+00 1701537140
-9.040723 -0.211449 1.100582 0.000000000000000e+00 1701537140
-9.412342 0.000000 1.145822 0.000000000000000e+00 1701537140
-8.946605 0.209247 1.089125 0.000000000000000e+00 1701537140
-9.882508 0.464264 1.203058 0.000000000000000e+00 1701537140
-9.089700 0.640306 1.106544 0.000000000000000e+00 1701537140
-9.108107 0.856017 1.108785 0.000000000000000e+00 1851878480
-9.260138 1.090896 1.127293 0.000000000000000e+00 1851878480
-10.070994 1.425835 1.226004 0.000000000000000e+00 1851878480
-9.104567 -0.427876 1.136231 0.000000000000000e+00 1701537140
-9.137556 -0.213793 1.140348 0.000000000000000e+00 1701537140
-9.438903 0.000000 1.177956 0.000000000000000e+00 1701537140
-8.986517 0.210259 1.121498 0.000000000000000e+00 1701537140
-9.881895 0.464408 1.233240 0.000000000000000e+00 1701537140
-9.085305 0.640235 1.133827 0.000000000000000e+00 1701537140
-9.124903 0.857915 1.138769 0.000000000000000e+00 1851878480
-9.264512 1.091817 1.156192 0.000000000000000e+00 1851878480
-10.044264 1.422580 1.253503 0.000000000000000e+00 1851878480
-9.086667 -0.427198 1.161835 0.000000000000000e+00 1701537140
-9.099752 -0.212989 1.163509 0.000000000000000e+00 1701537140
-9.438206 0.000000 1.206784 0.000000000000000e+00 1701537140
-9.392824 0.219849 1.200981 0.000000000000000e+00 1701537140
-9.607855 0.451701 1.228475 0.000000000000000e+00 1701537140
-9.098975 0.641442 1.163409 0.000000000000000e+00 1701537140
-9.129551 0.858679 1.167318 0.000000000000000e+00 1851878480
-9.269451 1.092815 1.185206 0.000000000000000e+00 1851878480
-10.054461 1.424567 1.285579 0.000000000000000e+00 1851878480
-9.110968 -0.428508 1.192881 0.000000000000000e+00 1701537140
-9.099800 -0.213074 1.191419 0.000000000000000e+00 1701537140
-9.429764 0.000000 1.234621 0.000000000000000e+00 1701537140
-9.405622 0.220234 1.231460 0.000000000000000e+00 1701537140
-9.609066 0.451934 1.258096 0.000000000000000e+00 1701537140
-9.092109 0.641208 1.190412 0.000000000000000e+00 1701537140
-9.134465 0.859476 1.195958 0.000000000000000e+00 1851878480
-9.282681 1.094802 1.215363 0.000000000000000e+00 1851878480
-10.054690 1.425155 1.316441 0.000000000000000e+00 1851878480
-9.107373 -0.428510 1.220361 0.000000000000000e+00 1701537140
-9.078811 -0.212667 1.216533 0.000000000000000e+00 1701537140
-9.385992 0.000000 1.257694 0.000000000000000e+00 1701537140
-9.386150 0.219866 1.257716 0.000000000000000e+00 1701537140
-9.638245 0.453488 1.291496 0.000000000000000e+00 1701537140
-9.106551 0.642483 1.220250 0.000000000000000e+00 1701537140
-9.161582 0.862372 1.227624 0.000000000000000e+00 1851878480
-9.310823 1.098560 1.247622 0.000000000000000e+00 1851878480
-10.035034 1.422937 1.344664 0.000000000000000e+00 1851878480
-9.109886 -0.428803 1.248677 0.000000000000000e+00 1701537140
-9.069990 -0.212547 1.243209 0.000000000000000e+00 1701537140
-9.208266 0.000000 1.262162 0.000000000000000e+00 1701537140
-9.315858 0.218309 1.276909 0.000000000000000e+00 1701537140
-9.328940 0.439114 1.278703 0.000000000000000e+00 1701537140
-9.136454 0.644857 1.252319 0.000000000000000e+00 1701537140
-9.177652 0.864238 1.257966 0.000000000000000e+00 1851878480
-9.318880 1.099960 1.277324 0.000000000000000e+00 1851878480
-10.039667 1.424176 1.376121 0.000000000000000e+00 1851878480
-9.123492 -0.429623 1.278587 0.000000000000000e+00 1701537140
-9.479646 -0.222240 1.328499 0.000000000000000e+00 1701537140
-9.175219 0.000000 1.285836 0.000000000000000e+00 1701537140
-9.218490 0.216118 1.291900 0.000000000000000e+00 1701537140
-9.300059 0.437938 1.303332 0.000000000000000e+00 1701537140
-9.144769 0.645713 1.281569 0.000000000000000e+00 1701537140
-9.184614 0.865255 1.287153 0.000000000000000e+00 1851878480
-9.334528 1.102268 1.308162 0.000000000000000e+00 1851878480
-10.018992 1.421838 1.404085 0.000000000000000e+00 1851878480
-9.145620 -0.430849 1.309825 0.000000000000000e+00 1701537140
-9.510986 -0.223070 1.362152 0.000000000000000e+00 1701537140
-9.176516 0.000000 1.314250 0.000000000000000e+00 1701537140
-9.173607 0.215157 1.313833 0.000000000000000e+00 1701537140
-9.274404 0.436916 1.328269 0.000000000000000e+00 1701537140
-9.148509 0.646254 1.310239 0.000000000000000e+00 1701537140
-9.193496 0.866462 1.316682 0.000000000000000e+00 1851878480
-9.344639 1.103933 1.338328 0.000000000000000e+00 1851878480
-10.027688 1.423680 1.436154 0.000000000000000e+00 1851878480
-9.147037 -0.431104 1.338194 0.000000000000000e+00 1701537140
-9.525300 -0.223503 1.393533 0.000000000000000e+00 1701537140
-9.193232 0.000000 1.344952 0.000000000000000e+00 1701537140
-9.140324 0.214470 1.337211 0.000000000000000e+00 1701537140
-9.326965 0.439584 1.364517 0.000000000000000e+00 1701537140
-9.168379 0.647940 1.341316 0.000000000000000e+00 1701537140
-9.193223 0.866815 1.344950 0.000000000000000e+00 1851878480
-9.362613 1.106540 1.369732 0.000000000000000e+00 1851878480
-10.036683 1.425579 1.468347 0.000000000000000e+00 1851878480
-9.162014 -0.432003 1.368617 0.000000000000000e+00 1701537140
-9.547766 -0.224131 1.426240 0.000000000000000e+00 1701537140
-9.208967 0.000000 1.375631 0.000000000000000e+00 1701537140
-9.170631 0.215277 1.369904 0.000000000000000e+00 1701537140
-9.319603 0.439433 1.392157 0.000000000000000e+00 1701537140
-9.186235 0.649491 1.372235 0.000000000000000e+00 1701537140
-9.225535 0.870249 1.378106 0.000000000000000e+00 1851878480
-9.399164 1.111355 1.404042 0.000000000000000e+00 1851878480
-10.040811 1.426801 1.499891 0.000000000000000e+00 1851878480
-9.179630 -0.433030 1.399565 0.000000000000000e+00 1701537140
-9.798573 -0.230123 1.493931 0.000000000000000e+00 1701537140
-9.196568 0.000000 1.402147 0.000000000000000e+00 1701537140
-9.154087 0.214987 1.395670 0.000000000000000e+00 1701537140
-9.901542 0.467085 1.509630 0.000000000000000e+00 1701537140
-9.199514 0.650726 1.402596 0.000000000000000e+00 1701537140
-9.229118 0.870984 1.407110 0.000000000000000e+00 1851878480
-9.389651 1.110735 1.431585 0.000000000000000e+00 1851878480
-10.025501 1.425275 1.528530 0.000000000000000e+00 1851878480
-9.186985 -0.433579 1.429051 0.000000000000000e+00 1701537140
-9.771958 -0.229604 1.520045 0.000000000000000e+00 1701537140
-9.204868 0.000000 1.431833 0.000000000000000e+00 1701537140
-9.177149 0.215629 1.427521 0.000000000000000e+00 1701537140
-9.872742 0.465943 1.535722 0.000000000000000e+00 1701537140
-9.225809 0.652890 1.435090 0.000000000000000e+00 1701537140
-9.246158 0.872997 1.438255 0.000000000000000e+00 1851878480
-9.417016 1.114490 1.464833 0.000000000000000e+00 1851878480
-10.010580 1.423814 1.557163 0.000000000000000e+00 1851878480
-9.223274 -0.435497 1.463200 0.000000000000000e+00 1701537140
-9.304220 -0.218718 1.476041 0.000000000000000e+00 1701537140
-9.242098 0.000000 1.466186 0.000000000000000e+00 1701537140
-9.210603 0.216517 1.461190 0.000000000000000e+00 1701537140
-9.853073 0.465235 1.563112 0.000000000000000e+00 1701537140
-9.237168 0.654003 1.465404 0.000000000000000e+00 1701537140
-9.261212 0.874833 1.469218 0.000000000000000e+00 1851878480
-9.442623 1.118050 1.497998 0.000000000000000e+00 1851878480
-10.025519 1.426615 1.590470 0.000000000000000e+00 1851878480
-11.723399 1.950170 1.859825 0.000000000000000e+00 1851878480
-9.234115 -0.436220 1.493484 0.000000000000000e+00 1701537140
-9.263255 -0.217860 1.498197 0.000000000000000e+00 1701537140
-9.607566 0.000000 1.553885 0.000000000000000e+00 1701537140
-9.245368 0.217440 1.495304 0.000000000000000e+00 1701537140
-9.826818 0.464219 1.589345 0.000000000000000e+00 1701537140
-9.237728 0.654359 1.494069 0.000000000000000e+00 1701537140
-9.267456 0.875846 1.498877 0.000000000000000e+00 1851878480
-9.430241 1.117124 1.525205 0.000000000000000e+00 1851878480
-10.046212 1.430251 1.624829 0.000000000000000e+00 1851878480
-11.670558 1.942318 1.887544 0.000000000000000e+00 1851878480
-9.243047 -0.436857 1.523549 0.000000000000000e+00 1701537140
-9.221445 -0.216984 1.519988 0.000000000000000e+00 1701537140
-9.647177 0.000000 1.590163 0.000000000000000e+00 1701537140
-9.225241 0.217073 1.520614 0.000000000000000e+00 1701537140
-9.806305 0.463479 1.616392 0.000000000000000e+00 1701537140
-9.264716 0.656594 1.527121 0.000000000000000e+00 1701537140
-9.296770 0.879049 1.532404 0.000000000000000e+00 1851878480
-9.480084 1.123581 1.562621 0.000000000000000e+00 1851878480
-10.062731 1.433308 1.658659 0.000000000000000e+00 1851878480
-11.608212 1.932894 1.913404 0.000000000000000e+00 1851878480
-9.261333 -0.437941 1.555269 0.000000000000000e+00 1701537140
-9.251342 -0.217796 1.553591 0.000000000000000e+00 1701537140
-9.817108 0.000000 1.648601 0.000000000000000e+00 1701537140
-9.743470 0.229382 1.636235 0.000000000000000e+00 1701537140
-9.507655 0.449589 1.596634 0.000000000000000e+00 1701537140
-9.283830 0.658279 1.559047 0.000000000000000e+00 1701537140
-9.296514 0.879466 1.561177 0.000000000000000e+00 1851878480
-9.502113 1.126758 1.595703 0.000000000000000e+00 1851878480
-10.069765 1.435030 1.691030 0.000000000000000e+00 1851878480
-11.532875 1.921313 1.936732 0.000000000000000e+00 1851878480
-9.292396 -0.439635 1.589311 0.000000000000000e+00 1701537140
-9.275833 -0.218485 1.586479 0.000000000000000e+00 1701537140
-9.767729 0.000000 1.670609 0.000000000000000e+00 1701537140
-9.693510 0.228323 1.657915 0.000000000000000e+00 1701537140
-9.446754 0.446937 1.615712 0.000000000000000e+00 1701537140
-9.312968 0.660682 1.592830 0.000000000000000e+00 1701537140
-9.335806 0.883635 1.596736 0.000000000000000e+00 1851878480
-9.541907 1.132055 1.631986 0.000000000000000e+00 1851878480
-10.078324 1.436984 1.723732 0.000000000000000e+00 1851878480
-11.474833 1.912621 1.962581 0.000000000000000e+00 1851878480
-9.291602 -0.439826 1.618034 0.000000000000000e+00 1701537140
-9.258872 -0.218199 1.612334 0.000000000000000e+00 1701537140
-9.744346 0.000000 1.696874 0.000000000000000e+00 1701537140
-9.658997 0.227628 1.682012 0.000000000000000e+00 1701537140
-9.438108 0.446761 1.643546 0.000000000000000e+00 1701537140
-9.323736 0.661791 1.623630 0.000000000000000e+00 1701537140
-9.369815 0.887315 1.631654 0.000000000000000e+00 1851878480
-9.540657 1.132496 1.661404 0.000000000000000e+00 1851878480
-10.087897 1.439098 1.756700 0.000000000000000e+00 1851878480
-11.437049 1.907316 1.991641 0.000000000000000e+00 1851878480
-9.331903 -0.441968 1.654066 0.000000000000000e+00 1701537140
-9.551753 -0.225220 1.693033 0.000000000000000e+00 1701537140
-9.381412 0.000000 1.662841 0.000000000000000e+00 1701537140
-9.637398 0.227240 1.708214 0.000000000000000e+00 1701537140
-9.481589 0.449057 1.680597 0.000000000000000e+00 1701537140
-9.377593 0.665966 1.662164 0.000000000000000e+00 1701537140
-9.390260 0.889723 1.664409 0.000000000000000e+00 1851878480
-9.556976 1.135034 1.693960 0.000000000000000e+00 1851878480
-10.108583 1.442813 1.791731 0.000000000000000e+00 1851878480
-11.373719 1.897760 2.015974 0.000000000000000e+00 1851878480
-9.380647 -0.444516 1.691902 0.000000000000000e+00 1701537140
-9.472309 -0.223467 1.708434 0.000000000000000e+00 1701537140
-9.378043 0.000000 1.691432 0.000000000000000e+00 1701537140
-9.613874 0.226807 1.733967 0.000000000000000e+00 1701537140
-9.559348 0.452984 1.724133 0.000000000000000e+00 1701537140
-9.382935 0.666705 1.692314 0.000000000000000e+00 1701537140
-9.429196 0.893894 1.700658 0.000000000000000e+00 1851878480
-9.582429 1.138671 1.728295 0.000000000000000e+00 1851878480
-10.134593 1.447305 1.827884 0.000000000000000e+00 1851878480
-11.225077 1.873969 2.024565 0.000000000000000e+00 1634431585
-9.433010 -0.222662 1.730738 0.000000000000000e+00 1701537140
-9.372200 0.000000 1.719580 0.000000000000000e+00 1701537140
-9.575841 0.226034 1.756944 0.000000000000000e+00 1701537140
-9.547822 0.452686 1.751803 0.000000000000000e+00 1701537140
-9.634607 0.684963 1.767726 0.000000000000000e+00 1851878480
-9.430707 0.894528 1.730315 0.000000000000000e+00 1851878480
-9.605074 1.141988 1.762307 0.000000000000000e+00 1851878480
-10.159634 1.451678 1.864056 0.000000000000000e+00 1851878480
-11.038726 1.843869 2.025349 0.000000000000000e+00 1634431585
-9.393687 -0.221858 1.752824 0.000000000000000e+00 1701537140
-9.363879 0.000000 1.747262 0.000000000000000e+00 1701537140
-9.551755 0.225591 1.782319 0.000000000000000e+00 1701537140
-9.578001 0.454370 1.787216 0.000000000000000e+00 1701537140
-9.597467 0.682704 1.790849 0.000000000000000e+00 1851878480
-9.463797 0.898167 1.765906 0.000000000000000e+00 1851878480
-9.647141 1.147630 1.800118 0.000000000000000e+00 1851878480
-10.179950 1.455393 1.899538 0.000000000000000e+00 1851878480
-10.941138 1.828589 2.041572 0.000000000000000e+00 1634431585
-9.407697 -0.222315 1.784817 0.000000000000000e+00 1701537140
-9.362885 0.000000 1.776315 0.000000000000000e+00 1701537140
-9.486121 0.224168 1.799695 0.000000000000000e+00 1701537140
-9.550736 0.453334 1.811954 0.000000000000000e+00 1701537140
-9.542029 0.679146 1.810302 0.000000000000000e+00 1851878480
-9.504458 0.902538 1.803174 0.000000000000000e+00 1851878480
-9.656059 1.149343 1.831936 0.000000000000000e+00 1851878480
-10.176205 1.455683 1.930617 0.000000000000000e+00 1851878480
-10.882206 1.819772 2.064559 0.000000000000000e+00 1634431585
-9.354445 -0.221184 1.803959 0.000000000000000e+00 1701537140
-9.412741 0.000000 1.815201 0.000000000000000e+00 1701537140
-9.438541 0.223173 1.820176 0.000000000000000e+00 1701537140
-9.531879 0.452700 1.838176 0.000000000000000e+00 1701537140
-9.513690 0.677519 1.834669 0.000000000000000e+00 1851878480
-9.526480 0.905152 1.837135 0.000000000000000e+00 1851878480
-9.679277 1.152772 1.866601 0.000000000000000e+00 1851878480
-10.219391 1.462704 1.970760 0.000000000000000e+00 1851878480
-10.530169 1.761919 2.030691 0.000000000000000e+00 1851878480
-9.383204 -0.221994 1.838869 0.000000000000000e+00 1701537140
-9.435498 0.000000 1.849118 0.000000000000000e+00 1701537140
-9.396135 0.222300 1.841404 0.000000000000000e+00 1701537140
-9.549612 0.453808 1.871481 0.000000000000000e+00 1701537140
-9.478114 0.675382 1.857469 0.000000000000000e+00 1851878480
-9.557227 0.908606 1.872974 0.000000000000000e+00 1851878480
-9.691652 1.154922 1.899318 0.000000000000000e+00 1851878480
-10.205064 1.461510 1.999933 0.000000000000000e+00 1851878480
-10.547930 1.765926 2.067126 0.000000000000000e+00 1851878480
-9.420929 -0.223020 1.875785 0.000000000000000e+00 1701537140
-9.666987 0.000000 1.924777 0.000000000000000e+00 1701537140
-9.398393 0.222486 1.871297 0.000000000000000e+00 1701537140
-9.610252 0.456962 1.913481 0.000000000000000e+00 1701537140
-9.457881 0.674341 1.883142 0.000000000000000e+00 1851878480
-9.569097 0.910276 1.905286 0.000000000000000e+00 1851878480
-9.738226 1.161164 1.938961 0.000000000000000e+00 1851878480
-10.240664 1.467483 2.039001 0.000000000000000e+00 1851878480
-10.559454 1.768909 2.102475 0.000000000000000e+00 1851878480
-9.420710 0.000000 1.905298 0.000000000000000e+00 1701537140
-9.383237 0.222262 1.897720 0.000000000000000e+00 1701537140
-9.766944 0.464694 1.975323 0.000000000000000e+00 1851878480
-9.436064 0.673193 1.908404 0.000000000000000e+00 1851878480
-9.593029 0.913105 1.940149 0.000000000000000e+00 1851878480
-9.758311 1.164263 1.973577 0.000000000000000e+00 1851878480
-10.246465 1.469203 2.072304 0.000000000000000e+00 1851878480
-10.554747 1.769191 2.134652 0.000000000000000e+00 1851878480
-9.444157 0.000000 1.939707 0.000000000000000e+00 1701537140
-9.387638 0.222503 1.928099 0.000000000000000e+00 1701537140
-9.737488 0.463577 1.999954 0.000000000000000e+00 1851878480
-9.469445 0.675990 1.944901 0.000000000000000e+00 1851878480
-9.611512 0.915427 1.974080 0.000000000000000e+00 1851878480
-9.791779 1.168975 2.011104 0.000000000000000e+00 1851878480
-10.288013 1.476068 2.113024 0.000000000000000e+00 1851878480
-10.577024 1.774015 2.172383 0.000000000000000e+00 1851878480
-9.736356 0.000000 2.030344 0.000000000000000e+00 1851878480
-9.634068 0.228486 2.009013 0.000000000000000e+00 1851878480
-9.695907 0.461886 2.021909 0.000000000000000e+00 1851878480
-9.496110 0.678317 1.980245 0.000000000000000e+00 1851878480
-9.647637 0.919442 2.011843 0.000000000000000e+00 1851878480
-9.801414 1.170855 2.043910 0.000000000000000e+00 1851878480
-10.266178 1.473854 2.140829 0.000000000000000e+00 1851878480
-10.582917 1.776112 2.206879 0.000000000000000e+00 1851878480
-9.695800 0.000000 2.052420 0.000000000000000e+00 1851878480
-9.570366 0.227119 2.025868 0.000000000000000e+00 1851878480
-9.677167 0.461286 2.048476 0.000000000000000e+00 1851878480
-9.529585 0.681140 2.017235 0.000000000000000e+00 1851878480
-9.665525 0.921730 2.046011 0.000000000000000e+00 1851878480
-9.843314 1.176606 2.083646 0.000000000000000e+00 1851878480
-10.278463 1.476554 2.175759 0.000000000000000e+00 1851878480
-10.590937 1.778584 2.241903 0.000000000000000e+00 1851878480
-9.641443 0.000000 2.071315 0.000000000000000e+00 1851878480
-9.544992 0.226663 2.050593 0.000000000000000e+00 1851878480
-9.617561 0.458739 2.066184 0.000000000000000e+00 1851878480
-9.568801 0.684383 2.055708 0.000000000000000e+00 1851878480
-9.690085 0.924667 2.081765 0.000000000000000e+00 1851878480
-9.855614 1.178834 2.117326 0.000000000000000e+00 1851878480
-10.320314 1.483520 2.217160 0.000000000000000e+00 1851878480
-10.590951 1.779731 2.275301 0.000000000000000e+00 1851878480
-9.605492 0.000000 2.093913 0.000000000000000e+00 1851878480
-9.509053 0.225957 2.072890 0.000000000000000e+00 1851878480
-9.651255 0.460647 2.103889 0.000000000000000e+00 1851878480
-9.582927 0.685840 2.088994 0.000000000000000e+00 1851878480
-9.723934 0.928503 2.119733 0.000000000000000e+00 1851878480
-9.873326 1.181724 2.152299 0.000000000000000e+00 1851878480
-10.363077 1.490639 2.259060 0.000000000000000e+00 1851878480
-10.605038 1.783262 2.311805 0.000000000000000e+00 1851878480
-9.571336 0.000000 2.116726 0.000000000000000e+00 1851878480
-9.469472 0.225165 2.094199 0.000000000000000e+00 1851878480
-9.676492 0.462157 2.139982 0.000000000000000e+00 1851878480
-9.601416 0.687619 2.123379 0.000000000000000e+00 1851878480
-9.727827 0.929490 2.151335 0.000000000000000e+00 1851878480
-9.898515 1.185523 2.189083 0.000000000000000e+00 1851878480
-10.373534 1.493132 2.294135 0.000000000000000e+00 1851878480
-10.616997 1.786455 2.347977 0.000000000000000e+00 1851878480
-9.620295 0.000000 2.158008 0.000000000000000e+00 1851878480
-9.512397 0.226338 2.133804 0.000000000000000e+00 1851878480
-9.730487 0.465048 2.182726 0.000000000000000e+00 1851878480
-9.600233 0.687996 2.153507 0.000000000000000e+00 1851878480
-9.758719 0.933068 2.189059 0.000000000000000e+00 1851878480
-9.899293 1.186413 2.220592 0.000000000000000e+00 1851878480
-10.391442 1.496714 2.330990 0.000000000000000e+00 1851878480
-10.632468 1.790261 2.385057 0.000000000000000e+00 1851878480
-9.642351 0.000000 2.193521 0.000000000000000e+00 1851878480
-9.561464 0.227661 2.175120 0.000000000000000e+00 1851878480
-9.755375 0.466556 2.219233 0.000000000000000e+00 1851878480
-9.648805 0.691948 2.194989 0.000000000000000e+00 1851878480
-9.781710 0.935904 2.225224 0.000000000000000e+00 1851878480
-9.925076 1.190314 2.257837 0.000000000000000e+00 1851878480
-10.403227 1.499433 2.366611 0.000000000000000e+00 1851878480
-10.625118 1.790242 2.417089 0.000000000000000e+00 1851878480
-9.652514 0.000000 2.226472 0.000000000000000e+00 1851878480
-9.582016 0.228308 2.210211 0.000000000000000e+00 1851878480
-9.775280 0.467831 2.254790 0.000000000000000e+00 1851878480
-9.672649 0.694138 2.231117 0.000000000000000e+00 1851878480
-9.781777 0.936557 2.256289 0.000000000000000e+00 1851878480
-9.954604 1.194680 2.296153 0.000000000000000e+00 1851878480
-10.428126 1.504061 2.405377 0.000000000000000e+00 1851878480
-10.646353 1.795060 2.455714 0.000000000000000e+00 1851878480
-9.709279 0.000000 2.270429 0.000000000000000e+00 1851878480
-9.592152 0.228709 2.243040 0.000000000000000e+00 1851878480
-9.773818 0.468089 2.285521 0.000000000000000e+00 1851878480
-9.683194 0.695381 2.264329 0.000000000000000e+00 1851878480
-9.808392 0.939763 2.293605 0.000000000000000e+00 1851878480
-9.955714 1.195651 2.328055 0.000000000000000e+00 1851878480
-10.462925 1.510137 2.446662 0.000000000000000e+00 1851878480
-10.662063 1.798968 2.493229 0.000000000000000e+00 1851878480
-9.717230 0.000000 2.303220 0.000000000000000e+00 1851878480
-9.629889 0.229772 2.282518 0.000000000000000e+00 1851878480
-9.797853 0.469573 2.322329 0.000000000000000e+00 1851878480
-9.715286 0.698182 2.302759 0.000000000000000e+00 1851878480
-9.826344 0.942152 2.329082 0.000000000000000e+00 1851878480
-9.996434 1.201394 2.369398 0.000000000000000e+00 1851878480
-10.499037 1.516425 2.488527 0.000000000000000e+00 1851878480
-10.654307 1.798937 2.525330 0.000000000000000e+00 1851878480
-9.748459 0.000000 2.341692 0.000000000000000e+00 1851878480
-9.638925 0.230153 2.315381 0.000000000000000e+00 1851878480
-9.842493 0.472052 2.364280 0.000000000000000e+00 1851878480
-9.731045 0.699817 2.337509 0.000000000000000e+00 1851878480
-9.848758 0.944981 2.365785 0.000000000000000e+00 1851878480
-9.996736 1.202295 2.401331 0.000000000000000e+00 1851878480
-10.506995 1.518667 2.523901 0.000000000000000e+00 1851878480
-10.688292 1.805974 2.567451 0.000000000000000e+00 1851878480
