# .PCD v0.7 - Point Cloud Data file format
VERSION 0.7
FIELDS x y z rgb label
SIZE 4 4 4 4 4
TYPE F F F F U
COUNT 1 1 1 1 1
WIDTH 753
HEIGHT 1
VIEWPOINT 0 0 0 1 0 0 0
POINTS 753
DATA ascii
-1.453009 0.000000 -14.120256 0.000000000000000e+00 1851878480
-1.524671 0.345816 -14.816664 0.000000000000000e+00 1851878480
-1.474905 -0.978871 -13.920586 0.000000000000000e+00 1851878480
-1.471924 -0.651488 -13.892454 0.000000000000000e+00 1851878480
-1.502493 -0.331083 -14.180972 0.000000000000000e+00 1851878480
-1.488596 0.000000 -14.049807 0.000000000000000e+00 1851878480
-1.561787 0.344149 -14.740607 0.000000000000000e+00 1851878480
-1.509799 -0.974299 -13.851088 0.000000000000000e+00 1851878480
-1.519068 -0.653747 -13.936124 0.000000000000000e+00 1851878480
-1.531399 -0.328114 -14.049255 0.000000000000000e+00 1851878480
-1.523559 0.000000 -13.977325 0.000000000000000e+00 1851878480
-1.598773 0.342550 -14.667349 0.000000000000000e+00 1851878480
-1.544385 -0.969792 -13.782414 0.000000000000000e+00 1851878480
-1.570932 -0.657869 -14.019320 0.000000000000000e+00 1851878480
-1.563391 -0.325952 -13.952026 0.000000000000000e+00 1851878480
-1.558155 0.000000 -13.905295 0.000000000000000e+00 1851878480
-1.635591 0.341005 -14.596349 0.000000000000000e+00 1851878480
-1.580969 -0.966749 -13.734458 0.000000000000000e+00 1851878480
-1.606166 -0.654998 -13.953351 0.000000000000000e+00 1851878480
-1.597390 -0.324313 -13.877108 0.000000000000000e+00 1851878480
-1.592419 0.000000 -13.833925 0.000000000000000e+00 1851878480
-1.677923 0.340664 -14.576735 0.000000000000000e+00 1851878480
-1.634429 -0.973926 -13.831553 0.000000000000000e+00 1851878480
-1.637149 -0.650590 -13.854568 0.000000000000000e+00 1851878480
-1.631477 -0.322778 -13.806567 0.000000000000000e+00 1851878480
-1.626324 0.000000 -13.762959 0.000000000000000e+00 1851878480
-1.724951 0.341271 -14.597606 0.000000000000000e+00 1851878480
-1.675274 -0.973424 -13.819440 0.000000000000000e+00 1851878480
-1.670308 -0.647250 -13.778475 0.000000000000000e+00 1851878480
-1.665191 -0.321250 -13.736262 0.000000000000000e+00 1851878480
-1.659633 0.000000 -13.690413 0.000000000000000e+00 1851878480
-1.757852 0.339127 -14.500631 0.000000000000000e+00 1851878480
-1.709359 -0.969124 -13.753305 0.000000000000000e+00 1851878480
-1.703714 -0.644173 -13.707891 0.000000000000000e+00 1851878480
-1.698369 -0.319699 -13.664881 0.000000000000000e+00 1851878480
-1.692944 0.000000 -13.621234 0.000000000000000e+00 1851878480
-1.790187 0.336983 -14.403645 0.000000000000000e+00 1851878480
-1.845120 0.697638 -14.845623 0.000000000000000e+00 1851878480
-1.742982 -0.964780 -13.686454 0.000000000000000e+00 1851878480
-1.736817 -0.641134 -13.638043 0.000000000000000e+00 1851878480
-1.730996 -0.318123 -13.592341 0.000000000000000e+00 1851878480
-1.726118 0.000000 -13.554033 0.000000000000000e+00 1851878480
-1.822021 0.334851 -14.307099 0.000000000000000e+00 1851878480
-1.866792 0.689114 -14.658656 0.000000000000000e+00 1851878480
-1.776523 -0.960601 -13.621873 0.000000000000000e+00 1851878480
-1.769386 -0.638049 -13.567147 0.000000000000000e+00 1851878480
-1.763181 -0.316543 -13.519567 0.000000000000000e+00 1851878480
-1.759049 0.000000 -13.487885 0.000000000000000e+00 1851878480
-1.853280 0.332718 -14.210421 0.000000000000000e+00 1851878480
-1.898001 0.684428 -14.553332 0.000000000000000e+00 1851878480
-1.809619 -0.956383 -13.556670 0.000000000000000e+00 1851878480
-1.801396 -0.634912 -13.495069 0.000000000000000e+00 1851878480
-1.795029 -0.314978 -13.447371 0.000000000000000e+00 1851878480
-1.791730 0.000000 -13.422662 0.000000000000000e+00 1851878480
-1.884125 0.330611 -14.114832 0.000000000000000e+00 1851878480
-1.932175 0.681006 -14.474799 0.000000000000000e+00 1851878480
-1.841911 -0.951947 -13.488302 0.000000000000000e+00 1851878480
-1.832945 -0.631761 -13.422639 0.000000000000000e+00 1851878480
-1.826604 -0.313438 -13.376208 0.000000000000000e+00 1851878480
-1.824155 0.000000 -13.358274 0.000000000000000e+00 1851878480
-1.915271 0.328653 -14.025517 0.000000000000000e+00 1851878480
-1.965409 0.677418 -14.392673 0.000000000000000e+00 1851878480
-1.873489 -0.947348 -13.417549 0.000000000000000e+00 1851878480
-1.864167 -0.628641 -13.350789 0.000000000000000e+00 1851878480
-1.857936 -0.311927 -13.306165 0.000000000000000e+00 1851878480
-1.856311 0.000000 -13.294532 0.000000000000000e+00 1851878480
-1.946547 0.326804 -13.940779 0.000000000000000e+00 1851878480
-1.998238 0.673853 -14.310980 0.000000000000000e+00 1851878480
-1.904608 -0.942726 -13.346391 0.000000000000000e+00 1851878480
-1.895124 -0.625571 -13.279934 0.000000000000000e+00 1851878480
-1.889015 -0.310441 -13.237124 0.000000000000000e+00 1851878480
-1.888196 0.000000 -13.231389 0.000000000000000e+00 1851878480
-1.977660 0.325008 -13.858297 0.000000000000000e+00 1851878480
-2.030977 0.670416 -14.231916 0.000000000000000e+00 1851878480
-1.935393 -0.938142 -13.275728 0.000000000000000e+00 1851878480
-1.925855 -0.622562 -13.210305 0.000000000000000e+00 1851878480
-1.919826 -0.308976 -13.168944 0.000000000000000e+00 1851878480
-1.919803 0.000000 -13.168787 0.000000000000000e+00 1851878480
-2.008553 0.323256 -13.777567 0.000000000000000e+00 1851878480
-2.063393 0.667023 -14.153738 0.000000000000000e+00 1851878480
-1.965938 -0.933638 -13.206113 0.000000000000000e+00 1851878480
-1.956358 -0.619607 -13.141759 0.000000000000000e+00 1851878480
-1.950441 -0.307542 -13.102010 0.000000000000000e+00 1851878480
-1.951142 0.000000 -13.106720 0.000000000000000e+00 1851878480
-2.039239 0.321544 -13.698510 0.000000000000000e+00 1851878480
-2.095419 0.663650 -14.075896 0.000000000000000e+00 1851878480
-1.996256 -0.929214 -13.137585 0.000000000000000e+00 1851878480
-1.986624 -0.616701 -13.074196 0.000000000000000e+00 1851878480
-1.980805 -0.306129 -13.035900 0.000000000000000e+00 1851878480
-1.982199 0.000000 -13.045072 0.000000000000000e+00 1851878480
-2.069798 0.319883 -13.621571 0.000000000000000e+00 1851878480
-2.127074 0.660300 -13.998509 0.000000000000000e+00 1851878480
-2.026347 -0.924868 -13.070078 0.000000000000000e+00 1851878480
-2.016677 -0.613849 -13.007706 0.000000000000000e+00 1851878480
-2.010947 -0.304740 -12.970747 0.000000000000000e+00 1851878480
-2.012975 0.000000 -12.983830 0.000000000000000e+00 1851878480
-2.100219 0.318269 -13.546557 0.000000000000000e+00 1851878480
-2.158362 0.656976 -13.921585 0.000000000000000e+00 1851878480
-2.056239 -0.920608 -13.003740 0.000000000000000e+00 1851878480
-2.046531 -0.611053 -12.942345 0.000000000000000e+00 1851878480
-2.040880 -0.303376 -12.906605 0.000000000000000e+00 1851878480
-2.043470 0.000000 -12.922986 0.000000000000000e+00 1851878480
-2.130565 0.316708 -13.473780 0.000000000000000e+00 1851878480
-2.189301 0.653681 -13.845228 0.000000000000000e+00 1851878480
-2.085935 -0.916428 -12.938466 0.000000000000000e+00 1851878480
-2.076166 -0.608302 -12.877869 0.000000000000000e+00 1851878480
-2.070585 -0.302033 -12.843250 0.000000000000000e+00 1851878480
-2.073686 0.000000 -12.862491 0.000000000000000e+00 1851878480
-2.160881 0.315204 -13.403336 0.000000000000000e+00 1851878480
-2.219980 0.650439 -13.769912 0.000000000000000e+00 1851878480
-2.115411 -0.912315 -12.874076 0.000000000000000e+00 1851878480
-2.105628 -0.605608 -12.814537 0.000000000000000e+00 1851878480
-2.100158 -0.300722 -12.781248 0.000000000000000e+00 1851878480
-2.103631 0.000000 -12.802388 0.000000000000000e+00 1851878480
-2.191133 0.313749 -13.334910 0.000000000000000e+00 1851878480
-2.250400 0.647246 -13.695598 0.000000000000000e+00 1851878480
-2.132311 -1.204815 -12.736733 0.000000000000000e+00 1851878480
-2.144738 -0.908297 -12.810961 0.000000000000000e+00 1851878480
-2.134897 -0.602962 -12.752179 0.000000000000000e+00 1851878480
-2.129509 -0.299431 -12.719996 0.000000000000000e+00 1851878480
-2.133326 0.000000 -12.742794 0.000000000000000e+00 1851878480
-2.221303 0.312338 -13.268297 0.000000000000000e+00 1851878480
-2.280653 0.644128 -13.622810 0.000000000000000e+00 1851878480
-2.162025 -1.199992 -12.679281 0.000000000000000e+00 1851878480
-2.173869 -0.904346 -12.748742 0.000000000000000e+00 1851878480
-2.163976 -0.600362 -12.690724 0.000000000000000e+00 1851878480
-2.158807 -0.298180 -12.660406 0.000000000000000e+00 1851878480
-2.162775 0.000000 -12.683678 0.000000000000000e+00 1851878480
-2.251384 0.310967 -13.203331 0.000000000000000e+00 1851878480
-2.310776 0.641089 -13.551635 0.000000000000000e+00 1851878480
-2.191570 -1.195254 -12.622674 0.000000000000000e+00 1851878480
-2.202810 -0.900463 -12.687411 0.000000000000000e+00 1851878480
-2.192937 -0.597826 -12.630548 0.000000000000000e+00 1851878480
-2.187920 -0.296950 -12.601650 0.000000000000000e+00 1851878480
-2.191992 0.000000 -12.625105 0.000000000000000e+00 1851878480
-2.281339 0.309629 -13.139714 0.000000000000000e+00 1851878480
-2.340774 0.638128 -13.482038 0.000000000000000e+00 1851878480
-2.220932 -1.190592 -12.566791 0.000000000000000e+00 1851878480
-2.231599 -0.896659 -12.627149 0.000000000000000e+00 1851878480
-2.221701 -0.595328 -12.571144 0.000000000000000e+00 1851878480
-2.217010 -0.295762 -12.544602 0.000000000000000e+00 1851878480
-2.220995 0.000000 -12.567146 0.000000000000000e+00 1851878480
-2.151622 0.287039 -12.174614 0.000000000000000e+00 1768716611
-2.370654 0.635242 -13.413970 0.000000000000000e+00 1851878480
-2.250113 -1.186002 -12.511624 0.000000000000000e+00 1851878480
-2.260179 -0.892910 -12.567590 0.000000000000000e+00 1851878480
-2.250392 -0.592902 -12.513172 0.000000000000000e+00 1851878480
-2.246008 -0.294605 -12.488798 0.000000000000000e+00 1851878480
-2.249776 0.000000 -12.509746 0.000000000000000e+00 1851878480
-2.183877 0.286455 -12.143319 0.000000000000000e+00 1768716611
-2.400426 0.632430 -13.347425 0.000000000000000e+00 1851878480
-2.279136 -1.181491 -12.457216 0.000000000000000e+00 1851878480
-2.288621 -0.889238 -12.509059 0.000000000000000e+00 1851878480
-2.278944 -0.590523 -12.456165 0.000000000000000e+00 1851878480
-2.275011 -0.293488 -12.434672 0.000000000000000e+00 1851878480
-2.278377 0.000000 -12.453068 0.000000000000000e+00 1851878480
-2.217654 0.286089 -12.121169 0.000000000000000e+00 1768716611
-2.430031 0.629673 -13.281971 0.000000000000000e+00 1851878480
-2.307976 -1.177044 -12.403418 0.000000000000000e+00 1851878480
-2.316904 -0.885632 -12.451400 0.000000000000000e+00 1851878480
-2.307422 -0.588209 -12.400446 0.000000000000000e+00 1851878480
-2.303981 -0.292407 -12.381950 0.000000000000000e+00 1851878480
-2.306789 0.000000 -12.397042 0.000000000000000e+00 1851878480
-2.252171 0.285831 -12.103517 0.000000000000000e+00 1768716611
-2.459399 0.626951 -13.217191 0.000000000000000e+00 1851878480
-2.336675 -1.172678 -12.350424 0.000000000000000e+00 1851878480
-2.345017 -0.882085 -12.394518 0.000000000000000e+00 1851878480
-2.335769 -0.585941 -12.345637 0.000000000000000e+00 1851878480
-2.332770 -0.291340 -12.329784 0.000000000000000e+00 1851878480
-2.335064 0.000000 -12.341908 0.000000000000000e+00 1851878480
-2.287194 0.285648 -12.088893 0.000000000000000e+00 1768716611
-2.488471 0.624247 -13.152740 0.000000000000000e+00 1851878480
-2.365187 -1.168369 -12.297965 0.000000000000000e+00 1851878480
-2.372908 -0.878576 -12.338110 0.000000000000000e+00 1851878480
-2.363895 -0.583695 -12.291246 0.000000000000000e+00 1851878480
-2.361411 -0.290291 -12.278331 0.000000000000000e+00 1851878480
-2.363145 0.000000 -12.287350 0.000000000000000e+00 1851878480
-2.322603 0.285520 -12.076548 0.000000000000000e+00 1768716611
-2.517190 0.621547 -13.088319 0.000000000000000e+00 1851878480
-2.393600 -1.164154 -12.246435 0.000000000000000e+00 1851878480
-2.400472 -0.875063 -12.281592 0.000000000000000e+00 1851878480
-2.391805 -0.581471 -12.237248 0.000000000000000e+00 1851878480
-2.389739 -0.289239 -12.226681 0.000000000000000e+00 1851878480
-2.391090 0.000000 -12.233590 0.000000000000000e+00 1851878480
-2.358777 0.285491 -12.068266 0.000000000000000e+00 1768716611
-2.545579 0.618855 -13.024008 0.000000000000000e+00 1851878480
-2.421844 -1.159996 -12.195448 0.000000000000000e+00 1851878480
-2.427628 -0.871518 -12.224574 0.000000000000000e+00 1851878480
-2.419282 -0.579216 -12.182547 0.000000000000000e+00 1851878480
-2.417612 -0.288167 -12.174135 0.000000000000000e+00 1851878480
-2.418879 0.000000 -12.180517 0.000000000000000e+00 1851878480
-2.395688 0.285554 -12.063737 0.000000000000000e+00 1768716611
-2.573691 0.616184 -12.960092 0.000000000000000e+00 1851878480
-2.449964 -1.155916 -12.145220 0.000000000000000e+00 1851878480
-2.454245 -0.867898 -12.166446 0.000000000000000e+00 1851878480
-2.446082 -0.576874 -12.125978 0.000000000000000e+00 1851878480
-2.444925 -0.287064 -12.120241 0.000000000000000e+00 1851878480
-2.446511 0.000000 -12.128105 0.000000000000000e+00 1851878480
-2.433137 0.285680 -12.061806 0.000000000000000e+00 1768716611
-2.601565 0.613542 -12.896753 0.000000000000000e+00 1851878480
-2.477935 -1.151896 -12.095564 0.000000000000000e+00 1851878480
-2.480103 -0.864126 -12.106147 0.000000000000000e+00 1851878480
-2.472219 -0.574452 -12.067664 0.000000000000000e+00 1851878480
-2.471619 -0.285925 -12.064734 0.000000000000000e+00 1851878480
-2.474044 0.000000 -12.076572 0.000000000000000e+00 1851878480
-2.470908 0.285843 -12.061261 0.000000000000000e+00 1768716611
-2.629231 0.610936 -12.834088 0.000000000000000e+00 1851878480
-2.505735 -1.147925 -12.046359 0.000000000000000e+00 1851878480
-2.505341 -0.860259 -12.044467 0.000000000000000e+00 1851878480
-2.497654 -0.571945 -12.007513 0.000000000000000e+00 1851878480
-2.497681 -0.284749 -12.007640 0.000000000000000e+00 1851878480
-2.501419 0.000000 -12.025608 0.000000000000000e+00 1851878480
-2.509373 0.286082 -12.063848 0.000000000000000e+00 1768716611
-2.656665 0.608357 -12.771961 0.000000000000000e+00 1851878480
-2.533377 -1.144006 -11.997650 0.000000000000000e+00 1851878480
-2.530126 -0.856356 -11.982251 0.000000000000000e+00 1851878480
-2.522456 -0.569371 -11.945931 0.000000000000000e+00 1851878480
-2.523192 -0.283548 -11.949414 0.000000000000000e+00 1851878480
-2.528684 0.000000 -11.975427 0.000000000000000e+00 1851878480
-2.549144 0.286464 -12.072322 0.000000000000000e+00 1768716611
-2.683845 0.605800 -12.710241 0.000000000000000e+00 1851878480
-2.560805 -1.140114 -11.949161 0.000000000000000e+00 1851878480
-2.554457 -0.852421 -11.919542 0.000000000000000e+00 1851878480
-2.545145 -0.566405 -11.876086 0.000000000000000e+00 1851878480
-2.547715 -0.282273 -11.888083 0.000000000000000e+00 1851878480
-2.555780 0.000000 -11.925714 0.000000000000000e+00 1851878480
-2.592921 0.287282 -12.099020 0.000000000000000e+00 1768716611
-2.710797 0.603270 -12.649049 0.000000000000000e+00 1851878480
-2.588027 -1.136248 -11.900896 0.000000000000000e+00 1851878480
-2.578193 -0.848406 -11.855673 0.000000000000000e+00 1851878480
-2.567216 -0.563391 -11.805195 0.000000000000000e+00 1851878480
-2.571856 -0.280995 -11.826531 0.000000000000000e+00 1851878480
-2.582690 0.000000 -11.876354 0.000000000000000e+00 1851878480
-2.680938 0.292913 -12.328140 0.000000000000000e+00 1851878480
-2.737550 0.600772 -12.588468 0.000000000000000e+00 1851878480
-2.615010 -1.132395 -11.852701 0.000000000000000e+00 1851878480
-2.601694 -0.844432 -11.792348 0.000000000000000e+00 1851878480
-2.588379 -0.560268 -11.731997 0.000000000000000e+00 1851878480
-2.595523 -0.279703 -11.764377 0.000000000000000e+00 1851878480
-2.609351 0.000000 -11.827056 0.000000000000000e+00 1851878480
-2.704707 0.291469 -12.259262 0.000000000000000e+00 1851878480
-2.764084 0.598300 -12.528391 0.000000000000000e+00 1851878480
-2.990802 0.970725 -13.556005 0.000000000000000e+00 1851878480
-2.641644 -1.128508 -11.804106 0.000000000000000e+00 1851878480
-2.614551 -0.837165 -11.683039 0.000000000000000e+00 1851878480
-2.605468 -0.556364 -11.642454 0.000000000000000e+00 1851878480
-2.617727 -0.278293 -11.697234 0.000000000000000e+00 1851878480
-2.635323 0.000000 -11.775859 0.000000000000000e+00 1851878480
-2.733380 0.290588 -12.214024 0.000000000000000e+00 1851878480
-2.790512 0.595878 -12.469317 0.000000000000000e+00 1851878480
-3.024462 0.968416 -13.514712 0.000000000000000e+00 1851878480
-2.667366 -1.124349 -11.752609 0.000000000000000e+00 1851878480
-2.641415 -0.834524 -11.638269 0.000000000000000e+00 1851878480
-2.633900 -0.554959 -11.605157 0.000000000000000e+00 1851878480
-2.638981 -0.276823 -11.627544 0.000000000000000e+00 1851878480
-2.660402 0.000000 -11.721923 0.000000000000000e+00 1851878480
-3.739312 0.392245 -16.475683 0.000000000000000e+00 1851878480
-2.821173 0.594417 -12.430296 0.000000000000000e+00 1851878480
-3.064366 0.968150 -13.501821 0.000000000000000e+00 1851878480
-2.690130 -1.119078 -11.689458 0.000000000000000e+00 1851878480
-2.680157 -0.835663 -11.646121 0.000000000000000e+00 1851878480
-2.673300 -0.555876 -11.616326 0.000000000000000e+00 1851878480
-2.659468 -0.275315 -11.556222 0.000000000000000e+00 1851878480
-2.684657 0.000000 -11.665677 0.000000000000000e+00 1851878480
-3.781722 0.391493 -16.432764 0.000000000000000e+00 1851878480
-2.852930 0.593228 -12.396874 0.000000000000000e+00 1851878480
-3.104330 0.967919 -13.489285 0.000000000000000e+00 1851878480
-2.718798 -1.116378 -11.653111 0.000000000000000e+00 1851878480
-2.665432 -0.820325 -11.424377 0.000000000000000e+00 1701537140
-2.677166 -0.549482 -11.474670 0.000000000000000e+00 1701537140
-2.679489 -0.273800 -11.484626 0.000000000000000e+00 1851878480
-2.708122 0.000000 -11.607351 0.000000000000000e+00 1851878480
-3.823831 0.390733 -16.389421 0.000000000000000e+00 1851878480
-2.885453 0.592232 -12.367412 0.000000000000000e+00 1851878480
-3.147989 0.968839 -13.492677 0.000000000000000e+00 1851878480
-2.758502 -1.118232 -11.664198 0.000000000000000e+00 1851878480
-2.695498 -0.818996 -11.397788 0.000000000000000e+00 1701537140
-2.695064 -0.546099 -11.395952 0.000000000000000e+00 1701537140
-2.717824 -0.274175 -11.492189 0.000000000000000e+00 1851878480
-2.730479 0.000000 -11.545701 0.000000000000000e+00 1851878480
-2.833520 0.285846 -11.981406 0.000000000000000e+00 1851878480
-2.920007 0.591679 -12.347112 0.000000000000000e+00 1851878480
-3.194142 0.970503 -13.506280 0.000000000000000e+00 1851878480
-2.713302 -1.086064 -11.320516 0.000000000000000e+00 1701537140
-2.730844 -0.819290 -11.393703 0.000000000000000e+00 1701537140
-2.773480 -0.554914 -11.571593 0.000000000000000e+00 1701537140
-2.758520 -0.274777 -11.509177 0.000000000000000e+00 1851878480
-2.751286 0.000000 -11.478993 0.000000000000000e+00 1851878480
-2.859030 0.284789 -11.928526 0.000000000000000e+00 1851878480
-2.960736 0.592380 -12.352867 0.000000000000000e+00 1851878480
-3.253797 0.976183 -13.575584 0.000000000000000e+00 1851878480
-2.738192 -1.082411 -11.274236 0.000000000000000e+00 1701537140
-2.769012 -0.820421 -11.401134 0.000000000000000e+00 1701537140
-2.763183 -0.545986 -11.377133 0.000000000000000e+00 1701537140
-2.755251 -0.271042 -11.344474 0.000000000000000e+00 1701537140
-2.769325 0.000000 -11.402424 0.000000000000000e+00 1851878480
-2.886973 0.284000 -11.886827 0.000000000000000e+00 1851878480
-2.997806 0.592345 -12.343170 0.000000000000000e+00 1851878480
-2.777089 -1.084327 -11.285865 0.000000000000000e+00 1701537140
-2.810610 -0.822536 -11.422092 0.000000000000000e+00 1701537140
-2.804031 -0.547263 -11.395355 0.000000000000000e+00 1701537140
-2.769876 -0.269140 -11.256550 0.000000000000000e+00 1701537140
-2.784447 0.000000 -11.315765 0.000000000000000e+00 1851878480
-2.914906 0.283232 -11.845943 0.000000000000000e+00 1851878480
-3.034979 0.592338 -12.333910 0.000000000000000e+00 1851878480
-2.805830 -1.082290 -11.256250 0.000000000000000e+00 1701537140
-2.859971 -0.826851 -11.473449 0.000000000000000e+00 1701537140
-2.845810 -0.548695 -11.416638 0.000000000000000e+00 1701537140
-2.796926 -0.268479 -11.220530 0.000000000000000e+00 1701537140
-2.802316 0.000000 -11.242152 0.000000000000000e+00 1851878480
-2.941449 0.282352 -11.800317 0.000000000000000e+00 1851878480
-3.072368 0.592377 -12.325529 0.000000000000000e+00 1851878480
-2.817459 -1.073788 -11.159384 0.000000000000000e+00 1701537140
-2.900007 -0.828407 -11.486337 0.000000000000000e+00 1701537140
-2.895822 -0.551666 -11.469764 0.000000000000000e+00 1701537140
-2.898111 -0.274867 -11.478827 0.000000000000000e+00 1701537140
-2.823442 0.000000 -11.183078 0.000000000000000e+00 1851878480
-2.964866 0.281199 -11.743231 0.000000000000000e+00 1851878480
-3.109926 0.592453 -12.317786 0.000000000000000e+00 1851878480
-2.845823 -1.071800 -11.130186 0.000000000000000e+00 1701537140
-2.940060 -0.829938 -11.498754 0.000000000000000e+00 1701537140
-2.935799 -0.552682 -11.482087 0.000000000000000e+00 1701537140
-2.858514 -0.267913 -11.179819 0.000000000000000e+00 1701537140
-2.845253 0.000000 -11.127954 0.000000000000000e+00 1851878480
-2.990464 0.280280 -11.695886 0.000000000000000e+00 1851878480
-3.147871 0.592606 -12.311513 0.000000000000000e+00 1851878480
-2.886029 -1.074276 -11.147247 0.000000000000000e+00 1701537140
-2.980098 -0.831437 -11.510592 0.000000000000000e+00 1701537140
-2.975771 -0.553679 -11.493877 0.000000000000000e+00 1701537140
-2.891107 -0.267810 -11.166865 0.000000000000000e+00 1701537140
-2.876456 0.000000 -11.110276 0.000000000000000e+00 1851878480
-3.017140 0.279484 -11.653664 0.000000000000000e+00 1851878480
-3.186345 0.592859 -12.307218 0.000000000000000e+00 1851878480
-2.891652 -1.331641 -11.031735 0.000000000000000e+00 1701537140
-2.976657 -1.095257 -11.356033 0.000000000000000e+00 1701537140
-3.020251 -0.832940 -11.522342 0.000000000000000e+00 1701537140
-3.015807 -0.554669 -11.505389 0.000000000000000e+00 1701537140
-2.907457 -0.266224 -11.092031 0.000000000000000e+00 1701537140
-2.910421 0.000000 -11.103338 0.000000000000000e+00 1851878480
-3.043770 0.278706 -11.612069 0.000000000000000e+00 1851878480
-3.225250 0.593190 -12.304421 0.000000000000000e+00 1851878480
-2.911537 -1.325552 -10.972567 0.000000000000000e+00 1701537140
-3.015569 -1.096958 -11.364625 0.000000000000000e+00 1701537140
-2.918722 -0.795788 -10.999641 0.000000000000000e+00 1701537140
-3.055897 -0.555652 -11.516605 0.000000000000000e+00 1701537140
-2.923848 -0.264681 -11.018961 0.000000000000000e+00 1701537140
-2.947072 0.000000 -11.106483 0.000000000000000e+00 1851878480
-3.070472 0.277954 -11.571534 0.000000000000000e+00 1851878480
-3.264637 0.593607 -12.303276 0.000000000000000e+00 1851878480
-2.932774 -1.320221 -10.919638 0.000000000000000e+00 1701537140
-3.054364 -1.098588 -11.372357 0.000000000000000e+00 1701537140
-2.946666 -0.794381 -10.971364 0.000000000000000e+00 1701537140
-2.947500 -0.529921 -10.974466 0.000000000000000e+00 1701537140
-2.949756 -0.264026 -10.982869 0.000000000000000e+00 1701537140
-2.984023 0.000000 -11.110456 0.000000000000000e+00 1851878480
-3.097480 0.277249 -11.532889 0.000000000000000e+00 1851878480
-3.304613 0.594125 -12.304110 0.000000000000000e+00 1851878480
-2.955372 -1.315627 -10.872777 0.000000000000000e+00 1701537140
-3.093028 -1.100147 -11.379211 0.000000000000000e+00 1701537140
-2.972409 -0.792427 -10.935454 0.000000000000000e+00 1701537140
-2.982545 -0.530270 -10.972750 0.000000000000000e+00 1701537140
-2.987933 -0.264475 -10.992572 0.000000000000000e+00 1701537140
-3.021461 0.000000 -11.115921 0.000000000000000e+00 1851878480
-3.124292 0.276545 -11.494232 0.000000000000000e+00 1851878480
-3.344946 0.594702 -12.306017 0.000000000000000e+00 1851878480
-2.979229 -1.311699 -10.831379 0.000000000000000e+00 1701537140
-2.974395 -1.046345 -10.813805 0.000000000000000e+00 1701537140
-2.997105 -0.790246 -10.896370 0.000000000000000e+00 1701537140
-3.023729 -0.531695 -10.993166 0.000000000000000e+00 1701537140
-3.029389 -0.265203 -11.013742 0.000000000000000e+00 1701537140
-3.058733 0.000000 -11.120427 0.000000000000000e+00 1851878480
-3.151528 0.275896 -11.457794 0.000000000000000e+00 1851878480
-3.385604 0.595327 -12.308810 0.000000000000000e+00 1851878480
-3.003949 -1.308244 -10.793839 0.000000000000000e+00 1701537140
-3.008497 -1.046868 -10.810179 0.000000000000000e+00 1701537140
-3.018737 -0.787320 -10.846973 0.000000000000000e+00 1701537140
-3.011603 -0.523821 -10.821339 0.000000000000000e+00 1701537140
-3.140175 -0.271921 -11.283328 0.000000000000000e+00 1701537140
-3.096094 0.000000 -11.124933 0.000000000000000e+00 1851878480
-3.178977 0.275281 -11.422750 0.000000000000000e+00 1851878480
-3.426588 0.596002 -12.312471 0.000000000000000e+00 1851878480
-3.029149 -1.305081 -10.758658 0.000000000000000e+00 1701537140
-3.020484 -1.039775 -10.727883 0.000000000000000e+00 1701537140
-3.059191 -0.789321 -10.865357 0.000000000000000e+00 1701537140
-3.043859 -0.523758 -10.810904 0.000000000000000e+00 1701537140
-3.177074 -0.272168 -11.284042 0.000000000000000e+00 1701537140
-3.134362 0.000000 -11.132342 0.000000000000000e+00 1851878480
-3.206654 0.274702 -11.389103 0.000000000000000e+00 1851878480
-3.467939 0.596730 -12.317111 0.000000000000000e+00 1851878480
-3.054633 -1.302119 -10.725077 0.000000000000000e+00 1701537140
-3.053629 -1.040050 -10.721556 0.000000000000000e+00 1701537140
-3.052311 -0.779203 -10.716926 0.000000000000000e+00 1701537140
-3.053432 -0.519840 -10.720862 0.000000000000000e+00 1701537140
-3.213708 -0.272390 -11.283604 0.000000000000000e+00 1701537140
-3.055065 0.000000 -10.726597 0.000000000000000e+00 1851878480
-3.235066 0.274200 -11.358595 0.000000000000000e+00 1851878480
-3.509695 0.597517 -12.322843 0.000000000000000e+00 1851878480
-3.092144 -1.304304 -10.733791 0.000000000000000e+00 1701537140
-3.093288 -1.042523 -10.737763 0.000000000000000e+00 1701537140
-3.074693 -0.776695 -10.673214 0.000000000000000e+00 1701537140
-3.090482 -0.520637 -10.728025 0.000000000000000e+00 1701537140
-3.075748 -0.257966 -10.676877 0.000000000000000e+00 1701537140
-3.079507 0.000000 -10.689925 0.000000000000000e+00 1851878480
-3.263708 0.273731 -11.329344 0.000000000000000e+00 1851878480
-3.551827 0.598357 -12.329495 0.000000000000000e+00 1851878480
-3.130208 -1.306685 -10.743999 0.000000000000000e+00 1701537140
-3.221589 -1.074519 -11.057652 0.000000000000000e+00 1701537140
-3.102722 -0.775659 -10.649658 0.000000000000000e+00 1701537140
-3.131712 -0.522118 -10.749162 0.000000000000000e+00 1701537140
-3.094245 -0.256830 -10.620563 0.000000000000000e+00 1701537140
-3.104198 0.000000 -10.654723 0.000000000000000e+00 1851878480
-3.292589 0.273293 -11.301351 0.000000000000000e+00 1851878480
-3.594384 0.599255 -12.337218 0.000000000000000e+00 1851878480
-3.169051 -1.309353 -10.756423 0.000000000000000e+00 1701537140
-3.244598 -1.071111 -11.012844 0.000000000000000e+00 1701537140
-3.135548 -0.775837 -10.642706 0.000000000000000e+00 1701537140
-3.249700 -0.536241 -11.030164 0.000000000000000e+00 1701537140
-3.120125 -0.256326 -10.590360 0.000000000000000e+00 1701537140
-3.130009 0.000000 -10.623908 0.000000000000000e+00 1851878480
-3.321492 0.272869 -11.273841 0.000000000000000e+00 1851878480
-3.637404 0.600217 -12.346113 0.000000000000000e+00 1851878480
-3.209535 -1.312648 -10.773864 0.000000000000000e+00 1701537140
-3.128701 -1.022389 -10.502518 0.000000000000000e+00 1701537140
-3.172232 -0.776964 -10.648643 0.000000000000000e+00 1701537140
-3.272752 -0.534575 -10.986073 0.000000000000000e+00 1701537140
-3.148636 -0.256048 -10.569434 0.000000000000000e+00 1701537140
-3.157316 0.000000 -10.598574 0.000000000000000e+00 1851878480
-3.350591 0.272471 -11.247366 0.000000000000000e+00 1851878480
-3.680901 0.601242 -12.356157 0.000000000000000e+00 1851878480
-3.252928 -1.317067 -10.800369 0.000000000000000e+00 1701537140
-3.155590 -1.020846 -10.477189 0.000000000000000e+00 1701537140
-3.211506 -0.778703 -10.662842 0.000000000000000e+00 1701537140
-3.295742 -0.532937 -10.942521 0.000000000000000e+00 1701537140
-3.176844 -0.255754 -10.547754 0.000000000000000e+00 1701537140
-3.184977 0.000000 -10.574759 0.000000000000000e+00 1851878480
-3.379702 0.272085 -11.221286 0.000000000000000e+00 1851878480
-3.724923 0.602338 -12.367488 0.000000000000000e+00 1851878480
-3.298213 -1.322168 -10.832306 0.000000000000000e+00 1701537140
-3.184715 -1.020057 -10.459543 0.000000000000000e+00 1701537140
-3.175201 -0.762271 -10.428298 0.000000000000000e+00 1701537140
-3.179897 -0.509109 -10.443721 0.000000000000000e+00 1701537140
-3.213231 -0.256120 -10.553202 0.000000000000000e+00 1701537140
-3.212634 0.000000 -10.551240 0.000000000000000e+00 1851878480
-3.408957 0.271721 -11.196023 0.000000000000000e+00 1851878480
-3.769498 0.603505 -12.380144 0.000000000000000e+00 1851878480
-3.347895 -1.328928 -10.877639 0.000000000000000e+00 1701537140
-3.215477 -1.019815 -10.447403 0.000000000000000e+00 1701537140
-3.201597 -0.761073 -10.402304 0.000000000000000e+00 1701537140
-3.208969 -0.508727 -10.426257 0.000000000000000e+00 1701537140
-3.252095 -0.256676 -10.566375 0.000000000000000e+00 1701537140
-3.239998 0.000000 -10.527073 0.000000000000000e+00 1851878480
-3.438494 0.271388 -11.172005 0.000000000000000e+00 1851878480
-3.814641 0.604746 -12.394146 0.000000000000000e+00 1851878480
-3.254354 -1.022133 -10.461387 0.000000000000000e+00 1701537140
-3.231265 -0.760675 -10.387166 0.000000000000000e+00 1701537140
-3.238377 -0.508409 -10.410028 0.000000000000000e+00 1701537140
-3.235908 -0.252922 -10.402093 0.000000000000000e+00 1851878480
-3.267195 0.000000 -10.502665 0.000000000000000e+00 1851878480
-3.468140 0.271073 -11.148621 0.000000000000000e+00 1851878480
-3.860387 0.606062 -12.409529 0.000000000000000e+00 1851878480
-3.293588 -1.024527 -10.476007 0.000000000000000e+00 1701537140
-3.263543 -0.760900 -10.380442 0.000000000000000e+00 1701537140
-3.275362 -0.509280 -10.418036 0.000000000000000e+00 1701537140
-3.261938 -0.252509 -10.375339 0.000000000000000e+00 1851878480
-3.294007 0.000000 -10.477339 0.000000000000000e+00 1851878480
-3.498234 0.270801 -11.126932 0.000000000000000e+00 1851878480
-3.906740 0.607452 -12.426278 0.000000000000000e+00 1851878480
-3.333446 -1.027079 -10.492089 0.000000000000000e+00 1701537140
-3.302491 -0.762668 -10.394659 0.000000000000000e+00 1701537140
-3.314453 -0.510464 -10.432307 0.000000000000000e+00 1701537140
-3.289028 -0.252188 -10.352282 0.000000000000000e+00 1851878480
-3.320518 0.000000 -10.451397 0.000000000000000e+00 1851878480
-3.528729 0.270568 -11.106745 0.000000000000000e+00 1851878480
-3.953704 0.608916 -12.444365 0.000000000000000e+00 1851878480
-3.374469 -1.029946 -10.511250 0.000000000000000e+00 1701537140
-3.341794 -0.764491 -10.409468 0.000000000000000e+00 1701537140
-3.303922 -0.504060 -10.291500 0.000000000000000e+00 1851878480
-3.316675 -0.251918 -10.331224 0.000000000000000e+00 1851878480
-3.346792 0.000000 -10.425036 0.000000000000000e+00 1851878480
-3.559745 0.270380 -11.088371 0.000000000000000e+00 1851878480
-4.001314 0.610457 -12.463830 0.000000000000000e+00 1851878480
-3.416648 -1.033118 -10.533372 0.000000000000000e+00 1701537140
-3.329544 -0.754603 -10.264834 0.000000000000000e+00 1851878480
-3.330180 -0.503339 -10.266797 0.000000000000000e+00 1851878480
-3.344360 -0.251658 -10.310512 0.000000000000000e+00 1851878480
-3.372948 0.000000 -10.398645 0.000000000000000e+00 1851878480
-3.591902 0.270285 -11.073671 0.000000000000000e+00 1851878480
-4.049802 0.612106 -12.485358 0.000000000000000e+00 1851878480
-3.459445 -1.036427 -10.556720 0.000000000000000e+00 1701537140
-3.355796 -0.753549 -10.240430 0.000000000000000e+00 1851878480
-3.357708 -0.502827 -10.246264 0.000000000000000e+00 1851878480
-3.372018 -0.251402 -10.289934 0.000000000000000e+00 1851878480
-3.399019 0.000000 -10.372328 0.000000000000000e+00 1851878480
-3.625713 0.270317 -11.064100 0.000000000000000e+00 1851878480
-4.099405 0.613898 -12.509602 0.000000000000000e+00 1851878480
-3.404594 -1.010698 -10.284426 0.000000000000000e+00 1851878480
-3.383126 -0.752762 -10.219578 0.000000000000000e+00 1851878480
-3.385518 -0.502371 -10.226803 0.000000000000000e+00 1851878480
-3.399625 -0.251151 -10.269416 0.000000000000000e+00 1851878480
-3.425070 0.000000 -10.346280 0.000000000000000e+00 1851878480
-3.661427 0.270491 -11.060255 0.000000000000000e+00 1851878480
-4.150458 0.615879 -12.537495 0.000000000000000e+00 1851878480
-3.431467 -1.009483 -10.261764 0.000000000000000e+00 1851878480
-3.410842 -0.752081 -10.200087 0.000000000000000e+00 1851878480
-3.413320 -0.501926 -10.207496 0.000000000000000e+00 1851878480
-3.427137 -0.250898 -10.248814 0.000000000000000e+00 1851878480
-3.451175 0.000000 -10.320699 0.000000000000000e+00 1851878480
-3.699701 0.270853 -11.063914 0.000000000000000e+00 1851878480
-4.203227 0.618081 -12.569702 0.000000000000000e+00 1851878480
-3.459239 -1.008561 -10.242007 0.000000000000000e+00 1851878480
-3.438495 -0.751405 -10.180590 0.000000000000000e+00 1851878480
-3.441044 -0.501482 -10.188134 0.000000000000000e+00 1851878480
-3.454498 -0.250642 -10.227967 0.000000000000000e+00 1851878480
-3.477674 0.000000 -10.296589 0.000000000000000e+00 1851878480
-3.740156 0.271368 -11.073735 0.000000000000000e+00 1851878480
-4.257901 0.620527 -12.606660 0.000000000000000e+00 1851878480
-3.487069 -1.007681 -10.222603 0.000000000000000e+00 1851878480
-3.466029 -0.750721 -10.160922 0.000000000000000e+00 1851878480
-3.468677 -0.501037 -10.168685 0.000000000000000e+00 1851878480
-3.481617 -0.250375 -10.206621 0.000000000000000e+00 1851878480
-3.504676 0.000000 -10.274219 0.000000000000000e+00 1851878480
-3.782271 0.271996 -11.088009 0.000000000000000e+00 1851878480
-4.314135 0.623160 -12.647209 0.000000000000000e+00 1851878480
-3.514802 -1.006799 -10.203097 0.000000000000000e+00 1851878480
-3.493420 -0.750026 -10.141029 0.000000000000000e+00 1851878480
-3.496207 -0.500590 -10.149119 0.000000000000000e+00 1851878480
-3.508336 -0.250087 -10.184329 0.000000000000000e+00 1851878480
-3.532751 0.000000 -10.255203 0.000000000000000e+00 1851878480
-3.825542 0.272698 -11.105145 0.000000000000000e+00 1851878480
-4.372294 0.626029 -12.692308 0.000000000000000e+00 1851878480
-3.542402 -1.005903 -10.183377 0.000000000000000e+00 1851878480
-3.520668 -0.749320 -10.120901 0.000000000000000e+00 1851878480
-3.523621 -0.500139 -10.129389 0.000000000000000e+00 1851878480
-3.534792 -0.249787 -10.161503 0.000000000000000e+00 1851878480
-3.562900 0.000000 -10.242305 0.000000000000000e+00 1851878480
-3.869275 0.273423 -11.123044 0.000000000000000e+00 1851878480
-4.433616 0.629303 -12.745360 0.000000000000000e+00 1851878480
-3.569845 -1.004987 -10.163384 0.000000000000000e+00 1851878480
-3.547776 -0.748602 -10.100553 0.000000000000000e+00 1851878480
-3.550901 -0.499681 -10.109449 0.000000000000000e+00 1851878480
-3.561571 -0.249517 -10.139829 0.000000000000000e+00 1851878480
-3.593863 0.000000 -10.231765 0.000000000000000e+00 1851878480
-3.912133 0.274076 -11.137883 0.000000000000000e+00 1851878480
-4.500116 0.633254 -12.811876 0.000000000000000e+00 1851878480
-3.597147 -1.004057 -10.143177 0.000000000000000e+00 1851878480
-3.574709 -0.747867 -10.079906 0.000000000000000e+00 1851878480
-3.577997 -0.499210 -10.089177 0.000000000000000e+00 1851878480
-3.589846 -0.249358 -10.122591 0.000000000000000e+00 1851878480
-3.624629 0.000000 -10.220668 0.000000000000000e+00 1851878480
-3.954311 0.274674 -11.150303 0.000000000000000e+00 1851878480
-4.572476 0.637962 -12.893393 0.000000000000000e+00 1851878480
-3.624310 -1.003112 -10.122751 0.000000000000000e+00 1851878480
-3.601477 -0.747117 -10.058978 0.000000000000000e+00 1851878480
-3.604996 -0.498738 -10.068806 0.000000000000000e+00 1851878480
-3.624086 -0.249615 -10.122127 0.000000000000000e+00 1700951363
-3.654883 0.000000 -10.208142 0.000000000000000e+00 1851878480
-3.995860 0.275221 -11.160497 0.000000000000000e+00 1851878480
-4.651817 0.643561 -12.992592 0.000000000000000e+00 1851878480
-3.651320 -1.002151 -10.102080 0.000000000000000e+00 1851878480
-3.628015 -0.746339 -10.037603 0.000000000000000e+00 1851878480
-3.632163 -0.498301 -10.049080 0.000000000000000e+00 1851878480
-3.652302 -0.249458 -10.104797 0.000000000000000e+00 1700951363
-3.685339 0.000000 -10.196200 0.000000000000000e+00 1851878480
-4.036678 0.275711 -11.168249 0.000000000000000e+00 1851878480
-4.743988 0.650834 -13.125157 0.000000000000000e+00 1851878480
-3.678087 -1.001148 -10.080924 0.000000000000000e+00 1851878480
-3.654294 -0.745527 -10.015711 0.000000000000000e+00 1851878480
-3.660400 -0.498021 -10.032448 0.000000000000000e+00 1851878480
-3.680485 -0.249304 -10.087499 0.000000000000000e+00 1700951363
-3.715554 0.000000 -10.183616 0.000000000000000e+00 1851878480
-4.077362 0.276187 -11.175259 0.000000000000000e+00 1851878480
-4.866482 0.662117 -13.338085 0.000000000000000e+00 1851878480
-3.704565 -1.000093 -10.059178 0.000000000000000e+00 1851878480
-3.680394 -0.744700 -9.993546 0.000000000000000e+00 1851878480
-3.689932 -0.497926 -10.019443 0.000000000000000e+00 1851878480
-3.708730 -0.249158 -10.070488 0.000000000000000e+00 1700951363
-3.746028 0.000000 -10.171765 0.000000000000000e+00 1851878480
-4.118599 0.276694 -11.183425 0.000000000000000e+00 1851878480
-3.730783 -0.998994 -10.036919 0.000000000000000e+00 1851878480
-3.706627 -0.743919 -9.971932 0.000000000000000e+00 1851878480
-3.776702 -0.505498 -10.160457 0.000000000000000e+00 1851878480
-3.736945 -0.249016 -10.053496 0.000000000000000e+00 1700951363
-3.776621 0.000000 -10.160237 0.000000000000000e+00 1851878480
-4.160597 0.277246 -11.193247 0.000000000000000e+00 1851878480
-3.756880 -0.997890 -10.014539 0.000000000000000e+00 1851878480
-3.734247 -0.743434 -9.954207 0.000000000000000e+00 1851878480
-3.810242 -0.505884 -10.156786 0.000000000000000e+00 1851878480
-3.765316 -0.248888 -10.037029 0.000000000000000e+00 1700951363
-3.807352 0.000000 -10.149083 0.000000000000000e+00 1851878480
-4.203558 0.277856 -11.205230 0.000000000000000e+00 1851878480
-3.783470 -0.996943 -9.993670 0.000000000000000e+00 1851878480
-3.763589 -0.743303 -9.941158 0.000000000000000e+00 1851878480
-3.843831 -0.506276 -10.153109 0.000000000000000e+00 1851878480
-3.794626 -0.248826 -10.023139 0.000000000000000e+00 1700951363
-3.838244 0.000000 -10.138352 0.000000000000000e+00 1851878480
-4.247615 0.278530 -11.219666 0.000000000000000e+00 1851878480
-3.811677 -0.996442 -9.977199 0.000000000000000e+00 1851878480
-3.793285 -0.743250 -9.929056 0.000000000000000e+00 1851878480
-3.877475 -0.506673 -10.149426 0.000000000000000e+00 1851878480
-3.823981 -0.248770 -10.009403 0.000000000000000e+00 1700951363
-3.869386 0.000000 -10.128254 0.000000000000000e+00 1851878480
-4.292955 0.279280 -11.236959 0.000000000000000e+00 1851878480
-3.840419 -0.996096 -9.962200 0.000000000000000e+00 1851878480
-3.823124 -0.743233 -9.917339 0.000000000000000e+00 1851878480
-3.911170 -0.507076 -10.145734 0.000000000000000e+00 1851878480
-3.853348 -0.248719 -9.995741 0.000000000000000e+00 1700951363
-3.900597 0.000000 -10.118306 0.000000000000000e+00 1851878480
-4.339657 0.280108 -11.257246 0.000000000000000e+00 1851878480
-3.869094 -0.995748 -9.947094 0.000000000000000e+00 1851878480
-3.853119 -0.743253 -9.906024 0.000000000000000e+00 1851878480
-3.944920 -0.507483 -10.142035 0.000000000000000e+00 1851878480
-3.882704 -0.248669 -9.982084 0.000000000000000e+00 1700951363
-3.932315 0.000000 -10.109630 0.000000000000000e+00 1851878480
-4.388010 0.281031 -11.281178 0.000000000000000e+00 1851878480
-3.897830 -0.995431 -9.932212 0.000000000000000e+00 1851878480
-3.883294 -0.743314 -9.895170 0.000000000000000e+00 1851878480
-3.978720 -0.507896 -10.138330 0.000000000000000e+00 1851878480
-3.912428 -0.248646 -9.969406 0.000000000000000e+00 1700951363
-3.964131 0.000000 -10.101155 0.000000000000000e+00 1851878480
-4.439355 0.282134 -11.312091 0.000000000000000e+00 1851878480
-3.926675 -0.995153 -9.917648 0.000000000000000e+00 1851878480
-3.913758 -0.743435 -9.885024 0.000000000000000e+00 1851878480
-4.012578 -0.508314 -10.134614 0.000000000000000e+00 1851878480
-3.942882 -0.248672 -9.958583 0.000000000000000e+00 1700951363
-3.996325 0.000000 -10.093565 0.000000000000000e+00 1851878480
-4.496922 0.283614 -11.357928 0.000000000000000e+00 1851878480
-3.955702 -0.994936 -9.903591 0.000000000000000e+00 1851878480
-3.944700 -0.743651 -9.876047 0.000000000000000e+00 1851878480
-4.046491 -0.508737 -10.130893 0.000000000000000e+00 1851878480
-3.973419 -0.248704 -9.947948 0.000000000000000e+00 1700951363
-4.028676 0.000000 -10.086289 0.000000000000000e+00 1851878480
-4.564713 0.285714 -11.428328 0.000000000000000e+00 1851878480
-3.985109 -0.994825 -9.890512 0.000000000000000e+00 1851878480
-3.976030 -0.743943 -9.867982 0.000000000000000e+00 1851878480
-4.079648 -0.509064 -10.125148 0.000000000000000e+00 1851878480
-4.003975 -0.248740 -9.937338 0.000000000000000e+00 1700951363
-4.061324 0.000000 -10.079669 0.000000000000000e+00 1851878480
-4.648159 0.288758 -11.536117 0.000000000000000e+00 1851878480
-4.007810 -0.744322 -9.860962 0.000000000000000e+00 1851878480
-4.112142 -0.509309 -10.117663 0.000000000000000e+00 1851878480
-4.034541 -0.248777 -9.926730 0.000000000000000e+00 1700951363
-4.094045 0.000000 -10.073134 0.000000000000000e+00 1851878480
-5.035674 0.310509 -12.389955 0.000000000000000e+00 1851878480
-4.039946 -0.744767 -9.854715 0.000000000000000e+00 1851878480
-4.144670 -0.509559 -10.110170 0.000000000000000e+00 1851878480
-4.065848 -0.248862 -9.917899 0.000000000000000e+00 1700951363
-4.127001 0.000000 -10.067072 0.000000000000000e+00 1851878480
-5.119194 0.313336 -12.487345 0.000000000000000e+00 1851878480
-4.118927 -1.005689 -9.961664 0.000000000000000e+00 1851878480
-4.072780 -0.745340 -9.850059 0.000000000000000e+00 1851878480
-4.177228 -0.509813 -10.102669 0.000000000000000e+00 1851878480
-4.097404 -0.248963 -9.909612 0.000000000000000e+00 1700951363
-4.160048 0.000000 -10.061116 0.000000000000000e+00 1851878480
-5.220413 0.317199 -12.625620 0.000000000000000e+00 1851878480
-4.166756 -1.010005 -9.991898 0.000000000000000e+00 1851878480
-4.106388 -0.746052 -9.847133 0.000000000000000e+00 1851878480
-4.209818 -0.510073 -10.095161 0.000000000000000e+00 1851878480
-4.129439 -0.249094 -9.902411 0.000000000000000e+00 1700951363
-4.193130 0.000000 -10.055142 0.000000000000000e+00 1851878480
-4.213965 -1.014118 -10.019928 0.000000000000000e+00 1851878480
-4.140887 -0.746921 -9.846163 0.000000000000000e+00 1851878480
-4.242445 -0.510337 -10.087646 0.000000000000000e+00 1851878480
-4.161573 -0.249231 -9.895351 0.000000000000000e+00 1700951363
-4.226338 0.000000 -10.049348 0.000000000000000e+00 1851878480
-4.260364 -1.017989 -10.045364 0.000000000000000e+00 1851878480
-4.175951 -0.747886 -9.846331 0.000000000000000e+00 1851878480
-4.275105 -0.510606 -10.080122 0.000000000000000e+00 1851878480
-4.193534 -0.249358 -9.887790 0.000000000000000e+00 1700951363
-4.259533 0.000000 -10.043406 0.000000000000000e+00 1851878480
-4.210593 -0.748769 -9.845299 0.000000000000000e+00 1851878480
-4.307800 -0.510881 -10.072591 0.000000000000000e+00 1851878480
-4.225625 -0.249493 -9.880448 0.000000000000000e+00 1700951363
-4.292847 0.000000 -10.037626 0.000000000000000e+00 1851878480
-4.245424 -0.749680 -9.844520 0.000000000000000e+00 1851878480
-4.340527 -0.511160 -10.065049 0.000000000000000e+00 1851878480
-4.257716 -0.249629 -9.873023 0.000000000000000e+00 1700951363
-4.326159 0.000000 -10.031733 0.000000000000000e+00 1851878480
-4.280474 -0.750623 -9.844040 0.000000000000000e+00 1851878480
-4.373293 -0.511444 -10.057502 0.000000000000000e+00 1851878480
-4.290090 -0.249781 -9.866155 0.000000000000000e+00 1700951363
-4.359545 0.000000 -10.025883 0.000000000000000e+00 1851878480
-4.316625 -0.751752 -9.845867 0.000000000000000e+00 1851878480
-4.406095 -0.511733 -10.049943 0.000000000000000e+00 1851878480
-4.323360 -0.249986 -9.861231 0.000000000000000e+00 1700951363
-4.393013 0.000000 -10.020103 0.000000000000000e+00 1851878480
-4.352897 -0.752893 -9.847727 0.000000000000000e+00 1851878480
-4.438935 -0.512027 -10.042375 0.000000000000000e+00 1851878480
-4.356657 -0.250191 -9.856234 0.000000000000000e+00 1700951363
-4.427362 0.000000 -10.016194 0.000000000000000e+00 1851878480
-4.389262 -0.754041 -9.849560 0.000000000000000e+00 1851878480
-4.471811 -0.512326 -10.034802 0.000000000000000e+00 1851878480
-4.390083 -0.250403 -9.851403 0.000000000000000e+00 1700951363
-4.461964 0.000000 -10.012703 0.000000000000000e+00 1851878480
-5.748380 -1.308694 -12.795502 0.000000000000000e+00 1701537140
-4.427173 -0.755445 -9.854585 0.000000000000000e+00 1851878480
-4.504727 -0.512630 -10.027216 0.000000000000000e+00 1851878480
-4.423836 -0.250633 -9.847157 0.000000000000000e+00 1700951363
-4.497159 0.000000 -10.010371 0.000000000000000e+00 1851878480
-5.771193 -1.305131 -12.743325 0.000000000000000e+00 1701537140
-4.465535 -0.756913 -9.860312 0.000000000000000e+00 1851878480
-4.537683 -0.512939 -10.019622 0.000000000000000e+00 1851878480
-4.457865 -0.250878 -9.843375 0.000000000000000e+00 1700951363
-4.533302 0.000000 -10.009949 0.000000000000000e+00 1851878480
-5.794598 -1.301762 -12.693006 0.000000000000000e+00 1701537140
-4.502644 -0.758158 -9.862994 0.000000000000000e+00 1851878480
-4.562047 -0.512284 -9.993116 0.000000000000000e+00 1851878480
-4.491958 -0.251126 -9.839587 0.000000000000000e+00 1700951363
-4.570520 0.000000 -10.011677 0.000000000000000e+00 1851878480
-5.819743 -1.298836 -12.646981 0.000000000000000e+00 1701537140
-4.538604 -0.759200 -9.862916 0.000000000000000e+00 1851878480
-4.583891 -0.511361 -9.961331 0.000000000000000e+00 1851878480
-4.526959 -0.251422 -9.837609 0.000000000000000e+00 1700951363
-4.609046 0.000000 -10.015995 0.000000000000000e+00 1851878480
-6.013893 -1.333432 -12.965775 0.000000000000000e+00 1701537140
-4.573411 -0.760045 -9.860140 0.000000000000000e+00 1851878480
-4.606299 -0.510517 -9.931045 0.000000000000000e+00 1851878480
-4.563226 -0.251788 -9.838181 0.000000000000000e+00 1700951363
-4.648574 0.000000 -10.022186 0.000000000000000e+00 1851878480
-6.069513 -1.337077 -12.982964 0.000000000000000e+00 1701537140
-4.606377 -0.760581 -9.853250 0.000000000000000e+00 1851878480
-4.630290 -0.509863 -9.904400 0.000000000000000e+00 1851878480
-4.599586 -0.252155 -9.838724 0.000000000000000e+00 1700951363
-4.688980 0.000000 -10.029941 0.000000000000000e+00 1851878480
-6.123196 -1.340263 -12.995496 0.000000000000000e+00 1701537140
-4.638646 -0.761004 -9.844776 0.000000000000000e+00 1851878480
-4.654235 -0.509218 -9.877862 0.000000000000000e+00 1851878480
-4.636708 -0.252562 -9.840666 0.000000000000000e+00 1851878480
-4.729706 0.000000 -10.038040 0.000000000000000e+00 1851878480
-5.941587 -1.292246 -12.512051 0.000000000000000e+00 1701537140
-4.670081 -0.761291 -9.834459 0.000000000000000e+00 1851878480
-4.679942 -0.508776 -9.855224 0.000000000000000e+00 1851878480
-4.665082 -0.252493 -9.823931 0.000000000000000e+00 1851878480
-4.770374 0.000000 -10.045659 0.000000000000000e+00 1851878480
-5.948372 -1.285563 -12.429456 0.000000000000000e+00 1701537140
-4.700482 -0.761415 -9.821921 0.000000000000000e+00 1851878480
-4.705959 -0.508378 -9.833365 0.000000000000000e+00 1851878480
-4.695301 -0.252526 -9.811095 0.000000000000000e+00 1851878480
-4.810718 0.000000 -10.052264 0.000000000000000e+00 1851878480
-5.980983 -1.284522 -12.401412 0.000000000000000e+00 1701537140
-4.731195 -0.761594 -9.810011 0.000000000000000e+00 1851878480
-4.733469 -0.508150 -9.814726 0.000000000000000e+00 1851878480
-4.730318 -0.252817 -9.808190 0.000000000000000e+00 1851878480
-4.850866 0.000000 -10.058146 0.000000000000000e+00 1851878480
-6.020275 -1.284931 -12.387260 0.000000000000000e+00 1701537140
-4.762195 -0.761824 -9.798649 0.000000000000000e+00 1851878480
-4.761623 -0.507998 -9.797471 0.000000000000000e+00 1851878480
-4.765949 -0.253140 -9.806373 0.000000000000000e+00 1851878480
-4.891486 0.000000 -10.064674 0.000000000000000e+00 1851878480
-6.062838 -1.286040 -12.379727 0.000000000000000e+00 1701537140
-4.793162 -0.762052 -9.787172 0.000000000000000e+00 1851878480
-4.790809 -0.507961 -9.782369 0.000000000000000e+00 1851878480
-4.801682 -0.253466 -9.804570 0.000000000000000e+00 1851878480
-4.933372 0.000000 -10.073469 0.000000000000000e+00 1851878480
