# .PCD v0.7 - Point Cloud Data file format
VERSION 0.7
FIELDS x y z rgb label
SIZE 4 4 4 4 4
TYPE F F F F U
COUNT 1 1 1 1 1
WIDTH 771
HEIGHT 1
VIEWPOINT 0 0 0 1 0 0 0
POINTS 771
DATA ascii
-0.918620 -0.557836 0.530729 0.000000000000000e+00 1851878480
-0.921060 -0.560521 0.592046 0.000000000000000e+00 1851878480
-0.926771 -0.562509 0.653671 0.000000000000000e+00 1851878480
-0.923391 -0.566458 0.714867 0.000000000000000e+00 1851878480
-0.898341 -0.575213 0.777465 0.000000000000000e+00 1851878480
-0.910606 -0.575768 0.839064 0.000000000000000e+00 1768716611
-1.015813 -0.555497 0.890546 0.000000000000000e+00 1768716611
-0.648219 -0.641299 0.996025 0.000000000000000e+00 1851878480
-0.900394 -0.533853 0.155271 0.000000000000000e+00 1851878480
-0.917547 -0.533657 0.221756 0.000000000000000e+00 1851878480
-0.897949 -0.541012 0.281414 0.000000000000000e+00 1851878480
-0.906340 -0.542541 0.344856 0.000000000000000e+00 1851878480
-0.912554 -0.544493 0.407407 0.000000000000000e+00 1851878480
-0.916430 -0.546936 0.469746 0.000000000000000e+00 1851878480
-0.918410 -0.549741 0.531201 0.000000000000000e+00 1851878480
-0.920914 -0.552424 0.592484 0.000000000000000e+00 1851878480
-0.926869 -0.554381 0.654069 0.000000000000000e+00 1851878480
-0.923607 -0.558298 0.715220 0.000000000000000e+00 1851878480
-0.898419 -0.567008 0.777783 0.000000000000000e+00 1851878480
-0.911850 -0.567349 0.839249 0.000000000000000e+00 1768716611
-1.023232 -0.546050 0.890032 0.000000000000000e+00 1768716611
-0.681454 -0.624966 0.992112 0.000000000000000e+00 1851878480
-0.901025 -0.525516 0.156117 0.000000000000000e+00 1851878480
-0.917933 -0.525427 0.222501 0.000000000000000e+00 1851878480
-0.897337 -0.532927 0.281975 0.000000000000000e+00 1851878480
-0.905867 -0.534459 0.345405 0.000000000000000e+00 1851878480
-0.912105 -0.536430 0.407929 0.000000000000000e+00 1851878480
-0.916101 -0.538865 0.470245 0.000000000000000e+00 1851878480
-0.918201 -0.541655 0.531672 0.000000000000000e+00 1851878480
-0.920768 -0.544337 0.592921 0.000000000000000e+00 1851878480
-0.926918 -0.546274 0.654468 0.000000000000000e+00 1851878480
-0.923824 -0.550149 0.715574 0.000000000000000e+00 1851878480
-0.898495 -0.558813 0.778103 0.000000000000000e+00 1851878480
-0.911775 -0.559233 0.839537 0.000000000000000e+00 1768716611
-1.029522 -0.536904 0.889632 0.000000000000000e+00 1768716611
-0.695226 -0.613108 0.990618 0.000000000000000e+00 1851878480
-0.901661 -0.517192 0.156960 0.000000000000000e+00 1851878480
-0.918157 -0.517242 0.223215 0.000000000000000e+00 1851878480
-0.896839 -0.524826 0.282550 0.000000000000000e+00 1851878480
-0.905460 -0.526371 0.345960 0.000000000000000e+00 1851878480
-0.911738 -0.528358 0.408455 0.000000000000000e+00 1851878480
-0.915840 -0.530787 0.470747 0.000000000000000e+00 1851878480
-0.918006 -0.533575 0.532144 0.000000000000000e+00 1851878480
-0.920623 -0.536258 0.593359 0.000000000000000e+00 1851878480
-0.926967 -0.538179 0.654868 0.000000000000000e+00 1851878480
-0.923991 -0.542023 0.715930 0.000000000000000e+00 1851878480
-0.898569 -0.550631 0.778425 0.000000000000000e+00 1851878480
-0.910523 -0.551378 0.839917 0.000000000000000e+00 1768716611
-1.034730 -0.528041 0.889343 0.000000000000000e+00 1768716611
-0.701113 -0.603047 0.990109 0.000000000000000e+00 1851878480
-0.902270 -0.508887 0.157793 0.000000000000000e+00 1851878480
-0.918339 -0.509077 0.223919 0.000000000000000e+00 1851878480
-0.896347 -0.516731 0.283122 0.000000000000000e+00 1851878480
-0.905128 -0.518276 0.346521 0.000000000000000e+00 1851878480
-0.911483 -0.520271 0.408991 0.000000000000000e+00 1851878480
-0.915657 -0.522703 0.471253 0.000000000000000e+00 1851878480
-0.917956 -0.525474 0.532621 0.000000000000000e+00 1851878480
-0.920613 -0.528162 0.593799 0.000000000000000e+00 1851878480
-0.927054 -0.530086 0.655268 0.000000000000000e+00 1851878480
-0.924146 -0.533910 0.716289 0.000000000000000e+00 1851878480
-0.898639 -0.542459 0.778749 0.000000000000000e+00 1851878480
-0.908022 -0.543788 0.840396 0.000000000000000e+00 1768716611
-1.039131 -0.519389 0.889137 0.000000000000000e+00 1768716611
-0.706147 -0.593215 0.989708 0.000000000000000e+00 1851878480
-0.902860 -0.500600 0.158617 0.000000000000000e+00 1851878480
-0.918498 -0.500927 0.224616 0.000000000000000e+00 1851878480
-0.895887 -0.508637 0.283696 0.000000000000000e+00 1851878480
-0.904797 -0.510188 0.347080 0.000000000000000e+00 1851878480
-0.911205 -0.512197 0.409522 0.000000000000000e+00 1851878480
-0.915475 -0.514628 0.471758 0.000000000000000e+00 1851878480
-0.917906 -0.517383 0.533097 0.000000000000000e+00 1851878480
-0.920649 -0.520066 0.594239 0.000000000000000e+00 1851878480
-0.927196 -0.521992 0.655668 0.000000000000000e+00 1851878480
-0.924302 -0.525808 0.716648 0.000000000000000e+00 1851878480
-0.898711 -0.534299 0.779074 0.000000000000000e+00 1851878480
-0.904030 -0.536500 0.840992 0.000000000000000e+00 1768716611
-1.042765 -0.510935 0.889010 0.000000000000000e+00 1768716611
-0.943919 -0.534737 0.960299 0.000000000000000e+00 1768716611
-0.903443 -0.492328 0.159435 0.000000000000000e+00 1851878480
-0.918659 -0.492788 0.225309 0.000000000000000e+00 1851878480
-0.895427 -0.500550 0.284267 0.000000000000000e+00 1851878480
-0.904466 -0.502109 0.347636 0.000000000000000e+00 1851878480
-0.910927 -0.504131 0.410052 0.000000000000000e+00 1851878480
-0.915327 -0.506554 0.472264 0.000000000000000e+00 1851878480
-0.917856 -0.509302 0.533573 0.000000000000000e+00 1851878480
-0.920685 -0.511980 0.594680 0.000000000000000e+00 1851878480
-0.927337 -0.513910 0.656069 0.000000000000000e+00 1851878480
-0.924457 -0.517717 0.717008 0.000000000000000e+00 1851878480
-0.898795 -0.526146 0.779401 0.000000000000000e+00 1851878480
-0.897707 -0.529671 0.841771 0.000000000000000e+00 1768716611
-1.045846 -0.502626 0.888941 0.000000000000000e+00 1768716611
-0.961470 -0.523137 0.958324 0.000000000000000e+00 1768716611
-0.904024 -0.484070 0.160249 0.000000000000000e+00 1851878480
-0.918821 -0.484659 0.225999 0.000000000000000e+00 1851878480
-0.895106 -0.492443 0.284855 0.000000000000000e+00 1851878480
-0.904186 -0.494027 0.348196 0.000000000000000e+00 1851878480
-0.910707 -0.496062 0.410585 0.000000000000000e+00 1851878480
-0.915220 -0.498481 0.472772 0.000000000000000e+00 1851878480
-0.917829 -0.501226 0.534049 0.000000000000000e+00 1851878480
-0.920721 -0.503904 0.595121 0.000000000000000e+00 1851878480
-0.927503 -0.505833 0.656470 0.000000000000000e+00 1851878480
-0.924611 -0.509637 0.717370 0.000000000000000e+00 1851878480
-0.898877 -0.518004 0.779730 0.000000000000000e+00 1851878480
-0.883680 -0.524358 0.843147 0.000000000000000e+00 1768716611
-1.048363 -0.494460 0.888932 0.000000000000000e+00 1768716611
-0.975382 -0.512394 0.956804 0.000000000000000e+00 1768716611
-0.904602 -0.475825 0.161058 0.000000000000000e+00 1851878480
-0.918951 -0.476547 0.226679 0.000000000000000e+00 1851878480
-0.894875 -0.484327 0.285452 0.000000000000000e+00 1851878480
-0.904041 -0.485927 0.348769 0.000000000000000e+00 1851878480
-0.910627 -0.487975 0.411130 0.000000000000000e+00 1851878480
-0.915280 -0.490386 0.473290 0.000000000000000e+00 1851878480
-0.917939 -0.493133 0.534531 0.000000000000000e+00 1851878480
-0.920799 -0.495830 0.595563 0.000000000000000e+00 1851878480
-0.927679 -0.497765 0.656872 0.000000000000000e+00 1851878480
-0.924764 -0.501568 0.717733 0.000000000000000e+00 1851878480
-0.898957 -0.509872 0.780060 0.000000000000000e+00 1851878480
-0.815642 -0.529622 0.848694 0.000000000000000e+00 1851878480
-1.050500 -0.486393 0.888962 0.000000000000000e+00 1768716611
-0.986363 -0.502334 0.955651 0.000000000000000e+00 1768716611
-0.905174 -0.467595 0.161860 0.000000000000000e+00 1851878480
-0.919079 -0.468445 0.227356 0.000000000000000e+00 1851878480
-0.894644 -0.476220 0.286046 0.000000000000000e+00 1851878480
-0.903892 -0.477837 0.349339 0.000000000000000e+00 1851878480
-0.910546 -0.479897 0.411672 0.000000000000000e+00 1851878480
-0.915335 -0.482301 0.473806 0.000000000000000e+00 1851878480
-0.918104 -0.485039 0.535014 0.000000000000000e+00 1851878480
-0.921042 -0.487734 0.596008 0.000000000000000e+00 1851878480
-0.927903 -0.489698 0.657275 0.000000000000000e+00 1851878480
-0.924873 -0.493518 0.718099 0.000000000000000e+00 1851878480
-0.899035 -0.501751 0.780393 0.000000000000000e+00 1851878480
-0.815749 -0.521240 0.848996 0.000000000000000e+00 1851878480
-1.052202 -0.478434 0.889040 0.000000000000000e+00 1768716611
-0.995251 -0.492764 0.954761 0.000000000000000e+00 1768716611
-0.905697 -0.459385 0.162650 0.000000000000000e+00 1851878480
-0.919206 -0.460353 0.228029 0.000000000000000e+00 1851878480
-0.894401 -0.468122 0.286635 0.000000000000000e+00 1851878480
-0.903743 -0.469756 0.349907 0.000000000000000e+00 1851878480
-0.910491 -0.471823 0.412215 0.000000000000000e+00 1851878480
-0.915356 -0.474232 0.474318 0.000000000000000e+00 1851878480
-0.918242 -0.476961 0.535495 0.000000000000000e+00 1851878480
-0.921284 -0.479650 0.596452 0.000000000000000e+00 1851878480
-0.928135 -0.481640 0.657677 0.000000000000000e+00 1851878480
-0.924969 -0.485480 0.718466 0.000000000000000e+00 1851878480
-0.899111 -0.493641 0.780727 0.000000000000000e+00 1851878480
-0.815843 -0.512871 0.849302 0.000000000000000e+00 1851878480
-1.053381 -0.470595 0.889173 0.000000000000000e+00 1768716611
-1.002310 -0.483612 0.954102 0.000000000000000e+00 1768716611
-0.906215 -0.451189 0.163433 0.000000000000000e+00 1851878480
-0.919265 -0.452283 0.228687 0.000000000000000e+00 1851878480
-0.894154 -0.460032 0.287222 0.000000000000000e+00 1851878480
-0.903595 -0.461682 0.350473 0.000000000000000e+00 1851878480
-0.910448 -0.463756 0.412757 0.000000000000000e+00 1851878480
-0.915376 -0.466172 0.474830 0.000000000000000e+00 1851878480
-0.918379 -0.468893 0.535976 0.000000000000000e+00 1851878480
-0.921526 -0.471575 0.596897 0.000000000000000e+00 1851878480
-0.928372 -0.473592 0.658081 0.000000000000000e+00 1851878480
-0.925066 -0.477451 0.718834 0.000000000000000e+00 1851878480
-0.899184 -0.485540 0.781064 0.000000000000000e+00 1851878480
-0.815929 -0.504512 0.849610 0.000000000000000e+00 1851878480
-1.054023 -0.462874 0.889362 0.000000000000000e+00 1768716611
-1.008067 -0.474761 0.953608 0.000000000000000e+00 1768716611
-0.906730 -0.443006 0.164212 0.000000000000000e+00 1851878480
-0.918893 -0.444296 0.229273 0.000000000000000e+00 1851878480
-0.894047 -0.451925 0.287824 0.000000000000000e+00 1851878480
-0.903519 -0.453604 0.351045 0.000000000000000e+00 1851878480
-0.910474 -0.455685 0.413304 0.000000000000000e+00 1851878480
-0.915452 -0.458112 0.475344 0.000000000000000e+00 1851878480
-0.918516 -0.460835 0.536456 0.000000000000000e+00 1851878480
-0.921774 -0.463511 0.597341 0.000000000000000e+00 1851878480
-0.928622 -0.465552 0.658484 0.000000000000000e+00 1851878480
-0.925169 -0.469432 0.719203 0.000000000000000e+00 1851878480
-0.899244 -0.477451 0.781403 0.000000000000000e+00 1851878480
-0.816012 -0.496165 0.849922 0.000000000000000e+00 1851878480
-1.054093 -0.455272 0.889613 0.000000000000000e+00 1768716611
-1.012806 -0.466144 0.953244 0.000000000000000e+00 1768716611
-0.907244 -0.434834 0.164987 0.000000000000000e+00 1851878480
-0.918525 -0.436315 0.229857 0.000000000000000e+00 1851878480
-0.893957 -0.443824 0.288426 0.000000000000000e+00 1851878480
-0.903478 -0.445527 0.351618 0.000000000000000e+00 1851878480
-0.910527 -0.447618 0.413851 0.000000000000000e+00 1851878480
-0.915590 -0.450050 0.475861 0.000000000000000e+00 1851878480
-0.918747 -0.452770 0.536940 0.000000000000000e+00 1851878480
-0.922044 -0.455453 0.597786 0.000000000000000e+00 1851878480
-0.928872 -0.457522 0.658889 0.000000000000000e+00 1851878480
-0.925270 -0.461421 0.719574 0.000000000000000e+00 1851878480
-0.899300 -0.469373 0.781744 0.000000000000000e+00 1851878480
-0.816091 -0.487828 0.850236 0.000000000000000e+00 1851878480
-1.053369 -0.447824 0.889947 0.000000000000000e+00 1768716611
-1.014643 -0.458101 0.953247 0.000000000000000e+00 1768716611
-0.907756 -0.426674 0.165756 0.000000000000000e+00 1851878480
-0.918149 -0.428341 0.230436 0.000000000000000e+00 1851878480
-0.893867 -0.435731 0.289025 0.000000000000000e+00 1851878480
-0.903433 -0.437460 0.352188 0.000000000000000e+00 1851878480
-0.910575 -0.439561 0.414396 0.000000000000000e+00 1851878480
-0.915729 -0.441997 0.476376 0.000000000000000e+00 1851878480
-0.918990 -0.444713 0.537423 0.000000000000000e+00 1851878480
-0.922357 -0.447397 0.598232 0.000000000000000e+00 1851878480
-0.929109 -0.449505 0.659294 0.000000000000000e+00 1851878480
-0.925372 -0.453420 0.719945 0.000000000000000e+00 1851878480
-0.899354 -0.461303 0.782087 0.000000000000000e+00 1851878480
-0.816169 -0.479501 0.850553 0.000000000000000e+00 1851878480
-0.754126 -0.494095 0.920608 0.000000000000000e+00 1851878480
-0.720029 -0.503802 0.990444 0.000000000000000e+00 1851878480
-0.908256 -0.418529 0.166519 0.000000000000000e+00 1851878480
-0.917742 -0.420379 0.231006 0.000000000000000e+00 1851878480
-0.893774 -0.427645 0.289620 0.000000000000000e+00 1851878480
-0.903383 -0.429402 0.352756 0.000000000000000e+00 1851878480
-0.910597 -0.431517 0.414937 0.000000000000000e+00 1851878480
-0.915843 -0.433958 0.476889 0.000000000000000e+00 1851878480
-0.919204 -0.436670 0.537905 0.000000000000000e+00 1851878480
-0.922670 -0.439352 0.598678 0.000000000000000e+00 1851878480
-0.929343 -0.441498 0.659699 0.000000000000000e+00 1851878480
-0.925466 -0.445429 0.720318 0.000000000000000e+00 1851878480
-0.899406 -0.453243 0.782432 0.000000000000000e+00 1851878480
-0.816252 -0.471182 0.850872 0.000000000000000e+00 1851878480
-0.754066 -0.485614 0.920913 0.000000000000000e+00 1851878480
-0.719888 -0.495234 0.990730 0.000000000000000e+00 1851878480
-0.566808 -0.526328 1.080908 0.000000000000000e+00 1851878480
-0.908699 -0.410403 0.167267 0.000000000000000e+00 1851878480
-0.917266 -0.412433 0.231563 0.000000000000000e+00 1851878480
-0.893679 -0.419569 0.290213 0.000000000000000e+00 1851878480
-0.903334 -0.421352 0.353322 0.000000000000000e+00 1851878480
-0.910619 -0.423482 0.415477 0.000000000000000e+00 1851878480
-0.915950 -0.425928 0.477401 0.000000000000000e+00 1851878480
-0.919410 -0.428639 0.538386 0.000000000000000e+00 1851878480
-0.922982 -0.431317 0.599123 0.000000000000000e+00 1851878480
-0.929576 -0.433501 0.660106 0.000000000000000e+00 1851878480
-0.925506 -0.437457 0.720695 0.000000000000000e+00 1851878480
-0.899456 -0.445192 0.782778 0.000000000000000e+00 1851878480
-0.816320 -0.462875 0.851194 0.000000000000000e+00 1851878480
-0.754030 -0.477137 0.921218 0.000000000000000e+00 1851878480
-0.719748 -0.486674 0.991019 0.000000000000000e+00 1851878480
-0.641889 -0.504035 1.069910 0.000000000000000e+00 1851878480
-0.909142 -0.402288 0.168011 0.000000000000000e+00 1851878480
-0.916177 -0.404588 0.232019 0.000000000000000e+00 1851878480
-0.893639 -0.411490 0.290810 0.000000000000000e+00 1851878480
-0.903306 -0.413306 0.353887 0.000000000000000e+00 1851878480
-0.910673 -0.415449 0.416017 0.000000000000000e+00 1851878480
-0.916066 -0.417906 0.477911 0.000000000000000e+00 1851878480
-0.919616 -0.420617 0.538866 0.000000000000000e+00 1851878480
-0.923297 -0.423292 0.599569 0.000000000000000e+00 1851878480
-0.929816 -0.425512 0.660512 0.000000000000000e+00 1851878480
-0.925549 -0.429492 0.721072 0.000000000000000e+00 1851878480
-0.899503 -0.437150 0.783127 0.000000000000000e+00 1851878480
-0.816373 -0.454579 0.851520 0.000000000000000e+00 1851878480
-0.753974 -0.468672 0.921529 0.000000000000000e+00 1851878480
-0.719594 -0.478125 0.991314 0.000000000000000e+00 1851878480
-0.656763 -0.492646 1.067929 0.000000000000000e+00 1851878480
-0.909586 -0.394183 0.168751 0.000000000000000e+00 1851878480
-0.915057 -0.396749 0.232467 0.000000000000000e+00 1851878480
-0.893611 -0.403418 0.291406 0.000000000000000e+00 1851878480
-0.903288 -0.405266 0.354452 0.000000000000000e+00 1851878480
-0.910743 -0.407423 0.416557 0.000000000000000e+00 1851878480
-0.916198 -0.409890 0.478422 0.000000000000000e+00 1851878480
-0.919828 -0.412603 0.539346 0.000000000000000e+00 1851878480
-0.923614 -0.415277 0.600015 0.000000000000000e+00 1851878480
-0.930086 -0.417528 0.660920 0.000000000000000e+00 1851878480
-0.925599 -0.421535 0.721450 0.000000000000000e+00 1851878480
-0.899548 -0.429117 0.783478 0.000000000000000e+00 1851878480
-0.816422 -0.446293 0.851850 0.000000000000000e+00 1851878480
-0.753916 -0.460216 0.921844 0.000000000000000e+00 1851878480
-0.719442 -0.469583 0.991613 0.000000000000000e+00 1851878480
-0.661863 -0.483021 1.067416 0.000000000000000e+00 1851878480
-0.910030 -0.386090 0.169486 0.000000000000000e+00 1851878480
-0.913937 -0.388911 0.232912 0.000000000000000e+00 1851878480
-0.893582 -0.395354 0.291999 0.000000000000000e+00 1851878480
-0.903278 -0.397233 0.355015 0.000000000000000e+00 1851878480
-0.910811 -0.399404 0.417096 0.000000000000000e+00 1851878480
-0.916331 -0.401883 0.478932 0.000000000000000e+00 1851878480
-0.920046 -0.404597 0.539825 0.000000000000000e+00 1851878480
-0.923903 -0.407275 0.600460 0.000000000000000e+00 1851878480
-0.930342 -0.409555 0.661328 0.000000000000000e+00 1851878480
-0.925647 -0.413585 0.721830 0.000000000000000e+00 1851878480
-0.899560 -0.421098 0.783833 0.000000000000000e+00 1851878480
-0.816460 -0.438018 0.852182 0.000000000000000e+00 1851878480
-0.753865 -0.451766 0.922161 0.000000000000000e+00 1851878480
-0.719295 -0.461048 0.991915 0.000000000000000e+00 1851878480
-0.666090 -0.473583 1.067037 0.000000000000000e+00 1851878480
-0.910471 -0.378006 0.170217 0.000000000000000e+00 1851878480
-0.912750 -0.381083 0.233344 0.000000000000000e+00 1851878480
-0.893554 -0.387296 0.292589 0.000000000000000e+00 1851878480
-0.903268 -0.389207 0.355576 0.000000000000000e+00 1851878480
-0.910874 -0.391395 0.417632 0.000000000000000e+00 1851878480
-0.916463 -0.393884 0.479440 0.000000000000000e+00 1851878480
-0.920264 -0.396601 0.540304 0.000000000000000e+00 1851878480
-0.924187 -0.399284 0.600905 0.000000000000000e+00 1851878480
-0.930536 -0.401602 0.661737 0.000000000000000e+00 1851878480
-0.925696 -0.405644 0.722211 0.000000000000000e+00 1851878480
-0.899564 -0.413087 0.784190 0.000000000000000e+00 1851878480
-0.816492 -0.429751 0.852518 0.000000000000000e+00 1851878480
-0.753831 -0.443322 0.922479 0.000000000000000e+00 1851878480
-0.719149 -0.452520 0.992221 0.000000000000000e+00 1851878480
-0.669696 -0.464280 1.066756 0.000000000000000e+00 1851878480
-0.910911 -0.369933 0.170944 0.000000000000000e+00 1851878480
-0.911575 -0.373253 0.233775 0.000000000000000e+00 1851878480
-0.893525 -0.379246 0.293176 0.000000000000000e+00 1851878480
-0.903257 -0.381188 0.356135 0.000000000000000e+00 1851878480
-0.910917 -0.383396 0.418165 0.000000000000000e+00 1851878480
-0.916576 -0.385897 0.479947 0.000000000000000e+00 1851878480
-0.920462 -0.388616 0.540782 0.000000000000000e+00 1851878480
-0.924469 -0.391302 0.601350 0.000000000000000e+00 1851878480
-0.930731 -0.393657 0.662146 0.000000000000000e+00 1851878480
-0.925744 -0.397711 0.722593 0.000000000000000e+00 1851878480
-0.899566 -0.405085 0.784548 0.000000000000000e+00 1851878480
-0.816520 -0.421493 0.852856 0.000000000000000e+00 1851878480
-0.753808 -0.434884 0.922800 0.000000000000000e+00 1851878480
-0.719014 -0.443997 0.992529 0.000000000000000e+00 1851878480
-0.672735 -0.455100 1.066565 0.000000000000000e+00 1851878480
-0.911336 -0.361872 0.171663 0.000000000000000e+00 1851878480
-0.910406 -0.365423 0.234204 0.000000000000000e+00 1851878480
-0.893495 -0.371204 0.293761 0.000000000000000e+00 1851878480
-0.903242 -0.373178 0.356690 0.000000000000000e+00 1851878480
-0.910958 -0.375406 0.418696 0.000000000000000e+00 1851878480
-0.916685 -0.377918 0.480452 0.000000000000000e+00 1851878480
-0.920647 -0.380642 0.541258 0.000000000000000e+00 1851878480
-0.924749 -0.383330 0.601796 0.000000000000000e+00 1851878480
-0.930925 -0.385720 0.662557 0.000000000000000e+00 1851878480
-0.925791 -0.389785 0.722976 0.000000000000000e+00 1851878480
-0.899565 -0.397090 0.784909 0.000000000000000e+00 1851878480
-0.816545 -0.413243 0.853198 0.000000000000000e+00 1851878480
-0.753830 -0.426446 0.923119 0.000000000000000e+00 1851878480
-0.718909 -0.435477 0.992838 0.000000000000000e+00 1851878480
-0.675347 -0.446014 1.066441 0.000000000000000e+00 1851878480
-0.911716 -0.353827 0.172370 0.000000000000000e+00 1851878480
-0.909244 -0.357592 0.234631 0.000000000000000e+00 1851878480
-0.893464 -0.363168 0.294342 0.000000000000000e+00 1851878480
-0.903209 -0.365177 0.357242 0.000000000000000e+00 1851878480
-0.910981 -0.367425 0.419225 0.000000000000000e+00 1851878480
-0.916755 -0.369952 0.480953 0.000000000000000e+00 1851878480
-0.920832 -0.372676 0.541735 0.000000000000000e+00 1851878480
-0.925029 -0.375367 0.602241 0.000000000000000e+00 1851878480
-0.931119 -0.377793 0.662968 0.000000000000000e+00 1851878480
-0.925798 -0.381873 0.723363 0.000000000000000e+00 1851878480
-0.899563 -0.389103 0.785272 0.000000000000000e+00 1851878480
-0.816546 -0.405005 0.853543 0.000000000000000e+00 1851878480
-0.753846 -0.418018 0.923442 0.000000000000000e+00 1851878480
-0.718777 -0.426969 0.993154 0.000000000000000e+00 1851878480
-0.677059 -0.437091 1.066457 0.000000000000000e+00 1851878480
-0.912094 -0.345791 0.173073 0.000000000000000e+00 1851878480
-0.908063 -0.349763 0.235053 0.000000000000000e+00 1851878480
-0.893431 -0.355140 0.294921 0.000000000000000e+00 1851878480
-0.903178 -0.357183 0.357792 0.000000000000000e+00 1851878480
-0.911004 -0.359451 0.419751 0.000000000000000e+00 1851878480
-0.916800 -0.361997 0.481452 0.000000000000000e+00 1851878480
-0.920973 -0.364724 0.542209 0.000000000000000e+00 1851878480
-0.925308 -0.367412 0.602686 0.000000000000000e+00 1851878480
-0.931320 -0.369872 0.663379 0.000000000000000e+00 1851878480
-0.925792 -0.373970 0.723750 0.000000000000000e+00 1851878480
-0.899558 -0.381123 0.785637 0.000000000000000e+00 1851878480
-0.816535 -0.396776 0.853892 0.000000000000000e+00 1851878480
-0.753854 -0.409598 0.923769 0.000000000000000e+00 1851878480
-0.718637 -0.418468 0.993475 0.000000000000000e+00 1851878480
-0.686773 -0.426972 1.065272 0.000000000000000e+00 1851878480
-0.912471 -0.337765 0.173771 0.000000000000000e+00 1851878480
-0.906871 -0.341934 0.235470 0.000000000000000e+00 1851878480
-0.893397 -0.347118 0.295496 0.000000000000000e+00 1851878480
-0.903145 -0.349195 0.358340 0.000000000000000e+00 1851878480
-0.911027 -0.351484 0.420276 0.000000000000000e+00 1851878480
-0.916856 -0.354048 0.481951 0.000000000000000e+00 1851878480
-0.921096 -0.356782 0.542682 0.000000000000000e+00 1851878480
-0.925506 -0.359478 0.603131 0.000000000000000e+00 1851878480
-0.931550 -0.361955 0.663791 0.000000000000000e+00 1851878480
-0.925785 -0.366074 0.724139 0.000000000000000e+00 1851878480
-0.899517 -0.373156 0.786006 0.000000000000000e+00 1851878480
-0.816520 -0.388555 0.854244 0.000000000000000e+00 1851878480
-0.753908 -0.401179 0.924095 0.000000000000000e+00 1851878480
-0.718494 -0.409975 0.993800 0.000000000000000e+00 1851878480
-0.686534 -0.418400 1.065589 0.000000000000000e+00 1851878480
-0.912850 -0.329747 0.174466 0.000000000000000e+00 1851878480
-0.905685 -0.334105 0.235885 0.000000000000000e+00 1851878480
-0.893362 -0.339103 0.296069 0.000000000000000e+00 1851878480
-0.903108 -0.341215 0.358885 0.000000000000000e+00 1851878480
-0.911049 -0.343525 0.420799 0.000000000000000e+00 1851878480
-0.916919 -0.346105 0.482449 0.000000000000000e+00 1851878480
-0.921218 -0.348848 0.543154 0.000000000000000e+00 1851878480
-0.925685 -0.351554 0.603575 0.000000000000000e+00 1851878480
-0.931679 -0.354061 0.664205 0.000000000000000e+00 1851878480
-0.925777 -0.358185 0.724530 0.000000000000000e+00 1851878480
-0.899457 -0.365198 0.786378 0.000000000000000e+00 1851878480
-0.816500 -0.380341 0.854599 0.000000000000000e+00 1851878480
-0.753996 -0.392763 0.924420 0.000000000000000e+00 1851878480
-0.718399 -0.401482 0.994123 0.000000000000000e+00 1851878480
-0.682253 -0.410424 1.066521 0.000000000000000e+00 1851878480
-0.913229 -0.321738 0.175157 0.000000000000000e+00 1851878480
-0.904505 -0.326274 0.236299 0.000000000000000e+00 1851878480
-0.893328 -0.331095 0.296639 0.000000000000000e+00 1851878480
-0.903072 -0.333241 0.359428 0.000000000000000e+00 1851878480
-0.911061 -0.335573 0.421320 0.000000000000000e+00 1851878480
-0.916983 -0.338168 0.482946 0.000000000000000e+00 1851878480
-0.921341 -0.340922 0.543626 0.000000000000000e+00 1851878480
-0.925863 -0.343637 0.604019 0.000000000000000e+00 1851878480
-0.931806 -0.346173 0.664619 0.000000000000000e+00 1851878480
-0.925768 -0.350302 0.724922 0.000000000000000e+00 1851878480
-0.899345 -0.357253 0.786754 0.000000000000000e+00 1851878480
-0.816476 -0.372135 0.854957 0.000000000000000e+00 1851878480
-0.754088 -0.384354 0.924748 0.000000000000000e+00 1851878480
-0.718318 -0.392993 0.994448 0.000000000000000e+00 1851878480
-0.681845 -0.401876 1.066874 0.000000000000000e+00 1851878480
-0.913607 -0.313737 0.175843 0.000000000000000e+00 1851878480
-0.903349 -0.318438 0.236713 0.000000000000000e+00 1851878480
-0.893272 -0.323095 0.297204 0.000000000000000e+00 1851878480
-0.903025 -0.325274 0.359967 0.000000000000000e+00 1851878480
-0.911065 -0.327629 0.421839 0.000000000000000e+00 1851878480
-0.917046 -0.330239 0.483442 0.000000000000000e+00 1851878480
-0.921447 -0.333004 0.544097 0.000000000000000e+00 1851878480
-0.926040 -0.335729 0.604463 0.000000000000000e+00 1851878480
-0.931933 -0.338294 0.665034 0.000000000000000e+00 1851878480
-0.925758 -0.342426 0.725315 0.000000000000000e+00 1851878480
-0.899232 -0.349315 0.787133 0.000000000000000e+00 1851878480
-0.816441 -0.363937 0.855318 0.000000000000000e+00 1851878480
-0.754208 -0.375948 0.925076 0.000000000000000e+00 1851878480
-0.718215 -0.384513 0.994779 0.000000000000000e+00 1851878480
-0.681584 -0.393312 1.067209 0.000000000000000e+00 1851878480
-0.913982 -0.305746 0.176525 0.000000000000000e+00 1851878480
-0.902160 -0.310606 0.237120 0.000000000000000e+00 1851878480
-0.893183 -0.315105 0.297761 0.000000000000000e+00 1851878480
-0.902929 -0.317319 0.360500 0.000000000000000e+00 1851878480
-0.910985 -0.319701 0.422349 0.000000000000000e+00 1851878480
-0.917071 -0.322321 0.483935 0.000000000000000e+00 1851878480
-0.921546 -0.325095 0.544567 0.000000000000000e+00 1851878480
-0.926212 -0.327828 0.604908 0.000000000000000e+00 1851878480
-0.932060 -0.330421 0.665450 0.000000000000000e+00 1851878480
-0.925747 -0.334557 0.725709 0.000000000000000e+00 1851878480
-0.899116 -0.341382 0.787514 0.000000000000000e+00 1851878480
-0.816403 -0.355746 0.855683 0.000000000000000e+00 1851878480
-0.754327 -0.367551 0.925408 0.000000000000000e+00 1851878480
-0.718059 -0.376047 0.995122 0.000000000000000e+00 1851878480
-0.681261 -0.384762 1.067558 0.000000000000000e+00 1851878480
-0.914310 -0.297768 0.177194 0.000000000000000e+00 1851878480
-0.900933 -0.302778 0.237517 0.000000000000000e+00 1851878480
-0.893094 -0.307120 0.298316 0.000000000000000e+00 1851878480
-0.902833 -0.309370 0.361030 0.000000000000000e+00 1851878480
-0.910911 -0.311779 0.422858 0.000000000000000e+00 1851878480
-0.917015 -0.314420 0.484422 0.000000000000000e+00 1851878480
-0.921614 -0.317196 0.545036 0.000000000000000e+00 1851878480
-0.926384 -0.319935 0.605352 0.000000000000000e+00 1851878480
-0.932187 -0.322555 0.665867 0.000000000000000e+00 1851878480
-0.925736 -0.326693 0.726105 0.000000000000000e+00 1851878480
-0.898997 -0.333455 0.787897 0.000000000000000e+00 1851878480
-0.816350 -0.347562 0.856051 0.000000000000000e+00 1851878480
-0.754415 -0.359164 0.925746 0.000000000000000e+00 1851878480
-0.717962 -0.367580 0.995461 0.000000000000000e+00 1851878480
-0.680966 -0.376214 1.067907 0.000000000000000e+00 1851878480
-0.914638 -0.289798 0.177859 0.000000000000000e+00 1851878480
-0.899712 -0.294946 0.237914 0.000000000000000e+00 1851878480
-0.893008 -0.299141 0.298869 0.000000000000000e+00 1851878480
-0.902737 -0.301426 0.361558 0.000000000000000e+00 1851878480
-0.910842 -0.303861 0.423366 0.000000000000000e+00 1851878480
-0.916959 -0.306523 0.484908 0.000000000000000e+00 1851878480
-0.921590 -0.309314 0.545501 0.000000000000000e+00 1851878480
-0.926532 -0.312051 0.605796 0.000000000000000e+00 1851878480
-0.932315 -0.314696 0.666284 0.000000000000000e+00 1851878480
-0.925706 -0.318838 0.726503 0.000000000000000e+00 1851878480
-0.898877 -0.325534 0.788282 0.000000000000000e+00 1851878480
-0.816255 -0.339391 0.856425 0.000000000000000e+00 1851878480
-0.754450 -0.350792 0.926093 0.000000000000000e+00 1851878480
-0.717885 -0.359115 0.995801 0.000000000000000e+00 1851878480
-0.680691 -0.367667 1.068259 0.000000000000000e+00 1851878480
-0.914956 -0.281837 0.178519 0.000000000000000e+00 1851878480
-0.898499 -0.287112 0.238308 0.000000000000000e+00 1851878480
-0.892922 -0.291167 0.299419 0.000000000000000e+00 1851878480
-0.902641 -0.293487 0.362084 0.000000000000000e+00 1851878480
-0.910772 -0.295948 0.423872 0.000000000000000e+00 1851878480
-0.916903 -0.298632 0.485393 0.000000000000000e+00 1851878480
-0.921566 -0.301438 0.545965 0.000000000000000e+00 1851878480
-0.926540 -0.304191 0.606239 0.000000000000000e+00 1851878480
-0.932432 -0.306844 0.666702 0.000000000000000e+00 1851878480
-0.925665 -0.310990 0.726903 0.000000000000000e+00 1851878480
-0.898754 -0.317618 0.788668 0.000000000000000e+00 1851878480
-0.816159 -0.331225 0.856801 0.000000000000000e+00 1851878480
-0.754572 -0.342415 0.926434 0.000000000000000e+00 1851878480
-0.717806 -0.350657 0.996145 0.000000000000000e+00 1851878480
-0.680395 -0.359128 1.068617 0.000000000000000e+00 1851878480
-0.915271 -0.273884 0.179174 0.000000000000000e+00 1851878480
-0.897281 -0.279277 0.238700 0.000000000000000e+00 1851878480
-0.892836 -0.283197 0.299966 0.000000000000000e+00 1851878480
-0.902549 -0.285553 0.362609 0.000000000000000e+00 1851878480
-0.910703 -0.288041 0.424377 0.000000000000000e+00 1851878480
-0.916847 -0.290747 0.485878 0.000000000000000e+00 1851878480
-0.921542 -0.293568 0.546430 0.000000000000000e+00 1851878480
-0.926549 -0.296336 0.606682 0.000000000000000e+00 1851878480
-0.932474 -0.299008 0.667122 0.000000000000000e+00 1851878480
-0.925622 -0.303147 0.727304 0.000000000000000e+00 1851878480
-0.898630 -0.309708 0.789058 0.000000000000000e+00 1851878480
-0.816066 -0.323063 0.857180 0.000000000000000e+00 1851878480
-0.754691 -0.334045 0.926779 0.000000000000000e+00 1851878480
-0.717713 -0.342206 0.996496 0.000000000000000e+00 1851878480
-0.680047 -0.350601 1.068989 0.000000000000000e+00 1851878480
-0.915585 -0.265938 0.179825 0.000000000000000e+00 1851878480
-0.896038 -0.271443 0.239085 0.000000000000000e+00 1851878480
-0.892748 -0.275233 0.300511 0.000000000000000e+00 1851878480
-0.902456 -0.277624 0.363131 0.000000000000000e+00 1851878480
-0.910633 -0.280138 0.424881 0.000000000000000e+00 1851878480
-0.916790 -0.282866 0.486361 0.000000000000000e+00 1851878480
-0.921518 -0.285703 0.546894 0.000000000000000e+00 1851878480
-0.926565 -0.288486 0.607125 0.000000000000000e+00 1851878480
-0.932517 -0.291177 0.667542 0.000000000000000e+00 1851878480
-0.925580 -0.295310 0.727706 0.000000000000000e+00 1851878480
-0.898504 -0.301802 0.789449 0.000000000000000e+00 1851878480
-0.815970 -0.314908 0.857562 0.000000000000000e+00 1851878480
-0.754808 -0.325683 0.927127 0.000000000000000e+00 1851878480
-0.717602 -0.333763 0.996852 0.000000000000000e+00 1851878480
-0.679791 -0.342066 1.069351 0.000000000000000e+00 1851878480
-0.915897 -0.257999 0.180472 0.000000000000000e+00 1851878480
-0.894801 -0.263605 0.239468 0.000000000000000e+00 1851878480
-0.892618 -0.267278 0.301047 0.000000000000000e+00 1851878480
-0.902331 -0.269703 0.363649 0.000000000000000e+00 1851878480
-0.910541 -0.272243 0.425381 0.000000000000000e+00 1851878480
-0.916729 -0.274991 0.486843 0.000000000000000e+00 1851878480
-0.921494 -0.277842 0.547357 0.000000000000000e+00 1851878480
-0.926588 -0.280641 0.607568 0.000000000000000e+00 1851878480
-0.932560 -0.283353 0.667963 0.000000000000000e+00 1851878480
-0.925536 -0.287478 0.728110 0.000000000000000e+00 1851878480
-0.898341 -0.293906 0.789844 0.000000000000000e+00 1851878480
-0.815870 -0.306758 0.857947 0.000000000000000e+00 1851878480
-0.754853 -0.317335 0.927486 0.000000000000000e+00 1851878480
-0.717516 -0.325322 0.997209 0.000000000000000e+00 1851878480
-0.679537 -0.333535 1.069718 0.000000000000000e+00 1851878480
-0.916208 -0.250067 0.181115 0.000000000000000e+00 1851878480
-0.893578 -0.255764 0.239850 0.000000000000000e+00 1851878480
-0.892483 -0.259328 0.301581 0.000000000000000e+00 1851878480
-0.902185 -0.261788 0.364161 0.000000000000000e+00 1851878480
-0.910397 -0.264358 0.425875 0.000000000000000e+00 1851878480
-0.916631 -0.267125 0.487323 0.000000000000000e+00 1851878480
-0.921457 -0.269989 0.547820 0.000000000000000e+00 1851878480
-0.926610 -0.272801 0.608012 0.000000000000000e+00 1851878480
-0.932603 -0.275533 0.668385 0.000000000000000e+00 1851878480
-0.925492 -0.279651 0.728515 0.000000000000000e+00 1851878480
-0.898175 -0.286014 0.790241 0.000000000000000e+00 1851878480
-0.815766 -0.298613 0.858334 0.000000000000000e+00 1851878480
-0.754931 -0.308989 0.927844 0.000000000000000e+00 1851878480
-0.717435 -0.316886 0.997570 0.000000000000000e+00 1851878480
-0.679280 -0.325009 1.070089 0.000000000000000e+00 1851878480
-0.916494 -0.242145 0.181749 0.000000000000000e+00 1851878480
-0.892378 -0.247917 0.240234 0.000000000000000e+00 1851878480
-0.892348 -0.251382 0.302112 0.000000000000000e+00 1851878480
-0.902040 -0.253877 0.364672 0.000000000000000e+00 1851878480
-0.910255 -0.256477 0.426369 0.000000000000000e+00 1851878480
-0.916489 -0.259268 0.487798 0.000000000000000e+00 1851878480
-0.921407 -0.262142 0.548282 0.000000000000000e+00 1851878480
-0.926633 -0.264966 0.608456 0.000000000000000e+00 1851878480
-0.932645 -0.267719 0.668808 0.000000000000000e+00 1851878480
-0.925448 -0.271828 0.728922 0.000000000000000e+00 1851878480
-0.898008 -0.278127 0.790641 0.000000000000000e+00 1851878480
-0.815657 -0.290474 0.858725 0.000000000000000e+00 1851878480
-0.755018 -0.300649 0.928205 0.000000000000000e+00 1851878480
-0.717361 -0.308454 0.997933 0.000000000000000e+00 1851878480
-0.679003 -0.316490 1.070469 0.000000000000000e+00 1851878480
-0.916755 -0.234232 0.182375 0.000000000000000e+00 1851878480
-0.891155 -0.240071 0.240611 0.000000000000000e+00 1851878480
-0.892212 -0.243441 0.302640 0.000000000000000e+00 1851878480
-0.901894 -0.245971 0.365181 0.000000000000000e+00 1851878480
-0.910113 -0.248600 0.426861 0.000000000000000e+00 1851878480
-0.916345 -0.251415 0.488273 0.000000000000000e+00 1851878480
-0.921278 -0.254307 0.548741 0.000000000000000e+00 1851878480
-0.926655 -0.257137 0.608900 0.000000000000000e+00 1851878480
-0.932688 -0.259911 0.669232 0.000000000000000e+00 1851878480
-0.925403 -0.264011 0.729330 0.000000000000000e+00 1851878480
-0.897838 -0.270244 0.791042 0.000000000000000e+00 1851878480
-0.815535 -0.282341 0.859120 0.000000000000000e+00 1851878480
-0.755102 -0.292315 0.928569 0.000000000000000e+00 1851878480
-0.717303 -0.300026 0.998298 0.000000000000000e+00 1851878480
-0.678723 -0.307974 1.070853 0.000000000000000e+00 1851878480
-0.917011 -0.226324 0.182997 0.000000000000000e+00 1851878480
-0.889913 -0.232224 0.240983 0.000000000000000e+00 1851878480
-0.892077 -0.235503 0.303165 0.000000000000000e+00 1851878480
-0.901749 -0.238068 0.365689 0.000000000000000e+00 1851878480
-0.909971 -0.240727 0.427351 0.000000000000000e+00 1851878480
-0.916202 -0.243565 0.488747 0.000000000000000e+00 1851878480
-0.921149 -0.246476 0.549200 0.000000000000000e+00 1851878480
-0.926571 -0.249322 0.609343 0.000000000000000e+00 1851878480
-0.932735 -0.252106 0.669656 0.000000000000000e+00 1851878480
-0.925356 -0.256199 0.729739 0.000000000000000e+00 1851878480
-0.897667 -0.262364 0.791446 0.000000000000000e+00 1851878480
-0.815386 -0.274215 0.859519 0.000000000000000e+00 1851878480
-0.755154 -0.283990 0.928941 0.000000000000000e+00 1851878480
-0.717206 -0.291607 0.998673 0.000000000000000e+00 1851878480
-0.678439 -0.299463 1.071243 0.000000000000000e+00 1851878480
-0.917266 -0.218423 0.183614 0.000000000000000e+00 1851878480
-0.888678 -0.224372 0.241353 0.000000000000000e+00 1851878480
-0.891940 -0.227568 0.303689 0.000000000000000e+00 1851878480
-0.901604 -0.230169 0.366194 0.000000000000000e+00 1851878480
-0.909829 -0.232857 0.427841 0.000000000000000e+00 1851878480
-0.916059 -0.235719 0.489221 0.000000000000000e+00 1851878480
-0.921020 -0.238648 0.549659 0.000000000000000e+00 1851878480
-0.926466 -0.241514 0.609787 0.000000000000000e+00 1851878480
-0.932749 -0.244310 0.670082 0.000000000000000e+00 1851878480
-0.925295 -0.248392 0.730151 0.000000000000000e+00 1851878480
-0.897494 -0.254489 0.791852 0.000000000000000e+00 1851878480
-0.815242 -0.266092 0.859920 0.000000000000000e+00 1851878480
-0.755167 -0.275674 0.929319 0.000000000000000e+00 1851878480
-0.717106 -0.283192 0.999051 0.000000000000000e+00 1851878480
-0.678175 -0.290954 1.071634 0.000000000000000e+00 1851878480
-0.917519 -0.210529 0.184228 0.000000000000000e+00 1851878480
-0.887888 -0.216481 0.241789 0.000000000000000e+00 1851878480
-0.891801 -0.219638 0.304209 0.000000000000000e+00 1851878480
-0.901458 -0.222274 0.366697 0.000000000000000e+00 1851878480
-0.909687 -0.224992 0.428329 0.000000000000000e+00 1851878480
-0.915917 -0.227877 0.489693 0.000000000000000e+00 1851878480
-0.920891 -0.230825 0.550117 0.000000000000000e+00 1851878480
-0.926378 -0.233708 0.610230 0.000000000000000e+00 1851878480
-0.932747 -0.236520 0.670508 0.000000000000000e+00 1851878480
-0.925235 -0.240589 0.730564 0.000000000000000e+00 1851878480
-0.897318 -0.246618 0.792260 0.000000000000000e+00 1851878480
-0.815096 -0.257974 0.860325 0.000000000000000e+00 1851878480
-0.755187 -0.267362 0.929700 0.000000000000000e+00 1851878480
-0.717005 -0.274783 0.999434 0.000000000000000e+00 1851878480
-0.677952 -0.282444 1.072024 0.000000000000000e+00 1851878480
-0.917772 -0.202639 0.184837 0.000000000000000e+00 1851878480
-0.887344 -0.208570 0.242259 0.000000000000000e+00 1851878480
-0.891617 -0.211715 0.304721 0.000000000000000e+00 1851878480
-0.901282 -0.214384 0.367195 0.000000000000000e+00 1851878480
-0.909533 -0.217130 0.428814 0.000000000000000e+00 1851878480
-0.915773 -0.220038 0.490165 0.000000000000000e+00 1851878480
-0.920762 -0.223004 0.550575 0.000000000000000e+00 1851878480
-0.926291 -0.225906 0.610674 0.000000000000000e+00 1851878480
-0.932736 -0.228734 0.670936 0.000000000000000e+00 1851878480
-0.925174 -0.232790 0.730978 0.000000000000000e+00 1851878480
-0.897140 -0.238750 0.792670 0.000000000000000e+00 1851878480
-0.814946 -0.249859 0.860732 0.000000000000000e+00 1851878480
-0.755205 -0.259055 0.930084 0.000000000000000e+00 1851878480
-0.716923 -0.266375 0.999818 0.000000000000000e+00 1851878480
-0.677667 -0.273943 1.072428 0.000000000000000e+00 1851878480
-0.918017 -0.194757 0.185441 0.000000000000000e+00 1851878480
-0.886803 -0.200659 0.242728 0.000000000000000e+00 1851878480
-0.891432 -0.203795 0.305230 0.000000000000000e+00 1851878480
-0.901090 -0.206499 0.367690 0.000000000000000e+00 1851878480
-0.909332 -0.209275 0.429295 0.000000000000000e+00 1851878480
-0.915621 -0.212204 0.490636 0.000000000000000e+00 1851878480
-0.920634 -0.215188 0.551033 0.000000000000000e+00 1851878480
-0.926205 -0.218107 0.611119 0.000000000000000e+00 1851878480
-0.932720 -0.220954 0.671364 0.000000000000000e+00 1851878480
-0.925113 -0.224995 0.731394 0.000000000000000e+00 1851878480
-0.896954 -0.230886 0.793083 0.000000000000000e+00 1851878480
-0.814793 -0.241749 0.861143 0.000000000000000e+00 1851878480
-0.755221 -0.250754 0.930472 0.000000000000000e+00 1851878480
-0.716810 -0.257975 1.000210 0.000000000000000e+00 1851878480
-0.677363 -0.265447 1.072839 0.000000000000000e+00 1851878480
-0.918247 -0.186880 0.186039 0.000000000000000e+00 1851878480
-0.886264 -0.192749 0.243193 0.000000000000000e+00 1851878480
-0.891249 -0.195877 0.305737 0.000000000000000e+00 1851878480
-0.900898 -0.198617 0.368183 0.000000000000000e+00 1851878480
-0.909129 -0.201424 0.429774 0.000000000000000e+00 1851878480
-0.915411 -0.204377 0.491102 0.000000000000000e+00 1851878480
-0.920501 -0.207375 0.551490 0.000000000000000e+00 1851878480
-0.926118 -0.210312 0.611563 0.000000000000000e+00 1851878480
-0.932704 -0.213178 0.671793 0.000000000000000e+00 1851878480
-0.925050 -0.217205 0.731811 0.000000000000000e+00 1851878480
-0.896759 -0.223026 0.793498 0.000000000000000e+00 1851878480
-0.814636 -0.233642 0.861556 0.000000000000000e+00 1851878480
-0.755174 -0.242462 0.930870 0.000000000000000e+00 1851878480
-0.716665 -0.249581 1.000610 0.000000000000000e+00 1851878480
-0.677071 -0.256953 1.073254 0.000000000000000e+00 1851878480
-0.918426 -0.179012 0.186625 0.000000000000000e+00 1851878480
-0.885727 -0.184839 0.243656 0.000000000000000e+00 1851878480
-0.891066 -0.187963 0.306242 0.000000000000000e+00 1851878480
-0.900704 -0.190737 0.368673 0.000000000000000e+00 1851878480
-0.908924 -0.193575 0.430251 0.000000000000000e+00 1851878480
-0.915200 -0.196553 0.491568 0.000000000000000e+00 1851878480
-0.920322 -0.199569 0.551946 0.000000000000000e+00 1851878480
-0.926032 -0.202520 0.612009 0.000000000000000e+00 1851878480
-0.932687 -0.205405 0.672224 0.000000000000000e+00 1851878480
-0.924992 -0.209417 0.732229 0.000000000000000e+00 1851878480
-0.896561 -0.215169 0.793916 0.000000000000000e+00 1851878480
-0.814480 -0.225538 0.861972 0.000000000000000e+00 1851878480
-0.755143 -0.234173 0.931269 0.000000000000000e+00 1851878480
-0.716517 -0.241191 1.001015 0.000000000000000e+00 1851878480
-0.676822 -0.248458 1.073666 0.000000000000000e+00 1851878480
-0.918605 -0.171149 0.187206 0.000000000000000e+00 1851878480
-0.885194 -0.176929 0.244117 0.000000000000000e+00 1851878480
-0.890882 -0.180051 0.306745 0.000000000000000e+00 1851878480
-0.900510 -0.182860 0.369162 0.000000000000000e+00 1851878480
-0.908720 -0.185729 0.430728 0.000000000000000e+00 1851878480
-0.914990 -0.188731 0.492033 0.000000000000000e+00 1851878480
-0.920115 -0.191767 0.552401 0.000000000000000e+00 1851878480
-0.925940 -0.194732 0.612454 0.000000000000000e+00 1851878480
-0.932672 -0.197636 0.672655 0.000000000000000e+00 1851878480
-0.924936 -0.201632 0.732649 0.000000000000000e+00 1851878480
-0.896361 -0.207315 0.794336 0.000000000000000e+00 1851878480
-0.814324 -0.217438 0.862390 0.000000000000000e+00 1851878480
-0.755109 -0.225889 0.931672 0.000000000000000e+00 1851878480
-0.716382 -0.232804 1.001422 0.000000000000000e+00 1851878480
-0.676569 -0.239966 1.074084 0.000000000000000e+00 1851878480
-0.918782 -0.163290 0.187784 0.000000000000000e+00 1851878480
-0.884658 -0.169019 0.244575 0.000000000000000e+00 1851878480
-0.890699 -0.172141 0.307244 0.000000000000000e+00 1851878480
-0.900315 -0.174985 0.369649 0.000000000000000e+00 1851878480
-0.908516 -0.177884 0.431203 0.000000000000000e+00 1851878480
-0.914779 -0.180911 0.492497 0.000000000000000e+00 1851878480
-0.919908 -0.183967 0.552855 0.000000000000000e+00 1851878480
-0.925772 -0.186952 0.612899 0.000000000000000e+00 1851878480
-0.932656 -0.189870 0.673087 0.000000000000000e+00 1851878480
-0.924881 -0.193851 0.733070 0.000000000000000e+00 1851878480
-0.896146 -0.199464 0.794758 0.000000000000000e+00 1851878480
-0.814138 -0.209342 0.862814 0.000000000000000e+00 1851878480
-0.755074 -0.217608 0.932079 0.000000000000000e+00 1851878480
-0.716273 -0.224417 1.001829 0.000000000000000e+00 1851878480
-0.676261 -0.231481 1.074515 0.000000000000000e+00 1851878480
-0.918959 -0.155436 0.188358 0.000000000000000e+00 1851878480
-0.884323 -0.161098 0.245060 0.000000000000000e+00 1851878480
-0.890514 -0.164234 0.307742 0.000000000000000e+00 1851878480
-0.900119 -0.167113 0.370134 0.000000000000000e+00 1851878480
-0.908312 -0.170042 0.431677 0.000000000000000e+00 1851878480
-0.914569 -0.173094 0.492961 0.000000000000000e+00 1851878480
-0.919702 -0.176170 0.553310 0.000000000000000e+00 1851878480
-0.925604 -0.179175 0.613344 0.000000000000000e+00 1851878480
-0.932620 -0.182110 0.673520 0.000000000000000e+00 1851878480
-0.924822 -0.186073 0.733493 0.000000000000000e+00 1851878480
-0.895928 -0.191616 0.795183 0.000000000000000e+00 1851878480
-0.813945 -0.201250 0.863241 0.000000000000000e+00 1851878480
-0.755000 -0.209334 0.932493 0.000000000000000e+00 1851878480
-0.716098 -0.216039 1.002249 0.000000000000000e+00 1851878480
-0.675943 -0.223000 1.074952 0.000000000000000e+00 1851878480
-0.919135 -0.147586 0.188928 0.000000000000000e+00 1851878480
-0.884017 -0.153176 0.245547 0.000000000000000e+00 1851878480
-0.890287 -0.156330 0.308232 0.000000000000000e+00 1851878480
-0.899904 -0.159243 0.370615 0.000000000000000e+00 1851878480
-0.908107 -0.162202 0.432149 0.000000000000000e+00 1851878480
-0.914357 -0.165278 0.493424 0.000000000000000e+00 1851878480
-0.919496 -0.168375 0.553764 0.000000000000000e+00 1851878480
-0.925436 -0.171400 0.613790 0.000000000000000e+00 1851878480
-0.932576 -0.174353 0.673954 0.000000000000000e+00 1851878480
-0.924759 -0.178299 0.733918 0.000000000000000e+00 1851878480
-0.895708 -0.183771 0.795610 0.000000000000000e+00 1851878480
-0.813748 -0.193160 0.863671 0.000000000000000e+00 1851878480
-0.754933 -0.201062 0.932909 0.000000000000000e+00 1851878480
-0.715921 -0.207663 1.002674 0.000000000000000e+00 1851878480
-0.675679 -0.214515 1.075385 0.000000000000000e+00 1851878480
-0.919308 -0.139740 0.189494 0.000000000000000e+00 1851878480
-0.883712 -0.145255 0.246031 0.000000000000000e+00 1851878480
-0.890055 -0.148430 0.308718 0.000000000000000e+00 1851878480
-0.899662 -0.151378 0.371092 0.000000000000000e+00 1851878480
-0.907859 -0.154367 0.432617 0.000000000000000e+00 1851878480
-0.914145 -0.157465 0.493886 0.000000000000000e+00 1851878480
-0.919290 -0.160582 0.554218 0.000000000000000e+00 1851878480
-0.925268 -0.163628 0.614236 0.000000000000000e+00 1851878480
-0.932533 -0.166599 0.674389 0.000000000000000e+00 1851878480
-0.924695 -0.170528 0.734344 0.000000000000000e+00 1851878480
-0.895486 -0.175927 0.796040 0.000000000000000e+00 1851878480
-0.813548 -0.185073 0.864105 0.000000000000000e+00 1851878480
-0.754864 -0.192794 0.933329 0.000000000000000e+00 1851878480
-0.715745 -0.199291 1.003102 0.000000000000000e+00 1851878480
-0.675413 -0.206034 1.075824 0.000000000000000e+00 1851878480
-0.919466 -0.131899 0.190054 0.000000000000000e+00 1851878480
-0.883406 -0.137335 0.246512 0.000000000000000e+00 1851878480
-0.889823 -0.140530 0.309202 0.000000000000000e+00 1851878480
-0.899421 -0.143513 0.371567 0.000000000000000e+00 1851878480
-0.907604 -0.146533 0.433083 0.000000000000000e+00 1851878480
-0.913903 -0.149654 0.494346 0.000000000000000e+00 1851878480
-0.919084 -0.152790 0.554672 0.000000000000000e+00 1851878480
-0.925101 -0.155857 0.614683 0.000000000000000e+00 1851878480
-0.932489 -0.158847 0.674825 0.000000000000000e+00 1851878480
-0.924631 -0.162758 0.734771 0.000000000000000e+00 1851878480
-0.895261 -0.168085 0.796472 0.000000000000000e+00 1851878480
-0.813343 -0.176988 0.864541 0.000000000000000e+00 1851878480
-0.754792 -0.184529 0.933753 0.000000000000000e+00 1851878480
-0.715624 -0.190917 1.003527 0.000000000000000e+00 1851878480
-0.675143 -0.197554 1.076268 0.000000000000000e+00 1851878480
-0.919602 -0.124063 0.190606 0.000000000000000e+00 1851878480
-0.883101 -0.129416 0.246990 0.000000000000000e+00 1851878480
-0.889591 -0.132633 0.309684 0.000000000000000e+00 1851878480
-0.899179 -0.135650 0.372040 0.000000000000000e+00 1851878480
-0.907348 -0.138701 0.433548 0.000000000000000e+00 1851878480
-0.913637 -0.141847 0.494803 0.000000000000000e+00 1851878480
-0.918878 -0.145001 0.555126 0.000000000000000e+00 1851878480
-0.924934 -0.148088 0.615130 0.000000000000000e+00 1851878480
-0.932443 -0.151099 0.675262 0.000000000000000e+00 1851878480
-0.924566 -0.154992 0.735200 0.000000000000000e+00 1851878480
-0.895037 -0.160245 0.796905 0.000000000000000e+00 1851878480
-0.813134 -0.168906 0.864980 0.000000000000000e+00 1851878480
