# .PCD v0.7 - Point Cloud Data file format
VERSION 0.7
FIELDS x y z rgb label
SIZE 4 4 4 4 4
TYPE F F F F U
COUNT 1 1 1 1 1
WIDTH 771
HEIGHT 1
VIEWPOINT 0 0 0 1 0 0 0
POINTS 771
DATA ascii
-0.668914 -1.773747 0.425822 0.000000000000000e+00 1851878480
-0.780318 -1.847408 0.508435 0.000000000000000e+00 1700951363
-0.806499 -1.869013 0.583394 0.000000000000000e+00 1700951363
-0.735352 -1.831719 0.656707 0.000000000000000e+00 1851878480
-0.666062 -1.795831 0.733687 0.000000000000000e+00 1851878480
-0.848920 -1.855494 0.219635 0.000000000000000e+00 1851878480
-0.759877 -1.806203 0.282204 0.000000000000000e+00 1851878480
-0.670085 -1.756748 0.348534 0.000000000000000e+00 1851878480
-0.679310 -1.768425 0.426880 0.000000000000000e+00 1851878480
-0.804456 -1.850950 0.510006 0.000000000000000e+00 1700951363
-0.828793 -1.871507 0.584394 0.000000000000000e+00 1700951363
-0.752667 -1.830869 0.657281 0.000000000000000e+00 1851878480
-0.667018 -1.784775 0.734484 0.000000000000000e+00 1851878480
-0.838822 -1.838128 0.217869 0.000000000000000e+00 1851878480
-0.770549 -1.801434 0.283583 0.000000000000000e+00 1851878480
-0.672892 -1.746725 0.348947 0.000000000000000e+00 1851878480
-0.675810 -1.754557 0.426878 0.000000000000000e+00 1851878480
-0.801350 -1.837871 0.510242 0.000000000000000e+00 1700951363
-0.828685 -1.860395 0.584910 0.000000000000000e+00 1700951363
-0.741827 -1.812898 0.658015 0.000000000000000e+00 1851878480
-0.682959 -1.782818 0.734788 0.000000000000000e+00 1851878480
-0.853080 -1.835948 0.219978 0.000000000000000e+00 1851878480
-0.766925 -1.787754 0.283083 0.000000000000000e+00 1851878480
-0.692625 -1.747249 0.351110 0.000000000000000e+00 1851878480
-0.692196 -1.752989 0.428387 0.000000000000000e+00 1851878480
-0.797699 -1.824387 0.510454 0.000000000000000e+00 1700951363
-0.828359 -1.849107 0.585423 0.000000000000000e+00 1700951363
-0.771837 -1.819952 0.658505 0.000000000000000e+00 1851878480
-0.685816 -1.772922 0.735523 0.000000000000000e+00 1851878480
-0.848759 -1.822087 0.219123 0.000000000000000e+00 1851878480
-0.752689 -1.767309 0.281188 0.000000000000000e+00 1851878480
-0.710315 -1.746610 0.353056 0.000000000000000e+00 1851878480
-0.693149 -1.741847 0.428720 0.000000000000000e+00 1851878480
-0.804034 -1.817064 0.511149 0.000000000000000e+00 1700951363
-0.863716 -1.859974 0.586682 0.000000000000000e+00 1700951363
-0.776148 -1.811280 0.659147 0.000000000000000e+00 1851878480
-0.690429 -1.764090 0.736201 0.000000000000000e+00 1851878480
-0.873411 -1.826607 0.222883 0.000000000000000e+00 1851878480
-0.787166 -1.777628 0.285680 0.000000000000000e+00 1851878480
-0.702609 -1.730007 0.352373 0.000000000000000e+00 1851878480
-0.692066 -1.729386 0.428898 0.000000000000000e+00 1851878480
-0.815329 -1.812869 0.512083 0.000000000000000e+00 1700951363
-0.827491 -1.826264 0.586449 0.000000000000000e+00 1700951363
-0.779716 -1.802138 0.659795 0.000000000000000e+00 1851878480
-0.701456 -1.759243 0.736662 0.000000000000000e+00 1851878480
-0.871512 -1.814265 0.222406 0.000000000000000e+00 1851878480
-0.790835 -1.768504 0.286127 0.000000000000000e+00 1851878480
-0.715073 -1.726142 0.353773 0.000000000000000e+00 1851878480
-0.714406 -1.731740 0.430847 0.000000000000000e+00 1851878480
-0.812217 -1.799612 0.512320 0.000000000000000e+00 1700951363
-0.844020 -1.825468 0.587312 0.000000000000000e+00 1700951363
-0.787055 -1.795352 0.660418 0.000000000000000e+00 1851878480
-0.700996 -1.747251 0.737514 0.000000000000000e+00 1851878480
-0.854766 -1.792279 0.219554 0.000000000000000e+00 1851878480
-0.800522 -1.763240 0.287360 0.000000000000000e+00 1851878480
-0.731105 -1.724624 0.355539 0.000000000000000e+00 1851878480
-0.715340 -1.720558 0.431173 0.000000000000000e+00 1851878480
-0.833010 -1.801510 0.513705 0.000000000000000e+00 1700951363
-0.845731 -1.815364 0.587868 0.000000000000000e+00 1700951363
-0.807565 -1.796916 0.660945 0.000000000000000e+00 1851878480
-0.712231 -1.742583 0.737966 0.000000000000000e+00 1851878480
-0.880192 -1.797513 0.223429 0.000000000000000e+00 1851878480
-0.786781 -1.742841 0.285515 0.000000000000000e+00 1851878480
-0.738846 -1.717847 0.356444 0.000000000000000e+00 1851878480
-0.728324 -1.717091 0.432408 0.000000000000000e+00 1851878480
-0.828582 -1.787372 0.513878 0.000000000000000e+00 1700951363
-0.867728 -1.818193 0.588833 0.000000000000000e+00 1700951363
-0.806673 -1.784982 0.661623 0.000000000000000e+00 1851878480
-0.723972 -1.738287 0.738398 0.000000000000000e+00 1851878480
-0.880299 -1.786358 0.223258 0.000000000000000e+00 1851878480
-0.806119 -1.743844 0.288008 0.000000000000000e+00 1851878480
-0.808959 -1.751612 0.363787 0.000000000000000e+00 1851878480
-0.740234 -1.712993 0.433558 0.000000000000000e+00 1851878480
-0.842019 -1.784681 0.514904 0.000000000000000e+00 1700951363
-0.869262 -1.808004 0.589384 0.000000000000000e+00 1700951363
-0.802444 -1.770857 0.662330 0.000000000000000e+00 1851878480
-0.721147 -1.724739 0.739338 0.000000000000000e+00 1851878480
-0.881080 -1.775604 0.223190 0.000000000000000e+00 1851878480
-0.796398 -1.725900 0.286683 0.000000000000000e+00 1851878480
-0.815618 -1.744435 0.364573 0.000000000000000e+00 1851878480
-0.757684 -1.712561 0.435122 0.000000000000000e+00 1851878480
-0.842390 -1.773573 0.515305 0.000000000000000e+00 1700951363
-0.853168 -1.786372 0.589588 0.000000000000000e+00 1700951363
-0.823738 -1.773121 0.662840 0.000000000000000e+00 1851878480
-0.722807 -1.714006 0.740125 0.000000000000000e+00 1851878480
-0.878478 -1.762570 0.222577 0.000000000000000e+00 1851878480
-0.820071 -1.729882 0.289739 0.000000000000000e+00 1851878480
-0.827602 -1.740775 0.365905 0.000000000000000e+00 1851878480
-0.757231 -1.700488 0.435336 0.000000000000000e+00 1851878480
-0.858055 -1.772425 0.516431 0.000000000000000e+00 1700951363
-0.892947 -1.800972 0.590889 0.000000000000000e+00 1700951363
-0.823062 -1.761253 0.663520 0.000000000000000e+00 1851878480
-0.741925 -1.714543 0.740291 0.000000000000000e+00 1851878480
0.439734 -0.958206 0.892007 0.000000000000000e+00 1851878480
-0.888706 -1.758028 0.224010 0.000000000000000e+00 1851878480
-0.808073 -1.710309 0.288108 0.000000000000000e+00 1851878480
-0.825975 -1.728155 0.365830 0.000000000000000e+00 1851878480
-0.766264 -1.694629 0.436260 0.000000000000000e+00 1851878480
-0.864518 -1.765310 0.517118 0.000000000000000e+00 1700951363
-0.879543 -1.780981 0.591150 0.000000000000000e+00 1700951363
-0.831207 -1.755101 0.664130 0.000000000000000e+00 1851878480
-0.734892 -1.698157 0.741392 0.000000000000000e+00 1851878480
0.383323 -0.978012 0.889827 0.000000000000000e+00 1851878480
-0.900107 -1.754316 0.225628 0.000000000000000e+00 1851878480
-0.816095 -1.703982 0.289102 0.000000000000000e+00 1851878480
-0.839665 -1.725689 0.367332 0.000000000000000e+00 1851878480
-0.843579 -1.734189 0.442307 0.000000000000000e+00 1851878480
-0.855217 -1.747761 0.517060 0.000000000000000e+00 1700951363
-0.902614 -1.784914 0.592113 0.000000000000000e+00 1700951363
-0.835344 -1.746336 0.664773 0.000000000000000e+00 1851878480
-0.764063 -1.705410 0.741184 0.000000000000000e+00 1851878480
0.350939 -0.982529 0.889157 0.000000000000000e+00 1851878480
-0.901002 -1.743559 0.225562 0.000000000000000e+00 1851878480
-0.834777 -1.704858 0.291493 0.000000000000000e+00 1851878480
-0.832315 -1.709172 0.366661 0.000000000000000e+00 1851878480
-0.868735 -1.739477 0.444429 0.000000000000000e+00 1851878480
-0.864642 -1.742574 0.517885 0.000000000000000e+00 1700951363
-0.888826 -1.764505 0.592373 0.000000000000000e+00 1700951363
-0.834922 -1.734541 0.665457 0.000000000000000e+00 1851878480
-0.758408 -1.689876 0.742240 0.000000000000000e+00 1851878480
0.306923 -0.994914 0.887719 0.000000000000000e+00 1851878480
-0.889900 -1.724604 0.223568 0.000000000000000e+00 1851878480
-0.834565 -1.693042 0.291399 0.000000000000000e+00 1851878480
-0.851057 -1.710175 0.368678 0.000000000000000e+00 1851878480
-0.860468 -1.722430 0.444043 0.000000000000000e+00 1851878480
-0.877203 -1.739529 0.518855 0.000000000000000e+00 1700951363
-0.897216 -1.758768 0.593054 0.000000000000000e+00 1700951363
-0.851064 -1.733741 0.665992 0.000000000000000e+00 1851878480
-0.785986 -1.696330 0.742075 0.000000000000000e+00 1851878480
0.252048 -1.014804 0.885551 0.000000000000000e+00 1851878480
-0.904540 -1.723126 0.225693 0.000000000000000e+00 1851878480
-0.819467 -1.671020 0.289345 0.000000000000000e+00 1851878480
-0.869009 -1.710757 0.370610 0.000000000000000e+00 1851878480
-0.868399 -1.716241 0.444869 0.000000000000000e+00 1851878480
-0.876847 -1.727820 0.519217 0.000000000000000e+00 1700951363
-0.890217 -1.742695 0.593449 0.000000000000000e+00 1700951363
-0.863967 -1.730861 0.666552 0.000000000000000e+00 1851878480
-0.781387 -1.681453 0.743096 0.000000000000000e+00 1851878480
0.230733 -1.012731 0.885543 0.000000000000000e+00 1851878480
-0.912950 -1.717439 0.226817 0.000000000000000e+00 1851878480
-0.830933 -1.667058 0.290778 0.000000000000000e+00 1851878480
-0.862180 -1.694488 0.369986 0.000000000000000e+00 1851878480
-0.865902 -1.702963 0.444913 0.000000000000000e+00 1851878480
-0.883860 -1.721072 0.519923 0.000000000000000e+00 1851878480
-0.894711 -1.734305 0.594058 0.000000000000000e+00 1700951363
-0.848727 -1.709037 0.667381 0.000000000000000e+00 1851878480
-0.809512 -1.688520 0.742894 0.000000000000000e+00 1851878480
0.199593 -1.017371 0.884881 0.000000000000000e+00 1851878480
-0.905568 -1.700827 0.225404 0.000000000000000e+00 1851878480
-0.818658 -1.646740 0.289086 0.000000000000000e+00 1851878480
-0.869274 -1.687703 0.370794 0.000000000000000e+00 1851878480
-0.853837 -1.683044 0.444242 0.000000000000000e+00 1851878480
-0.877164 -1.704956 0.519992 0.000000000000000e+00 1851878480
-0.900352 -1.726689 0.594687 0.000000000000000e+00 1700951363
-0.856930 -1.702970 0.667987 0.000000000000000e+00 1851878480
-0.793319 -1.665753 0.744359 0.000000000000000e+00 1851878480
0.167787 -1.022667 0.884160 0.000000000000000e+00 1851878480
-0.921585 -1.700434 0.227741 0.000000000000000e+00 1851878480
-0.845249 -1.653301 0.292502 0.000000000000000e+00 1851878480
-0.847726 -1.661073 0.368651 0.000000000000000e+00 1851878480
-0.873089 -1.684613 0.445907 0.000000000000000e+00 1851878480
-0.898692 -1.708175 0.521367 0.000000000000000e+00 1851878480
-0.907105 -1.719840 0.595336 0.000000000000000e+00 1700951363
-0.889960 -1.713918 0.668338 0.000000000000000e+00 1851878480
-0.792807 -1.653491 0.745239 0.000000000000000e+00 1851878480
0.125739 -1.035140 0.882741 0.000000000000000e+00 1851878480
-0.927172 -1.692809 0.228400 0.000000000000000e+00 1851878480
-0.853128 -1.646949 0.293453 0.000000000000000e+00 1851878480
-0.860724 -1.658309 0.370061 0.000000000000000e+00 1851878480
-0.872182 -1.672284 0.446066 0.000000000000000e+00 1851878480
-0.905969 -1.701657 0.522080 0.000000000000000e+00 1851878480
-0.932324 -1.725763 0.596310 0.000000000000000e+00 1700951363
-0.891453 -1.703388 0.669005 0.000000000000000e+00 1851878480
-0.802447 -1.648144 0.745732 0.000000000000000e+00 1851878480
0.096220 -1.039344 0.882136 0.000000000000000e+00 1851878480
-0.935311 -1.686990 0.229466 0.000000000000000e+00 1851878480
-0.866927 -1.644789 0.295181 0.000000000000000e+00 1851878480
-0.873176 -1.655228 0.371412 0.000000000000000e+00 1851878480
-0.873650 -1.661560 0.446402 0.000000000000000e+00 1851878480
-0.910964 -1.693564 0.522686 0.000000000000000e+00 1851878480
-0.938192 -1.718405 0.596936 0.000000000000000e+00 1851878480
-0.896747 -1.695460 0.669634 0.000000000000000e+00 1851878480
-0.830589 -1.655616 0.745503 0.000000000000000e+00 1851878480
0.081260 -1.033717 0.882495 0.000000000000000e+00 1851878480
-0.922108 -1.666012 0.227096 0.000000000000000e+00 1851878480
-0.859920 -1.627949 0.294167 0.000000000000000e+00 1851878480
-0.876905 -1.646044 0.371863 0.000000000000000e+00 1851878480
-0.878280 -1.653027 0.446970 0.000000000000000e+00 1851878480
-0.917173 -1.686319 0.523346 0.000000000000000e+00 1851878480
-0.932945 -1.703272 0.597371 0.000000000000000e+00 1851878480
-0.892716 -1.681024 0.670365 0.000000000000000e+00 1851878480
-0.829193 -1.642749 0.746419 0.000000000000000e+00 1851878480
0.053305 -1.037164 0.881971 0.000000000000000e+00 1851878480
-0.942404 -1.668849 0.230109 0.000000000000000e+00 1851878480
-0.857498 -1.614269 0.293752 0.000000000000000e+00 1851878480
-0.885464 -1.640280 0.372808 0.000000000000000e+00 1851878480
-0.901590 -1.657730 0.448923 0.000000000000000e+00 1851878480
-0.919787 -1.676541 0.523840 0.000000000000000e+00 1851878480
-0.926763 -1.687386 0.597793 0.000000000000000e+00 1851878480
-0.898931 -1.673697 0.670985 0.000000000000000e+00 1851878480
-0.836199 -1.635700 0.747007 0.000000000000000e+00 1851878480
0.030870 -1.036943 0.881809 0.000000000000000e+00 1851878480
-0.928553 -1.647217 0.227622 0.000000000000000e+00 1851878480
-0.879217 -1.617851 0.296513 0.000000000000000e+00 1851878480
-0.877299 -1.622570 0.372031 0.000000000000000e+00 1851878480
-0.877679 -1.628900 0.447371 0.000000000000000e+00 1851878480
-0.920645 -1.665488 0.524255 0.000000000000000e+00 1851878480
-0.929910 -1.678007 0.598376 0.000000000000000e+00 1851878480
-0.902107 -1.664229 0.671641 0.000000000000000e+00 1851878480
-0.833635 -1.621922 0.747977 0.000000000000000e+00 1851878480
0.001965 -1.041398 0.881194 0.000000000000000e+00 1851878480
-0.939794 -1.643602 0.229170 0.000000000000000e+00 1851878480
-0.874165 -1.602233 0.295745 0.000000000000000e+00 1851878480
-0.894630 -1.623102 0.373872 0.000000000000000e+00 1851878480
-0.905849 -1.637201 0.449677 0.000000000000000e+00 1851878480
-0.925106 -1.656972 0.524832 0.000000000000000e+00 1851878480
-0.954318 -1.683776 0.599313 0.000000000000000e+00 1851878480
-0.918220 -1.663941 0.672145 0.000000000000000e+00 1851878480
-0.840354 -1.614652 0.748580 0.000000000000000e+00 1851878480
-0.022734 -1.043075 0.880854 0.000000000000000e+00 1851878480
-0.948758 -1.638378 0.230349 0.000000000000000e+00 1851878480
-0.882116 -1.595973 0.296686 0.000000000000000e+00 1851878480
-0.890113 -1.607903 0.373465 0.000000000000000e+00 1851878480
-0.904424 -1.624321 0.449789 0.000000000000000e+00 1851878480
-0.922830 -1.643593 0.525104 0.000000000000000e+00 1851878480
-0.950910 -1.669746 0.599785 0.000000000000000e+00 1851878480
-0.904763 -1.642585 0.673000 0.000000000000000e+00 1851878480
-0.857902 -1.615116 0.748745 0.000000000000000e+00 1851878480
-0.027774 -1.030930 0.881863 0.000000000000000e+00 1851878480
0.390352 -0.742539 1.021461 0.000000000000000e+00 1851878480
-0.957145 -1.632761 0.231430 0.000000000000000e+00 1851878480
-0.862223 -1.569354 0.293953 0.000000000000000e+00 1851878480
-0.905714 -1.607287 0.375122 0.000000000000000e+00 1851878480
-0.900274 -1.609395 0.449700 0.000000000000000e+00 1851878480
-0.924104 -1.632715 0.525537 0.000000000000000e+00 1851878480
-0.946688 -1.655046 0.600246 0.000000000000000e+00 1851878480
-0.914042 -1.637430 0.673585 0.000000000000000e+00 1851878480
-0.856531 -1.602104 0.749675 0.000000000000000e+00 1851878480
-0.058222 -1.036944 0.881107 0.000000000000000e+00 1851878480
0.293522 -0.793970 1.013729 0.000000000000000e+00 1851878480
-0.953221 -1.618074 0.230521 0.000000000000000e+00 1851878480
-0.870626 -1.563340 0.294946 0.000000000000000e+00 1851878480
-0.898727 -1.590179 0.374456 0.000000000000000e+00 1851878480
-0.927923 -1.617649 0.451955 0.000000000000000e+00 1851878480
-0.924339 -1.621040 0.525923 0.000000000000000e+00 1851878480
-0.961497 -1.654095 0.601016 0.000000000000000e+00 1851878480
-0.935186 -1.640911 0.674018 0.000000000000000e+00 1851878480
-0.878912 -1.606189 0.749632 0.000000000000000e+00 1851878480
-0.093211 -1.046439 0.880018 0.000000000000000e+00 1851878480
0.229547 -0.822622 1.009156 0.000000000000000e+00 1851878480
-0.955962 -1.608253 0.230683 0.000000000000000e+00 1851878480
-0.890787 -1.566065 0.297486 0.000000000000000e+00 1851878480
-0.901228 -1.579963 0.374762 0.000000000000000e+00 1851878480
-0.925435 -1.603912 0.451984 0.000000000000000e+00 1851878480
-0.924942 -1.609585 0.526325 0.000000000000000e+00 1851878480
-0.953721 -1.636703 0.601424 0.000000000000000e+00 1851878480
-0.924743 -1.621492 0.674849 0.000000000000000e+00 1851878480
-0.870031 -1.587695 0.750877 0.000000000000000e+00 1851878480
-0.100427 -1.036056 0.880862 0.000000000000000e+00 1851878480
0.176489 -0.843895 1.005616 0.000000000000000e+00 1851878480
-0.958467 -1.598230 0.230802 0.000000000000000e+00 1851878480
-0.885734 -1.550118 0.296698 0.000000000000000e+00 1851878480
-0.923258 -1.584236 0.377071 0.000000000000000e+00 1851878480
-0.923202 -1.590289 0.452032 0.000000000000000e+00 1851878480
-0.951976 -1.617610 0.527909 0.000000000000000e+00 1851878480
-0.971056 -1.637678 0.602229 0.000000000000000e+00 1851878480
-0.937198 -1.618735 0.675389 0.000000000000000e+00 1851878480
-0.871021 -1.576290 0.751719 0.000000000000000e+00 1851878480
-0.116607 -1.032210 0.881074 0.000000000000000e+00 1851878480
0.145113 -0.849819 1.004193 0.000000000000000e+00 1851878480
-0.966438 -1.592291 0.231800 0.000000000000000e+00 1851878480
-0.913437 -1.558653 0.300229 0.000000000000000e+00 1851878480
-0.927706 -1.575508 0.377572 0.000000000000000e+00 1851878480
-0.934497 -1.586680 0.453073 0.000000000000000e+00 1851878480
-0.954718 -1.607773 0.528403 0.000000000000000e+00 1851878480
-0.977357 -1.630585 0.602859 0.000000000000000e+00 1851878480
-0.930759 -1.602083 0.676178 0.000000000000000e+00 1851878480
-0.894295 -1.581250 0.751624 0.000000000000000e+00 1851878480
-0.125305 -1.022951 0.881814 0.000000000000000e+00 1851878480
0.102286 -0.864335 1.001608 0.000000000000000e+00 1851878480
-0.728457 -1.393267 0.110210 0.000000000000000e+00 1701537140
-0.976064 -1.587628 0.233062 0.000000000000000e+00 1851878480
-0.895140 -1.532653 0.297683 0.000000000000000e+00 1851878480
-0.909634 -1.549813 0.375758 0.000000000000000e+00 1851878480
-0.926368 -1.568546 0.452684 0.000000000000000e+00 1851878480
-0.953320 -1.594813 0.528713 0.000000000000000e+00 1851878480
-0.969412 -1.612875 0.603271 0.000000000000000e+00 1851878480
-0.947818 -1.602785 0.676652 0.000000000000000e+00 1851878480
-0.909911 -1.580697 0.751845 0.000000000000000e+00 1851878480
-0.152830 -1.027613 0.881206 0.000000000000000e+00 1851878480
0.073748 -0.868653 1.000427 0.000000000000000e+00 1851878480
-0.756059 -1.401213 0.114991 0.000000000000000e+00 1701537140
-0.913950 -1.528305 0.222699 0.000000000000000e+00 1701537140
-0.912114 -1.533230 0.299792 0.000000000000000e+00 1851878480
-0.923159 -1.547829 0.377185 0.000000000000000e+00 1851878480
-0.914368 -1.547357 0.452012 0.000000000000000e+00 1851878480
-0.967384 -1.593425 0.529707 0.000000000000000e+00 1851878480
-0.990974 -1.617180 0.604130 0.000000000000000e+00 1851878480
-0.946021 -1.589487 0.677383 0.000000000000000e+00 1851878480
-0.904481 -1.564542 0.752961 0.000000000000000e+00 1851878480
-0.180075 -1.032250 0.880605 0.000000000000000e+00 1851878480
0.043018 -0.874786 0.999009 0.000000000000000e+00 1851878480
-0.767682 -1.397064 0.116704 0.000000000000000e+00 1701537140
-0.914872 -1.516698 0.222536 0.000000000000000e+00 1701537140
-0.916633 -1.524387 0.300252 0.000000000000000e+00 1851878480
-0.924745 -1.536816 0.377384 0.000000000000000e+00 1851878480
-0.947007 -1.559923 0.454612 0.000000000000000e+00 1851878480
-0.951991 -1.569802 0.529400 0.000000000000000e+00 1851878480
-0.959102 -1.581286 0.604193 0.000000000000000e+00 1851878480
-0.944352 -1.576216 0.678117 0.000000000000000e+00 1851878480
-0.934537 -1.574909 0.752553 0.000000000000000e+00 1851878480
-0.163155 -1.004039 0.883186 0.000000000000000e+00 1851878480
0.012251 -0.881159 0.997569 0.000000000000000e+00 1851878480
-0.809398 -1.416272 0.124203 0.000000000000000e+00 1701537140
-0.934817 -1.519727 0.225453 0.000000000000000e+00 1701537140
-0.842840 -1.455268 0.290355 0.000000000000000e+00 1701537140
-0.934961 -1.532384 0.378466 0.000000000000000e+00 1851878480
-0.946100 -1.547090 0.454750 0.000000000000000e+00 1851878480
-0.963598 -1.566560 0.530284 0.000000000000000e+00 1851878480
-0.973662 -1.580317 0.604947 0.000000000000000e+00 1851878480
-0.972056 -1.585125 0.678428 0.000000000000000e+00 1851878480
-0.915951 -1.548776 0.754247 0.000000000000000e+00 1851878480
-0.182604 -1.002973 0.883141 0.000000000000000e+00 1851878480
-0.025273 -0.892817 0.995421 0.000000000000000e+00 1851878480
-0.809379 -1.403298 0.123675 0.000000000000000e+00 1701537140
-0.943940 -1.514485 0.226613 0.000000000000000e+00 1701537140
-0.864180 -1.459048 0.293028 0.000000000000000e+00 1701537140
-0.883740 -1.480570 0.373241 0.000000000000000e+00 1701537140
-0.950292 -1.538117 0.455260 0.000000000000000e+00 1851878480
-0.963979 -1.554761 0.530672 0.000000000000000e+00 1851878480
-0.987703 -1.579035 0.605689 0.000000000000000e+00 1851878480
-0.958766 -1.562993 0.679334 0.000000000000000e+00 1851878480
-0.933879 -1.550156 0.754356 0.000000000000000e+00 1851878480
-0.216955 -1.013306 0.881997 0.000000000000000e+00 1851878480
-0.031741 -0.881305 0.996425 0.000000000000000e+00 1851878480
-0.837674 -1.412465 0.128596 0.000000000000000e+00 1701537140
-0.964314 -1.518067 0.229598 0.000000000000000e+00 1701537140
-0.884541 -1.462211 0.295571 0.000000000000000e+00 1701537140
-0.896614 -1.477988 0.374591 0.000000000000000e+00 1701537140
-0.947879 -1.524013 0.455286 0.000000000000000e+00 1851878480
-0.975651 -1.551625 0.531554 0.000000000000000e+00 1851878480
-0.985576 -1.565392 0.606198 0.000000000000000e+00 1851878480
-0.966903 -1.557114 0.679927 0.000000000000000e+00 1851878480
-0.936395 -1.539865 0.755139 0.000000000000000e+00 1851878480
-0.205982 -0.989349 0.884170 0.000000000000000e+00 1851878480
-0.065100 -0.890210 0.994669 0.000000000000000e+00 1851878480
-0.874150 -1.428300 0.135099 0.000000000000000e+00 1701537140
-0.968276 -1.508881 0.229913 0.000000000000000e+00 1701537140
-0.909474 -1.469095 0.298716 0.000000000000000e+00 1701537140
-0.904871 -1.471864 0.375464 0.000000000000000e+00 1701537140
-0.959565 -1.520813 0.456339 0.000000000000000e+00 1851878480
-0.986081 -1.547579 0.532379 0.000000000000000e+00 1851878480
-0.974297 -1.544587 0.606583 0.000000000000000e+00 1851878480
-0.960252 -1.539843 0.680746 0.000000000000000e+00 1851878480
-0.939806 -1.530231 0.755885 0.000000000000000e+00 1851878480
-0.230205 -0.992208 0.883754 0.000000000000000e+00 1851878480
-0.075599 -0.881880 0.995252 0.000000000000000e+00 1851878480
-0.877397 -1.418052 0.135192 0.000000000000000e+00 1701537140
-0.983392 -1.508503 0.232039 0.000000000000000e+00 1701537140
-0.916251 -1.461842 0.299456 0.000000000000000e+00 1701537140
-0.921219 -1.472124 0.377164 0.000000000000000e+00 1701537140
-0.918908 -1.476636 0.453575 0.000000000000000e+00 1701537140
-0.991851 -1.539937 0.532999 0.000000000000000e+00 1851878480
-0.994538 -1.548172 0.607406 0.000000000000000e+00 1851878480
-0.965176 -1.531442 0.681391 0.000000000000000e+00 1851878480
-0.944726 -1.521742 0.756566 0.000000000000000e+00 1851878480
-0.247767 -0.990087 0.883821 0.000000000000000e+00 1851878480
-0.111523 -0.893135 0.993197 0.000000000000000e+00 1851878480
-0.897169 -1.420974 0.138474 0.000000000000000e+00 1701537140
-0.992030 -1.503057 0.233109 0.000000000000000e+00 1701537140
-0.921023 -1.453003 0.299927 0.000000000000000e+00 1701537140
-0.935021 -1.470468 0.378600 0.000000000000000e+00 1701537140
-0.933269 -1.475403 0.454821 0.000000000000000e+00 1701537140
-0.987019 -1.523957 0.533160 0.000000000000000e+00 1851878480
-0.994418 -1.535936 0.607948 0.000000000000000e+00 1851878480
-0.943059 -1.501899 0.682468 0.000000000000000e+00 1851878480
-0.960468 -1.521672 0.756758 0.000000000000000e+00 1851878480
-0.259163 -0.983273 0.884344 0.000000000000000e+00 1851878480
-0.123141 -0.885842 0.993651 0.000000000000000e+00 1851878480
-0.906962 -1.416009 0.139825 0.000000000000000e+00 1701537140
-1.012261 -1.506924 0.236065 0.000000000000000e+00 1701537140
-0.923040 -1.441950 0.300028 0.000000000000000e+00 1701537140
-0.934854 -1.457768 0.378600 0.000000000000000e+00 1701537140
-0.935015 -1.464238 0.455147 0.000000000000000e+00 1701537140
-0.979344 -1.505623 0.533200 0.000000000000000e+00 1851878480
-1.021496 -1.545093 0.608852 0.000000000000000e+00 1851878480
-0.958551 -1.501656 0.682951 0.000000000000000e+00 1851878480
-0.957273 -1.506853 0.757808 0.000000000000000e+00 1851878480
-0.269394 -0.975585 0.884953 0.000000000000000e+00 1851878480
-0.146451 -0.887694 0.992880 0.000000000000000e+00 1851878480
-0.934288 -1.425258 0.144570 0.000000000000000e+00 1701537140
-1.014665 -1.496561 0.236111 0.000000000000000e+00 1701537140
-0.937585 -1.440924 0.301788 0.000000000000000e+00 1701537140
-0.945273 -1.453485 0.379684 0.000000000000000e+00 1701537140
-0.953089 -1.466070 0.456658 0.000000000000000e+00 1701537140
-0.930981 -1.454762 0.531498 0.000000000000000e+00 1701537140
-1.016339 -1.528874 0.609327 0.000000000000000e+00 1851878480
-0.961835 -1.491846 0.683630 0.000000000000000e+00 1851878480
-0.990192 -1.520429 0.757204 0.000000000000000e+00 1851878480
-0.288016 -0.974519 0.884926 0.000000000000000e+00 1851878480
-0.158637 -0.880975 0.993267 0.000000000000000e+00 1851878480
-0.802482 -1.311711 0.035164 0.000000000000000e+00 1701537140
-0.939961 -1.417099 0.145119 0.000000000000000e+00 1701537140
-1.029780 -1.496473 0.238229 0.000000000000000e+00 1701537140
-0.937298 -1.427988 0.301576 0.000000000000000e+00 1701537140
-0.943690 -1.439571 0.379534 0.000000000000000e+00 1701537140
-0.951488 -1.452210 0.456736 0.000000000000000e+00 1701537140
-0.943227 -1.451916 0.532401 0.000000000000000e+00 1701537140
-1.008098 -1.510084 0.609766 0.000000000000000e+00 1851878480
-0.969650 -1.485617 0.684234 0.000000000000000e+00 1851878480
-0.980353 -1.500334 0.758564 0.000000000000000e+00 1851878480
-0.304030 -0.971499 0.885090 0.000000000000000e+00 1851878480
-0.186979 -0.887039 0.991944 0.000000000000000e+00 1851878480
-0.833727 -1.323754 0.041416 0.000000000000000e+00 1701537140
-0.955278 -1.416830 0.147535 0.000000000000000e+00 1701537140
-1.013774 -1.471079 0.235258 0.000000000000000e+00 1701537140
-0.929061 -1.408522 0.300305 0.000000000000000e+00 1701537140
-0.954863 -1.435925 0.380689 0.000000000000000e+00 1701537140
-0.963769 -1.449498 0.457821 0.000000000000000e+00 1701537140
-0.953403 -1.447461 0.533213 0.000000000000000e+00 1701537140
-1.012827 -1.501576 0.610373 0.000000000000000e+00 1851878480
-0.974357 -1.476915 0.684890 0.000000000000000e+00 1851878480
-0.976939 -1.485215 0.759636 0.000000000000000e+00 1851878480
-0.305895 -0.957296 0.886333 0.000000000000000e+00 1851878480
-0.192932 -0.875537 0.992981 0.000000000000000e+00 1851878480
0.442952 -0.380653 1.177537 0.000000000000000e+00 1851878480
-0.852940 -1.326163 0.044964 0.000000000000000e+00 1701537140
-0.945676 -1.396127 0.145106 0.000000000000000e+00 1701537140
-1.017285 -1.461489 0.235470 0.000000000000000e+00 1701537140
-0.909347 -1.379515 0.297503 0.000000000000000e+00 1701537140
-0.958351 -1.426056 0.381053 0.000000000000000e+00 1701537140
-0.964171 -1.437182 0.458041 0.000000000000000e+00 1701537140
-0.955571 -1.436553 0.533683 0.000000000000000e+00 1701537140
-1.020674 -1.495574 0.611020 0.000000000000000e+00 1851878480
-0.969929 -1.460836 0.685706 0.000000000000000e+00 1851878480
-0.989952 -1.483200 0.759941 0.000000000000000e+00 1851878480
-0.335030 -0.964879 0.885481 0.000000000000000e+00 1851878480
-0.229654 -0.888582 0.990739 0.000000000000000e+00 1851878480
0.333665 -0.448284 1.164903 0.000000000000000e+00 1851878480
-0.884171 -1.338630 0.051226 0.000000000000000e+00 1701537140
-0.975752 -1.408146 0.150388 0.000000000000000e+00 1701537140
-0.842849 -1.304867 0.206535 0.000000000000000e+00 1701537140
-0.916086 -1.372033 0.298211 0.000000000000000e+00 1701537140
-0.783241 -1.269532 0.363101 0.000000000000000e+00 1701537140
-0.952181 -1.414667 0.457365 0.000000000000000e+00 1701537140
-0.972209 -1.437411 0.534764 0.000000000000000e+00 1701537140
-1.011111 -1.475429 0.611453 0.000000000000000e+00 1851878480
-0.993776 -1.467582 0.686028 0.000000000000000e+00 1851878480
-0.977839 -1.460941 0.761436 0.000000000000000e+00 1851878480
-0.333426 -0.947901 0.886994 0.000000000000000e+00 1851878480
-0.233010 -0.875106 0.992049 0.000000000000000e+00 1851878480
0.259731 -0.488584 1.157002 0.000000000000000e+00 1851878480
-0.905581 -1.343183 0.055277 0.000000000000000e+00 1701537140
-0.956939 -1.379643 0.146149 0.000000000000000e+00 1701537140
-0.840884 -1.289771 0.205813 0.000000000000000e+00 1701537140
-0.913566 -1.356882 0.297683 0.000000000000000e+00 1701537140
-0.781140 -1.254092 0.362886 0.000000000000000e+00 1701537140
-0.965830 -1.413082 0.458542 0.000000000000000e+00 1701537140
-0.983075 -1.433635 0.535597 0.000000000000000e+00 1701537140
-1.010711 -1.462627 0.612002 0.000000000000000e+00 1851878480
-0.993197 -1.454575 0.686779 0.000000000000000e+00 1851878480
-0.989955 -1.458208 0.761785 0.000000000000000e+00 1851878480
-0.354091 -0.948889 0.886781 0.000000000000000e+00 1851878480
-0.253408 -0.875360 0.991530 0.000000000000000e+00 1851878480
0.204166 -0.514720 1.151558 0.000000000000000e+00 1851878480
-0.923130 -1.344659 0.058458 0.000000000000000e+00 1701537140
-0.966539 -1.374719 0.147436 0.000000000000000e+00 1701537140
-0.852313 -1.285790 0.207281 0.000000000000000e+00 1701537140
-0.929624 -1.357129 0.299623 0.000000000000000e+00 1701537140
-0.791728 -1.249109 0.363970 0.000000000000000e+00 1701537140
-0.971115 -1.404642 0.459111 0.000000000000000e+00 1701537140
-0.984834 -1.422383 0.536045 0.000000000000000e+00 1701537140
-1.014822 -1.453474 0.612606 0.000000000000000e+00 1851878480
-0.988873 -1.438425 0.687602 0.000000000000000e+00 1851878480
-0.984331 -1.441016 0.762985 0.000000000000000e+00 1851878480
-0.373654 -0.949107 0.886646 0.000000000000000e+00 1851878480
-0.274024 -0.875917 0.990976 0.000000000000000e+00 1851878480
0.166200 -0.527048 1.148495 0.000000000000000e+00 1851878480
-0.944514 -1.349475 0.062509 0.000000000000000e+00 1701537140
-0.940907 -1.340092 0.141839 0.000000000000000e+00 1701537140
-0.841578 -1.263208 0.205106 0.000000000000000e+00 1701537140
-0.928928 -1.343421 0.299329 0.000000000000000e+00 1701537140
-0.791087 -1.234774 0.363900 0.000000000000000e+00 1701537140
-0.939515 -1.365442 0.457019 0.000000000000000e+00 1701537140
-0.982361 -1.407568 0.536316 0.000000000000000e+00 1701537140
-0.948507 -1.385948 0.612402 0.000000000000000e+00 1701537140
-0.988100 -1.425102 0.688366 0.000000000000000e+00 1851878480
-0.995350 -1.437411 0.763387 0.000000000000000e+00 1851878480
-0.368038 -0.928772 0.888485 0.000000000000000e+00 1851878480
-0.292667 -0.874984 0.990628 0.000000000000000e+00 1851878480
0.119471 -0.546815 1.144187 0.000000000000000e+00 1851878480
-0.948922 -1.340072 0.062712 0.000000000000000e+00 1701537140
-0.685605 -1.110107 0.091308 0.000000000000000e+00 1701537140
-0.847974 -1.254950 0.205738 0.000000000000000e+00 1701537140
-0.933726 -1.334276 0.299763 0.000000000000000e+00 1701537140
-0.792798 -1.222343 0.364067 0.000000000000000e+00 1701537140
-0.933013 -1.346906 0.456738 0.000000000000000e+00 1701537140
-1.001632 -1.410847 0.537495 0.000000000000000e+00 1701537140
-0.958901 -1.381634 0.613093 0.000000000000000e+00 1701537140
-0.982990 -1.408105 0.689216 0.000000000000000e+00 1851878480
-0.991936 -1.421895 0.764492 0.000000000000000e+00 1851878480
-0.388203 -0.929599 0.888295 0.000000000000000e+00 1851878480
-0.298306 -0.863452 0.991691 0.000000000000000e+00 1851878480
0.078111 -0.562555 1.140585 0.000000000000000e+00 1851878480
-0.957215 -1.333957 0.063789 0.000000000000000e+00 1701537140
-0.911760 -1.288742 0.134915 0.000000000000000e+00 1701537140
-0.846316 -1.239829 0.205040 0.000000000000000e+00 1701537140
-0.939719 -1.326128 0.300353 0.000000000000000e+00 1701537140
-0.793650 -1.209131 0.364144 0.000000000000000e+00 1701537140
-0.952329 -1.350024 0.458316 0.000000000000000e+00 1701537140
-0.996092 -1.393384 0.537638 0.000000000000000e+00 1701537140
-0.966160 -1.374729 0.613747 0.000000000000000e+00 1701537140
-1.012415 -1.419868 0.689410 0.000000000000000e+00 1851878480
-0.980860 -1.399893 0.765984 0.000000000000000e+00 1851878480
-0.403194 -0.926250 0.888508 0.000000000000000e+00 1851878480
-0.306998 -0.854425 0.992425 0.000000000000000e+00 1851878480
0.058151 -0.560944 1.139946 0.000000000000000e+00 1851878480
-0.964655 -1.327130 0.064669 0.000000000000000e+00 1701537140
-0.910509 -1.274189 0.134041 0.000000000000000e+00 1701537140
-0.856992 -1.235190 0.206366 0.000000000000000e+00 1701537140
-0.928801 -1.303529 0.298683 0.000000000000000e+00 1701537140
-0.804702 -1.204545 0.365263 0.000000000000000e+00 1701537140
-0.973083 -1.354497 0.459992 0.000000000000000e+00 1701537140
-1.005695 -1.388618 0.538410 0.000000000000000e+00 1701537140
-0.975715 -1.369773 0.614424 0.000000000000000e+00 1701537140
-1.006012 -1.401727 0.690288 0.000000000000000e+00 1851878480
-0.998729 -1.401993 0.766050 0.000000000000000e+00 1851878480
-0.423018 -0.927018 0.888329 0.000000000000000e+00 1851878480
-0.323410 -0.851842 0.992309 0.000000000000000e+00 1851878480
0.040796 -0.557282 1.139663 0.000000000000000e+00 1851878480
-0.970592 -1.319017 0.065200 0.000000000000000e+00 1701537140
-0.930103 -1.277580 0.137250 0.000000000000000e+00 1701537140
-0.852535 -1.217545 0.205193 0.000000000000000e+00 1701537140
-0.878991 -1.247321 0.291815 0.000000000000000e+00 1701537140
-0.820684 -1.204226 0.366885 0.000000000000000e+00 1701537140
-0.962282 -1.332161 0.459398 0.000000000000000e+00 1701537140
-0.997013 -1.368313 0.538425 0.000000000000000e+00 1701537140
-1.007745 -1.383930 0.615337 0.000000000000000e+00 1701537140
-1.009742 -1.392031 0.690974 0.000000000000000e+00 1851878480
-0.984555 -1.377168 0.767713 0.000000000000000e+00 1851878480
-0.427713 -0.915180 0.889360 0.000000000000000e+00 1851878480
-0.323970 -0.836047 0.993945 0.000000000000000e+00 1851878480
0.011868 -0.563382 1.137739 0.000000000000000e+00 1851878480
-0.972640 -1.307525 0.064838 0.000000000000000e+00 1701537140
-0.936471 -1.269599 0.137861 0.000000000000000e+00 1701537140
-0.845916 -1.197906 0.203656 0.000000000000000e+00 1701537140
-0.900531 -1.252220 0.294464 0.000000000000000e+00 1701537140
-0.833081 -1.200912 0.368137 0.000000000000000e+00 1701537140
-0.954635 -1.312356 0.459031 0.000000000000000e+00 1701537140
-0.968393 -1.330767 0.537624 0.000000000000000e+00 1701537140
-0.989987 -1.355822 0.615723 0.000000000000000e+00 1701537140
-1.021110 -1.388812 0.691508 0.000000000000000e+00 1851878480
-1.000055 -1.377327 0.767895 0.000000000000000e+00 1851878480
-0.439260 -0.909109 0.889840 0.000000000000000e+00 1851878480
-0.346850 -0.839013 0.993103 0.000000000000000e+00 1851878480
-0.016026 -0.568817 1.135942 0.000000000000000e+00 1851878480
-0.969034 -1.291051 0.063175 0.000000000000000e+00 1701537140
-0.949596 -1.267531 0.139797 0.000000000000000e+00 1701537140
-0.965571 -1.288320 0.222972 0.000000000000000e+00 1701537140
-0.908521 -1.245485 0.295301 0.000000000000000e+00 1701537140
-0.836362 -1.189749 0.368450 0.000000000000000e+00 1701537140
-0.943832 -1.289674 0.458437 0.000000000000000e+00 1701537140
-0.711934 -1.096436 0.527501 0.000000000000000e+00 1701537140
-1.013726 -1.363127 0.616538 0.000000000000000e+00 1701537140
-1.024192 -1.378547 0.692207 0.000000000000000e+00 1851878480
-1.003464 -1.367252 0.768685 0.000000000000000e+00 1851878480
-0.437876 -0.892065 0.891373 0.000000000000000e+00 1851878480
-0.369581 -0.842004 0.992265 0.000000000000000e+00 1851878480
-0.029566 -0.562299 1.136169 0.000000000000000e+00 1851878480
-0.991486 -1.297349 0.067465 0.000000000000000e+00 1701537140
-0.939455 -1.245042 0.137146 0.000000000000000e+00 1701537140
-0.956161 -1.266614 0.220976 0.000000000000000e+00 1701537140
-0.930203 -1.250748 0.297965 0.000000000000000e+00 1701537140
-0.884523 -1.217709 0.373365 0.000000000000000e+00 1701537140
-0.961741 -1.291787 0.459900 0.000000000000000e+00 1701537140
-0.731613 -1.098848 0.528724 0.000000000000000e+00 1701537140
-1.012664 -1.349168 0.617100 0.000000000000000e+00 1701537140
-1.019483 -1.361530 0.693070 0.000000000000000e+00 1851878480
-1.008325 -1.358392 0.769404 0.000000000000000e+00 1851878480
-0.466159 -0.900345 0.890483 0.000000000000000e+00 1851878480
-0.379992 -0.834623 0.992800 0.000000000000000e+00 1851878480
-0.062630 -0.572456 1.133602 0.000000000000000e+00 1851878480
-0.981176 -1.274874 0.064248 0.000000000000000e+00 1701537140
-0.934995 -1.227406 0.135603 0.000000000000000e+00 1701537140
-0.990090 -1.283019 0.226146 0.000000000000000e+00 1701537140
-0.927658 -1.234836 0.297387 0.000000000000000e+00 1701537140
-0.911121 -1.227177 0.376065 0.000000000000000e+00 1701537140
-0.976386 -1.291162 0.461126 0.000000000000000e+00 1701537140
-0.707153 -1.062875 0.528146 0.000000000000000e+00 1701537140
-1.023598 -1.345565 0.617781 0.000000000000000e+00 1701537140
-1.015370 -1.344913 0.693928 0.000000000000000e+00 1851878480
-1.004468 -1.341978 0.770576 0.000000000000000e+00 1851878480
-0.477559 -0.894283 0.890968 0.000000000000000e+00 1851878480
-0.389149 -0.826189 0.993477 0.000000000000000e+00 1851878480
-0.085608 -0.574222 1.132457 0.000000000000000e+00 1851878480
-0.970578 -1.251962 0.060948 0.000000000000000e+00 1701537140
-0.932102 -1.211046 0.134358 0.000000000000000e+00 1701537140
-0.998295 -1.276857 0.227059 0.000000000000000e+00 1701537140
-0.920774 -1.214979 0.296221 0.000000000000000e+00 1701537140
-0.927141 -1.227512 0.377678 0.000000000000000e+00 1701537140
-0.975497 -1.276942 0.461238 0.000000000000000e+00 1701537140
-0.733294 -1.070988 0.529626 0.000000000000000e+00 1701537140
-1.021238 -1.330374 0.618334 0.000000000000000e+00 1701537140
-1.024611 -1.339837 0.694507 0.000000000000000e+00 1851878480
-1.022218 -1.344253 0.770631 0.000000000000000e+00 1851878480
-0.486275 -0.885930 0.891675 0.000000000000000e+00 1851878480
-0.405553 -0.824032 0.993332 0.000000000000000e+00 1851878480
-0.106543 -0.574375 1.131593 0.000000000000000e+00 1851878480
-0.971203 -1.238899 0.060211 0.000000000000000e+00 1701537140
-0.947806 -1.211259 0.136782 0.000000000000000e+00 1701537140
-1.005354 -1.269686 0.227777 0.000000000000000e+00 1701537140
-0.920480 -1.200850 0.295933 0.000000000000000e+00 1701537140
-0.940161 -1.225280 0.378979 0.000000000000000e+00 1701537140
-0.812092 -1.118663 0.449744 0.000000000000000e+00 1701537140
-0.745457 -1.066957 0.530534 0.000000000000000e+00 1701537140
-1.021447 -1.317351 0.618913 0.000000000000000e+00 1701537140
-1.020865 -1.323388 0.695365 0.000000000000000e+00 1851878480
-0.995154 -1.307419 0.773029 0.000000000000000e+00 1851878480
-0.494086 -0.876796 0.892457 0.000000000000000e+00 1851878480
-0.420571 -0.820758 0.993338 0.000000000000000e+00 1851878480
-0.124150 -0.571768 1.131201 0.000000000000000e+00 1851878480
-0.965816 -1.220363 0.058080 0.000000000000000e+00 1701537140
-0.951799 -1.201002 0.136886 0.000000000000000e+00 1701537140
-0.986101 -1.238853 0.224120 0.000000000000000e+00 1701537140
-0.907199 -1.174997 0.293897 0.000000000000000e+00 1701537140
-0.936597 -1.208288 0.378576 0.000000000000000e+00 1701537140
-0.807312 -1.099939 0.449588 0.000000000000000e+00 1701537140
-0.766379 -1.070760 0.531792 0.000000000000000e+00 1701537140
-1.026372 -1.308437 0.619537 0.000000000000000e+00 1701537140
-1.022128 -1.311253 0.696120 0.000000000000000e+00 1851878480
-1.004455 -1.302253 0.773532 0.000000000000000e+00 1851878480
-0.495974 -0.862461 0.893739 0.000000000000000e+00 1851878480
-0.445139 -0.825916 0.992244 0.000000000000000e+00 1851878480
-0.140613 -0.568255 1.130967 0.000000000000000e+00 1851878480
-0.975131 -1.214998 0.059325 0.000000000000000e+00 1701537140
-0.783423 -1.034260 0.102790 0.000000000000000e+00 1701537140
-0.993204 -1.231587 0.224833 0.000000000000000e+00 1701537140
-0.928109 -1.179771 0.296444 0.000000000000000e+00 1701537140
-0.932584 -1.190779 0.378124 0.000000000000000e+00 1701537140
-0.809138 -1.087010 0.449901 0.000000000000000e+00 1701537140
-0.789953 -1.077082 0.533150 0.000000000000000e+00 1701537140
-1.023735 -1.292766 0.620095 0.000000000000000e+00 1701537140
-1.020260 -1.296280 0.696949 0.000000000000000e+00 1851878480
-1.003025 -1.287607 0.774606 0.000000000000000e+00 1851878480
-0.511012 -0.859677 0.893918 0.000000000000000e+00 1851878480
-0.440609 -0.805624 0.994489 0.000000000000000e+00 1851878480
-0.160384 -0.567727 1.130244 0.000000000000000e+00 1851878480
-0.973404 -1.199609 0.058015 0.000000000000000e+00 1701537140
-0.805821 -1.039801 0.106489 0.000000000000000e+00 1701537140
-0.861947 -1.098364 0.202507 0.000000000000000e+00 1701537140
-0.911073 -1.150256 0.293892 0.000000000000000e+00 1701537140
-0.928393 -1.172992 0.377650 0.000000000000000e+00 1701537140
-0.915676 -1.168490 0.457669 0.000000000000000e+00 1701537140
-0.788859 -1.061392 0.533518 0.000000000000000e+00 1701537140
-1.029517 -1.284544 0.620729 0.000000000000000e+00 1701537140
-1.032108 -1.293478 0.697472 0.000000000000000e+00 1851878480
-1.007014 -1.277705 0.775395 0.000000000000000e+00 1851878480
-0.531955 -0.862217 0.893591 0.000000000000000e+00 1851878480
-0.464179 -0.810093 0.993495 0.000000000000000e+00 1851878480
-0.180324 -0.567465 1.129485 0.000000000000000e+00 1851878480
-0.979633 -1.191412 0.058534 0.000000000000000e+00 1701537140
-0.814742 -1.033126 0.107509 0.000000000000000e+00 1701537140
-0.789567 -1.017545 0.189937 0.000000000000000e+00 1701537140
-0.931273 -1.154478 0.296337 0.000000000000000e+00 1701537140
-0.943413 -1.172570 0.379145 0.000000000000000e+00 1701537140
-0.924208 -1.162102 0.458450 0.000000000000000e+00 1701537140
-0.939981 -1.183355 0.539936 0.000000000000000e+00 1701537140
-1.024377 -1.266458 0.621272 0.000000000000000e+00 1701537140
-1.012181 -1.262149 0.698721 0.000000000000000e+00 1851878480
-1.006352 -1.263602 0.776440 0.000000000000000e+00 1851878480
-0.529569 -0.844037 0.895244 0.000000000000000e+00 1851878480
-0.475176 -0.803521 0.993950 0.000000000000000e+00 1851878480
-0.204170 -0.570792 1.128140 0.000000000000000e+00 1851878480
-0.963032 -1.162170 0.053756 0.000000000000000e+00 1701537140
-0.813373 -1.016958 0.106476 0.000000000000000e+00 1701537140
-0.799771 -1.011941 0.191112 0.000000000000000e+00 1701537140
-0.936453 -1.145047 0.296761 0.000000000000000e+00 1701537140
-0.928425 -1.144753 0.377556 0.000000000000000e+00 1701537140
-0.942486 -1.164629 0.459920 0.000000000000000e+00 1701537140
-0.953846 -1.181934 0.540875 0.000000000000000e+00 1701537140
-1.028107 -1.256295 0.621891 0.000000000000000e+00 1701537140
-1.022797 -1.258172 0.699277 0.000000000000000e+00 1851878480
-1.009842 -1.253166 0.777264 0.000000000000000e+00 1851878480
-0.535010 -0.832785 0.896238 0.000000000000000e+00 1851878480
-0.474090 -0.786143 0.995818 0.000000000000000e+00 1851878480
-0.214742 -0.562412 1.128746 0.000000000000000e+00 1851878480
-0.975070 -1.159216 0.055602 0.000000000000000e+00 1701537140
-0.831462 -1.018783 0.109313 0.000000000000000e+00 1701537140
-0.814861 -1.010895 0.193100 0.000000000000000e+00 1701537140
-0.918399 -1.114123 0.294052 0.000000000000000e+00 1701537140
-0.941395 -1.142453 0.378835 0.000000000000000e+00 1701537140
-0.958609 -1.165302 0.461234 0.000000000000000e+00 1701537140
-0.974553 -1.186856 0.542080 0.000000000000000e+00 1701537140
-1.026392 -1.241126 0.622468 0.000000000000000e+00 1701537140
-1.014618 -1.237123 0.700273 0.000000000000000e+00 1851878480
-1.019025 -1.247861 0.777780 0.000000000000000e+00 1851878480
-0.551442 -0.831452 0.896286 0.000000000000000e+00 1851878480
-0.482090 -0.776861 0.996631 0.000000000000000e+00 1851878480
-0.225547 -0.554259 1.129320 0.000000000000000e+00 1851878480
-0.967074 -1.137634 0.052789 0.000000000000000e+00 1701537140
-0.843637 -1.015197 0.110970 0.000000000000000e+00 1701537140
-0.827476 -1.007627 0.194671 0.000000000000000e+00 1701537140
-0.930227 -1.110702 0.295361 0.000000000000000e+00 1701537140
-0.944362 -1.130947 0.379083 0.000000000000000e+00 1701537140
-0.947935 -1.141308 0.460644 0.000000000000000e+00 1701537140
-0.989845 -1.186940 0.543066 0.000000000000000e+00 1701537140
-1.019380 -1.220995 0.623009 0.000000000000000e+00 1701537140
-1.026386 -1.234182 0.700802 0.000000000000000e+00 1851878480
-1.001289 -1.217998 0.779783 0.000000000000000e+00 1851878480
-0.549961 -0.813901 0.897884 0.000000000000000e+00 1851878480
-0.514340 -0.789592 0.994581 0.000000000000000e+00 1851878480
-0.225225 -0.536058 1.131559 0.000000000000000e+00 1851878480
-0.972266 -1.128258 0.053029 0.000000000000000e+00 1701537140
-0.843894 -1.000448 0.110240 0.000000000000000e+00 1701537140
-0.979294 -1.135020 0.219552 0.000000000000000e+00 1701537140
-0.931912 -1.097844 0.295299 0.000000000000000e+00 1701537140
-0.928860 -1.102170 0.377430 0.000000000000000e+00 1701537140
-0.941669 -1.121215 0.460366 0.000000000000000e+00 1701537140
-0.997253 -1.179808 0.543740 0.000000000000000e+00 1701537140
-1.037100 -1.223571 0.623736 0.000000000000000e+00 1701537140
-1.014146 -1.209170 0.701910 0.000000000000000e+00 1851878480
-1.001310 -1.204178 0.780817 0.000000000000000e+00 1851878480
-0.552889 -0.800281 0.899108 0.000000000000000e+00 1851878480
-0.523399 -0.781407 0.995259 0.000000000000000e+00 1851878480
-0.266497 -0.555627 1.127564 0.000000000000000e+00 1851878480
-0.965301 -1.107384 0.050426 0.000000000000000e+00 1701537140
-0.853619 -0.994582 0.111397 0.000000000000000e+00 1701537140
-0.997549 -1.137980 0.222093 0.000000000000000e+00 1701537140
-0.723294 -0.887023 0.266842 0.000000000000000e+00 1701537140
-0.737361 -0.908012 0.357681 0.000000000000000e+00 1701537140
-0.951489 -1.116020 0.461227 0.000000000000000e+00 1701537140
-0.974629 -1.144671 0.543242 0.000000000000000e+00 1701537140
-1.015363 -1.189579 0.624179 0.000000000000000e+00 1701537140
-1.035432 -1.215029 0.702207 0.000000000000000e+00 1851878480
-1.001864 -1.190774 0.781828 0.000000000000000e+00 1851878480
-0.579592 -0.808516 0.898250 0.000000000000000e+00 1851878480
-0.535972 -0.776459 0.995520 0.000000000000000e+00 1851878480
-0.265081 -0.536447 1.129973 0.000000000000000e+00 1851878480
-0.982418 -1.109219 0.053432 0.000000000000000e+00 1701537140
-0.904557 -1.027993 0.120821 0.000000000000000e+00 1701537140
-1.000476 -1.126511 0.222061 0.000000000000000e+00 1701537140
-0.749272 -0.895845 0.270028 0.000000000000000e+00 1701537140
-0.761088 -0.914754 0.360049 0.000000000000000e+00 1701537140
-0.805251 -0.963989 0.451045 0.000000000000000e+00 1701537140
-0.981141 -1.136538 0.543883 0.000000000000000e+00 1701537140
-1.025175 -1.184777 0.624850 0.000000000000000e+00 1701537140
-1.006296 -1.174016 0.703750 0.000000000000000e+00 1851878480
-1.006866 -1.181435 0.782594 0.000000000000000e+00 1851878480
-0.587895 -0.799898 0.899001 0.000000000000000e+00 1851878480
-0.525860 -0.750588 0.998500 0.000000000000000e+00 1851878480
-0.285098 -0.536906 1.129149 0.000000000000000e+00 1851878480
-0.990041 -1.102098 0.054219 0.000000000000000e+00 1701537140
-0.906569 -1.015025 0.120432 0.000000000000000e+00 1701537140
-1.014410 -1.125511 0.223873 0.000000000000000e+00 1701537140
-0.760663 -0.890982 0.271241 0.000000000000000e+00 1701537140
-0.898139 -1.029288 0.374071 0.000000000000000e+00 1701537140
-0.804481 -0.947940 0.451162 0.000000000000000e+00 1701537140
-0.981486 -1.122577 0.544284 0.000000000000000e+00 1701537140
-1.033171 -1.178299 0.625507 0.000000000000000e+00 1701537140
-1.012040 -1.165330 0.704437 0.000000000000000e+00 1851878480
-1.000016 -1.160985 0.784038 0.000000000000000e+00 1851878480
-0.583481 -0.779418 0.900883 0.000000000000000e+00 1851878480
-0.555097 -0.761109 0.996760 0.000000000000000e+00 1851878480
-0.297105 -0.530061 1.129535 0.000000000000000e+00 1851878480
-0.967974 -1.066447 0.048039 0.000000000000000e+00 1701537140
-0.932317 -1.024873 0.124813 0.000000000000000e+00 1701537140
-0.975597 -1.073895 0.216806 0.000000000000000e+00 1701537140
-0.775033 -0.889014 0.272855 0.000000000000000e+00 1701537140
-0.925088 -1.040122 0.376769 0.000000000000000e+00 1701537140
-0.809124 -0.936951 0.451660 0.000000000000000e+00 1701537140
-0.983225 -1.109864 0.544739 0.000000000000000e+00 1701537140
