# .PCD v0.7 - Point Cloud Data file format
VERSION 0.7
FIELDS x y z rgb label
SIZE 4 4 4 4 4
TYPE F F F F U
COUNT 1 1 1 1 1
WIDTH 771
HEIGHT 1
VIEWPOINT 0 0 0 1 0 0 0
POINTS 771
DATA ascii
-0.948894 -1.537040 0.455158 0.000000000000000e+00 1851878480
-0.938824 -1.535465 0.529571 0.000000000000000e+00 1851878480
-0.922877 -1.529468 0.604760 0.000000000000000e+00 1851878480
-0.896697 -1.515682 0.680253 0.000000000000000e+00 1851878480
-0.824146 -1.466776 0.759174 0.000000000000000e+00 1851878480
-0.274721 -1.057061 0.877769 0.000000000000000e+00 1851878480
0.008049 -0.851261 1.000495 0.000000000000000e+00 1851878480
-0.857480 -1.427995 0.132413 0.000000000000000e+00 1701537140
-0.905659 -1.472221 0.220066 0.000000000000000e+00 1701537140
-0.919270 -1.489270 0.300166 0.000000000000000e+00 1701537140
-0.909046 -1.487644 0.375866 0.000000000000000e+00 1701537140
-0.952172 -1.527337 0.455599 0.000000000000000e+00 1851878480
-0.943115 -1.526512 0.530135 0.000000000000000e+00 1851878480
-0.926721 -1.520109 0.605367 0.000000000000000e+00 1851878480
-0.899665 -1.505542 0.680942 0.000000000000000e+00 1851878480
-0.831369 -1.459562 0.759787 0.000000000000000e+00 1851878480
-0.274276 -1.041402 0.879142 0.000000000000000e+00 1851878480
-0.015513 -0.852535 0.999765 0.000000000000000e+00 1851878480
-0.875604 -1.429447 0.135380 0.000000000000000e+00 1701537140
-0.920340 -1.471181 0.222117 0.000000000000000e+00 1701537140
-0.933174 -1.487676 0.301854 0.000000000000000e+00 1701537140
-0.922785 -1.485864 0.377302 0.000000000000000e+00 1701537140
-0.955469 -1.517621 0.456040 0.000000000000000e+00 1851878480
-0.947307 -1.517466 0.530693 0.000000000000000e+00 1851878480
-0.930640 -1.510788 0.605976 0.000000000000000e+00 1851878480
-0.902671 -1.495403 0.681632 0.000000000000000e+00 1851878480
-0.838468 -1.452263 0.760405 0.000000000000000e+00 1851878480
-0.289496 -1.037682 0.879364 0.000000000000000e+00 1851878480
-0.038013 -0.853144 0.999133 0.000000000000000e+00 1851878480
-0.892468 -1.430016 0.138103 0.000000000000000e+00 1701537140
-0.934770 -1.470027 0.224125 0.000000000000000e+00 1701537140
-0.946916 -1.486031 0.303518 0.000000000000000e+00 1701537140
-0.936340 -1.484014 0.378715 0.000000000000000e+00 1701537140
-0.907404 -1.467618 0.452737 0.000000000000000e+00 1701537140
-0.951197 -1.508168 0.531237 0.000000000000000e+00 1851878480
-0.934419 -1.501338 0.606584 0.000000000000000e+00 1851878480
-0.905720 -1.485268 0.682323 0.000000000000000e+00 1851878480
-0.845539 -1.444952 0.761025 0.000000000000000e+00 1851878480
-0.304306 -1.033721 0.879612 0.000000000000000e+00 1851878480
-0.059496 -0.853110 0.998594 0.000000000000000e+00 1851878480
-0.908206 -1.429789 0.140608 0.000000000000000e+00 1701537140
-0.949029 -1.468817 0.226103 0.000000000000000e+00 1701537140
-0.953972 -1.479155 0.304293 0.000000000000000e+00 1701537140
-0.949716 -1.482096 0.380107 0.000000000000000e+00 1701537140
-0.920731 -1.465513 0.453909 0.000000000000000e+00 1701537140
-0.954436 -1.498336 0.531753 0.000000000000000e+00 1851878480
-0.938301 -1.491947 0.607193 0.000000000000000e+00 1851878480
-0.908763 -1.475098 0.683015 0.000000000000000e+00 1851878480
-0.852366 -1.437459 0.761656 0.000000000000000e+00 1851878480
-0.318761 -1.029555 0.879882 0.000000000000000e+00 1851878480
-0.080079 -0.852507 0.998140 0.000000000000000e+00 1851878480
-0.923490 -1.429293 0.143024 0.000000000000000e+00 1701537140
-0.954730 -1.460832 0.226684 0.000000000000000e+00 1701537140
-0.959627 -1.471170 0.304879 0.000000000000000e+00 1701537140
-0.955050 -1.473847 0.380672 0.000000000000000e+00 1701537140
-0.933873 -1.463332 0.455064 0.000000000000000e+00 1701537140
-0.957519 -1.488354 0.532261 0.000000000000000e+00 1851878480
-0.942117 -1.482484 0.607801 0.000000000000000e+00 1851878480
-0.911902 -1.464976 0.683708 0.000000000000000e+00 1851878480
-0.859038 -1.429850 0.762294 0.000000000000000e+00 1851878480
-0.332924 -1.025227 0.880169 0.000000000000000e+00 1851878480
-0.099829 -0.851377 0.997763 0.000000000000000e+00 1851878480
-0.938497 -1.428661 0.145385 0.000000000000000e+00 1701537140
-0.960334 -1.452764 0.227245 0.000000000000000e+00 1701537140
-0.965433 -1.463302 0.305482 0.000000000000000e+00 1701537140
-0.960712 -1.465852 0.381267 0.000000000000000e+00 1701537140
-0.946876 -1.461108 0.456206 0.000000000000000e+00 1701537140
-0.895452 -1.426477 0.529974 0.000000000000000e+00 1701537140
-0.945997 -1.473048 0.608410 0.000000000000000e+00 1851878480
-0.915242 -1.454983 0.684400 0.000000000000000e+00 1851878480
-0.864649 -1.421409 0.762982 0.000000000000000e+00 1851878480
-0.346717 -1.020674 0.880481 0.000000000000000e+00 1851878480
-0.118662 -0.849642 0.997473 0.000000000000000e+00 1851878480
-0.793506 -1.304429 0.033146 0.000000000000000e+00 1701537140
-0.950893 -1.425994 0.147239 0.000000000000000e+00 1701537140
-0.966013 -1.444753 0.227814 0.000000000000000e+00 1701537140
-0.970305 -1.454676 0.305957 0.000000000000000e+00 1701537140
-0.966402 -1.457877 0.381863 0.000000000000000e+00 1701537140
-0.953611 -1.453917 0.456890 0.000000000000000e+00 1701537140
-0.908404 -1.424021 0.530913 0.000000000000000e+00 1701537140
-0.949837 -1.463560 0.609019 0.000000000000000e+00 1851878480
-0.918529 -1.444919 0.685093 0.000000000000000e+00 1851878480
-0.869581 -1.412422 0.763702 0.000000000000000e+00 1851878480
-0.360304 -1.016020 0.880804 0.000000000000000e+00 1851878480
-0.136820 -0.847479 0.997247 0.000000000000000e+00 1851878480
-0.832214 -1.322518 0.041075 0.000000000000000e+00 1701537140
-0.955866 -1.417312 0.147649 0.000000000000000e+00 1701537140
-0.970533 -1.435791 0.228189 0.000000000000000e+00 1701537140
-0.971315 -1.442896 0.305915 0.000000000000000e+00 1701537140
-0.970788 -1.448839 0.382322 0.000000000000000e+00 1701537140
-0.958876 -1.445542 0.457466 0.000000000000000e+00 1701537140
-0.921109 -1.421433 0.531838 0.000000000000000e+00 1701537140
-0.953566 -1.453959 0.609627 0.000000000000000e+00 1851878480
-0.921947 -1.434933 0.685787 0.000000000000000e+00 1851878480
-0.873822 -1.402871 0.764457 0.000000000000000e+00 1851878480
-0.373495 -1.011110 0.881155 0.000000000000000e+00 1851878480
-0.154489 -0.845029 0.997065 0.000000000000000e+00 1851878480
0.427440 -0.392926 1.175429 0.000000000000000e+00 1851878480
-0.858689 -1.330884 0.046260 0.000000000000000e+00 1701537140
-0.960979 -1.408731 0.148081 0.000000000000000e+00 1701537140
-0.971332 -1.423758 0.227951 0.000000000000000e+00 1701537140
-0.948675 -1.411706 0.302728 0.000000000000000e+00 1701537140
-0.970915 -1.436309 0.382341 0.000000000000000e+00 1701537140
-0.964362 -1.437338 0.458055 0.000000000000000e+00 1701537140
-0.933641 -1.418768 0.532752 0.000000000000000e+00 1701537140
-0.956959 -1.444063 0.610232 0.000000000000000e+00 1851878480
-0.925480 -1.425011 0.686480 0.000000000000000e+00 1851878480
-0.877545 -1.392881 0.765238 0.000000000000000e+00 1851878480
-0.386567 -1.006160 0.881511 0.000000000000000e+00 1851878480
-0.171731 -0.842331 0.996921 0.000000000000000e+00 1851878480
0.327827 -0.452931 1.164106 0.000000000000000e+00 1851878480
-0.880976 -1.335990 0.050505 0.000000000000000e+00 1701537140
-0.966076 -1.400127 0.148504 0.000000000000000e+00 1701537140
-0.803618 -1.272457 0.200111 0.000000000000000e+00 1701537140
-0.952387 -1.401929 0.303036 0.000000000000000e+00 1701537140
-0.804524 -1.287006 0.365283 0.000000000000000e+00 1701537140
-0.969274 -1.428657 0.458601 0.000000000000000e+00 1701537140
-0.946036 -1.416055 0.533657 0.000000000000000e+00 1701537140
-0.959657 -1.433574 0.610828 0.000000000000000e+00 1851878480
-0.929073 -1.415111 0.687173 0.000000000000000e+00 1851878480
-0.880814 -1.382500 0.766043 0.000000000000000e+00 1851878480
-0.399259 -1.000959 0.881894 0.000000000000000e+00 1851878480
-0.188455 -0.839308 0.996827 0.000000000000000e+00 1851878480
0.253865 -0.493282 1.156198 0.000000000000000e+00 1851878480
-0.900228 -1.338733 0.054067 0.000000000000000e+00 1701537140
-0.970246 -1.390737 0.148742 0.000000000000000e+00 1701537140
-0.803798 -1.258946 0.199734 0.000000000000000e+00 1701537140
-0.956128 -1.392148 0.303344 0.000000000000000e+00 1701537140
-0.804815 -1.273649 0.365314 0.000000000000000e+00 1701537140
-0.971642 -1.417868 0.458962 0.000000000000000e+00 1701537140
-0.952782 -1.408764 0.534320 0.000000000000000e+00 1701537140
-0.962223 -1.422941 0.611424 0.000000000000000e+00 1851878480
-0.932807 -1.405299 0.687865 0.000000000000000e+00 1851878480
-0.884013 -1.372030 0.766854 0.000000000000000e+00 1851878480
-0.411844 -0.995722 0.882282 0.000000000000000e+00 1851878480
-0.204889 -0.836136 0.996758 0.000000000000000e+00 1851878480
0.198873 -0.518986 1.150829 0.000000000000000e+00 1851878480
-0.917915 -1.340296 0.057278 0.000000000000000e+00 1701537140
-0.971552 -1.378924 0.148414 0.000000000000000e+00 1701537140
-0.803962 -1.245355 0.199348 0.000000000000000e+00 1701537140
-0.959825 -1.382307 0.303642 0.000000000000000e+00 1701537140
-0.805102 -1.260224 0.365342 0.000000000000000e+00 1701537140
-0.968748 -1.402680 0.458940 0.000000000000000e+00 1701537140
-0.957350 -1.399680 0.534891 0.000000000000000e+00 1701537140
-0.964825 -1.412302 0.612021 0.000000000000000e+00 1851878480
-0.936411 -1.395355 0.688562 0.000000000000000e+00 1851878480
-0.886915 -1.361285 0.767683 0.000000000000000e+00 1851878480
-0.424085 -0.990255 0.882694 0.000000000000000e+00 1851878480
-0.221081 -0.832851 0.996709 0.000000000000000e+00 1851878480
0.152198 -0.538402 1.146560 0.000000000000000e+00 1851878480
-0.934922 -1.341403 0.060336 0.000000000000000e+00 1701537140
-0.969383 -1.364126 0.147401 0.000000000000000e+00 1701537140
-0.804105 -1.231678 0.198953 0.000000000000000e+00 1701537140
-0.963413 -1.372346 0.303921 0.000000000000000e+00 1701537140
-0.805385 -1.246730 0.365366 0.000000000000000e+00 1701537140
-0.929893 -1.357420 0.456325 0.000000000000000e+00 1701537140
-0.962024 -1.390666 0.535465 0.000000000000000e+00 1701537140
-0.889314 -1.336904 0.611723 0.000000000000000e+00 1701537140
-0.940246 -1.385574 0.689256 0.000000000000000e+00 1851878480
-0.889681 -1.350392 0.768522 0.000000000000000e+00 1851878480
-0.436214 -0.984742 0.883113 0.000000000000000e+00 1851878480
-0.236870 -0.829318 0.996698 0.000000000000000e+00 1851878480
0.111919 -0.552976 1.143138 0.000000000000000e+00 1851878480
-0.950074 -1.341047 0.062973 0.000000000000000e+00 1701537140
-0.710880 -1.131570 0.096251 0.000000000000000e+00 1701537140
-0.804223 -1.217914 0.198546 0.000000000000000e+00 1701537140
-0.966873 -1.362250 0.304180 0.000000000000000e+00 1701537140
-0.805659 -1.233163 0.365386 0.000000000000000e+00 1701537140
-0.944248 -1.356329 0.457548 0.000000000000000e+00 1701537140
-0.966486 -1.381458 0.536030 0.000000000000000e+00 1701537140
-0.901202 -1.333532 0.612444 0.000000000000000e+00 1701537140
-0.943981 -1.375684 0.689953 0.000000000000000e+00 1851878480
-0.892455 -1.339468 0.769364 0.000000000000000e+00 1851878480
-0.448035 -0.979021 0.883553 0.000000000000000e+00 1851878480
-0.252422 -0.825668 0.996708 0.000000000000000e+00 1851878480
0.078733 -0.562044 1.140672 0.000000000000000e+00 1851878480
-0.953513 -1.330803 0.062948 0.000000000000000e+00 1701537140
-0.915794 -1.292188 0.135704 0.000000000000000e+00 1701537140
-0.804315 -1.204056 0.198129 0.000000000000000e+00 1701537140
-0.969790 -1.351660 0.304362 0.000000000000000e+00 1701537140
-0.809176 -1.222274 0.365736 0.000000000000000e+00 1701537140
-0.952926 -1.350528 0.458359 0.000000000000000e+00 1701537140
-0.970178 -1.371582 0.536561 0.000000000000000e+00 1701537140
-0.912691 -1.329882 0.613157 0.000000000000000e+00 1701537140
-0.947582 -1.365655 0.690654 0.000000000000000e+00 1851878480
-0.895027 -1.328337 0.770219 0.000000000000000e+00 1851878480
-0.459719 -0.973228 0.884003 0.000000000000000e+00 1851878480
-0.267730 -0.821889 0.996739 0.000000000000000e+00 1851878480
0.050133 -0.567567 1.138823 0.000000000000000e+00 1851878480
-0.957111 -1.320664 0.062952 0.000000000000000e+00 1701537140
-0.929802 -1.290772 0.137823 0.000000000000000e+00 1701537140
-0.804376 -1.190103 0.197699 0.000000000000000e+00 1701537140
-0.967468 -1.336561 0.303841 0.000000000000000e+00 1701537140
-0.824017 -1.220995 0.367244 0.000000000000000e+00 1701537140
-0.958244 -1.341897 0.458925 0.000000000000000e+00 1701537140
-0.971605 -1.359762 0.536999 0.000000000000000e+00 1701537140
-0.923963 -1.326099 0.613865 0.000000000000000e+00 1701537140
-0.951236 -1.355642 0.691356 0.000000000000000e+00 1851878480
-0.897454 -1.317045 0.771085 0.000000000000000e+00 1851878480
-0.471164 -0.967278 0.884469 0.000000000000000e+00 1851878480
-0.282678 -0.817885 0.996805 0.000000000000000e+00 1851878480
0.023682 -0.571504 1.137256 0.000000000000000e+00 1851878480
-0.960928 -1.310684 0.062998 0.000000000000000e+00 1701537140
-0.943106 -1.288825 0.139802 0.000000000000000e+00 1701537140
-0.804403 -1.176049 0.197258 0.000000000000000e+00 1701537140
-0.926458 -1.288118 0.298151 0.000000000000000e+00 1701537140
-0.838881 -1.219818 0.368752 0.000000000000000e+00 1701537140
-0.961436 -1.331438 0.459338 0.000000000000000e+00 1701537140
-0.970162 -1.345444 0.537318 0.000000000000000e+00 1701537140
-0.935113 -1.322261 0.614569 0.000000000000000e+00 1701537140
-0.954607 -1.345360 0.692065 0.000000000000000e+00 1851878480
-0.899837 -1.305673 0.771958 0.000000000000000e+00 1851878480
-0.482418 -0.961205 0.884950 0.000000000000000e+00 1851878480
-0.297418 -0.813776 0.996890 0.000000000000000e+00 1851878480
-0.001851 -0.574855 1.135801 0.000000000000000e+00 1851878480
-0.964299 -1.300289 0.062935 0.000000000000000e+00 1701537140
-0.953439 -1.284363 0.141196 0.000000000000000e+00 1701537140
-0.804396 -1.161892 0.196804 0.000000000000000e+00 1701537140
-0.934754 -1.281813 0.299035 0.000000000000000e+00 1701537140
-0.853337 -1.218374 0.370214 0.000000000000000e+00 1701537140
-0.956162 -1.313669 0.459141 0.000000000000000e+00 1701537140
-0.949454 -1.314538 0.536846 0.000000000000000e+00 1701537140
-0.946147 -1.318371 0.615269 0.000000000000000e+00 1701537140
-0.957821 -1.334912 0.692780 0.000000000000000e+00 1851878480
-0.901975 -1.294049 0.772847 0.000000000000000e+00 1851878480
-0.493500 -0.955023 0.885442 0.000000000000000e+00 1851878480
-0.311875 -0.809497 0.997001 0.000000000000000e+00 1851878480
-0.027136 -0.578165 1.134365 0.000000000000000e+00 1851878480
-0.967411 -1.289633 0.062804 0.000000000000000e+00 1701537140
-0.960336 -1.276933 0.141911 0.000000000000000e+00 1701537140
-0.910191 -1.239991 0.213822 0.000000000000000e+00 1701537140
-0.941744 -1.274389 0.299741 0.000000000000000e+00 1701537140
-0.867298 -1.216580 0.371624 0.000000000000000e+00 1701537140
-0.947380 -1.292742 0.458692 0.000000000000000e+00 1701537140
-0.689148 -1.076793 0.526568 0.000000000000000e+00 1701537140
-0.951561 -1.309698 0.615910 0.000000000000000e+00 1701537140
-0.960637 -1.324088 0.693504 0.000000000000000e+00 1851878480
-0.904116 -1.282381 0.773739 0.000000000000000e+00 1851878480
-0.504331 -0.948662 0.885954 0.000000000000000e+00 1851878480
-0.326059 -0.805050 0.997139 0.000000000000000e+00 1851878480
-0.051498 -0.580865 1.133044 0.000000000000000e+00 1851878480
-0.969850 -1.278351 0.062512 0.000000000000000e+00 1701537140
-0.964266 -1.266892 0.142035 0.000000000000000e+00 1701537140
-0.924391 -1.238722 0.215722 0.000000000000000e+00 1701537140
-0.947255 -1.265672 0.300246 0.000000000000000e+00 1701537140
-0.906154 -1.236584 0.375584 0.000000000000000e+00 1701537140
-0.959269 -1.289636 0.459723 0.000000000000000e+00 1701537140
-0.692371 -1.064812 0.527122 0.000000000000000e+00 1701537140
-0.954266 -1.298670 0.616523 0.000000000000000e+00 1701537140
-0.962824 -1.312684 0.694244 0.000000000000000e+00 1851878480
-0.905857 -1.270321 0.774657 0.000000000000000e+00 1851878480
-0.515107 -0.942287 0.886469 0.000000000000000e+00 1851878480
-0.340059 -0.800509 0.997294 0.000000000000000e+00 1851878480
-0.074358 -0.582445 1.131923 0.000000000000000e+00 1851878480
-0.971164 -1.266029 0.061953 0.000000000000000e+00 1701537140
-0.944309 -1.235658 0.137441 0.000000000000000e+00 1701537140
-0.938513 -1.237463 0.217608 0.000000000000000e+00 1701537140
-0.950880 -1.255284 0.300495 0.000000000000000e+00 1701537140
-0.925101 -1.239450 0.377500 0.000000000000000e+00 1701537140
-0.967624 -1.283493 0.460499 0.000000000000000e+00 1701537140
-0.697940 -1.054835 0.527771 0.000000000000000e+00 1701537140
-0.957079 -1.287695 0.617139 0.000000000000000e+00 1701537140
-0.964352 -1.300662 0.695000 0.000000000000000e+00 1851878480
-0.907525 -1.258146 0.775583 0.000000000000000e+00 1851878480
-0.525559 -0.935665 0.887009 0.000000000000000e+00 1851878480
-0.353699 -0.795719 0.997486 0.000000000000000e+00 1851878480
-0.095554 -0.582745 1.131027 0.000000000000000e+00 1851878480
-0.971661 -1.252925 0.061197 0.000000000000000e+00 1701537140
-0.955882 -1.232243 0.139056 0.000000000000000e+00 1701537140
-0.950953 -1.234786 0.219212 0.000000000000000e+00 1701537140
-0.949903 -1.240786 0.300123 0.000000000000000e+00 1701537140
-0.942332 -1.240929 0.379236 0.000000000000000e+00 1701537140
-0.971783 -1.273672 0.460973 0.000000000000000e+00 1701537140
-0.707884 -1.048679 0.528597 0.000000000000000e+00 1701537140
-0.959708 -1.276517 0.617754 0.000000000000000e+00 1701537140
-0.965458 -1.288216 0.695769 0.000000000000000e+00 1851878480
-0.908901 -1.245663 0.776529 0.000000000000000e+00 1851878480
-0.535956 -0.929023 0.887553 0.000000000000000e+00 1851878480
-0.367186 -0.790854 0.997692 0.000000000000000e+00 1851878480
-0.115283 -0.581910 1.130331 0.000000000000000e+00 1851878480
-0.971495 -1.239161 0.060279 0.000000000000000e+00 1701537140
-0.965083 -1.226753 0.140200 0.000000000000000e+00 1701537140
-0.958502 -1.227798 0.220003 0.000000000000000e+00 1701537140
-0.949820 -1.227001 0.299865 0.000000000000000e+00 1701537140
-0.951798 -1.235621 0.380173 0.000000000000000e+00 1701537140
-0.804316 -1.111774 0.449189 0.000000000000000e+00 1701537140
-0.720283 -1.044721 0.529519 0.000000000000000e+00 1701537140
-0.962133 -1.265118 0.618368 0.000000000000000e+00 1701537140
-0.966547 -1.275698 0.696542 0.000000000000000e+00 1851878480
-0.910093 -1.232963 0.777489 0.000000000000000e+00 1851878480
-0.546051 -0.922145 0.888122 0.000000000000000e+00 1851878480
-0.380293 -0.785714 0.997938 0.000000000000000e+00 1851878480
-0.133976 -0.580292 1.129776 0.000000000000000e+00 1851878480
-0.971165 -1.225175 0.059312 0.000000000000000e+00 1701537140
-0.971106 -1.218421 0.140711 0.000000000000000e+00 1701537140
-0.946764 -1.203471 0.217586 0.000000000000000e+00 1701537140
-0.944789 -1.208705 0.298940 0.000000000000000e+00 1701537140
-0.941010 -1.212234 0.379029 0.000000000000000e+00 1701537140
-0.804157 -1.097127 0.449363 0.000000000000000e+00 1701537140
-0.733410 -1.041463 0.530467 0.000000000000000e+00 1701537140
-0.964532 -1.253649 0.618984 0.000000000000000e+00 1701537140
-0.967369 -1.262884 0.697324 0.000000000000000e+00 1851878480
-0.911000 -1.219950 0.778470 0.000000000000000e+00 1851878480
-0.556013 -0.915175 0.888701 0.000000000000000e+00 1851878480
-0.393272 -0.780513 0.998196 0.000000000000000e+00 1851878480
-0.151824 -0.578038 1.129334 0.000000000000000e+00 1851878480
-0.970844 -1.211119 0.058336 0.000000000000000e+00 1701537140
-0.799055 -1.048449 0.105891 0.000000000000000e+00 1701537140
-0.955720 -1.197668 0.218600 0.000000000000000e+00 1701537140
-0.953669 -1.202830 0.299875 0.000000000000000e+00 1701537140
-0.951186 -1.207511 0.380033 0.000000000000000e+00 1701537140
-0.803972 -1.082377 0.449533 0.000000000000000e+00 1701537140
-0.746551 -1.038279 0.531412 0.000000000000000e+00 1701537140
-0.966243 -1.241520 0.619594 0.000000000000000e+00 1701537140
-0.968187 -1.250003 0.698109 0.000000000000000e+00 1851878480
-0.911667 -1.206661 0.779469 0.000000000000000e+00 1851878480
-0.565710 -0.907994 0.889302 0.000000000000000e+00 1851878480
-0.405928 -0.775081 0.998488 0.000000000000000e+00 1851878480
-0.169138 -0.575413 1.128963 0.000000000000000e+00 1851878480
-0.970613 -1.197068 0.057371 0.000000000000000e+00 1701537140
-0.808876 -1.042590 0.107095 0.000000000000000e+00 1701537140
-0.803217 -1.044898 0.192730 0.000000000000000e+00 1701537140
-0.948100 -1.183863 0.298866 0.000000000000000e+00 1701537140
-0.944679 -1.187729 0.379322 0.000000000000000e+00 1701537140
-0.910938 -1.164216 0.457332 0.000000000000000e+00 1701537140
-0.759636 -1.035107 0.532352 0.000000000000000e+00 1701537140
-0.967788 -1.229187 0.620205 0.000000000000000e+00 1701537140
-0.968726 -1.236809 0.698905 0.000000000000000e+00 1851878480
-0.912034 -1.193039 0.780490 0.000000000000000e+00 1851878480
-0.575183 -0.900635 0.889922 0.000000000000000e+00 1851878480
-0.418429 -0.769557 0.998797 0.000000000000000e+00 1851878480
-0.186104 -0.572571 1.128636 0.000000000000000e+00 1851878480
-0.970549 -1.183091 0.056432 0.000000000000000e+00 1701537140
-0.818803 -1.036856 0.108317 0.000000000000000e+00 1701537140
-0.742190 -0.974153 0.182041 0.000000000000000e+00 1701537140
-0.956498 -1.177511 0.299729 0.000000000000000e+00 1701537140
-0.955034 -1.183149 0.380338 0.000000000000000e+00 1701537140
-0.926537 -1.164216 0.458615 0.000000000000000e+00 1701537140
-0.918831 -1.164215 0.539096 0.000000000000000e+00 1701537140
-0.968875 -1.216384 0.620814 0.000000000000000e+00 1701537140
-0.969254 -1.223536 0.699705 0.000000000000000e+00 1851878480
-0.912133 -1.179103 0.781531 0.000000000000000e+00 1851878480
-0.584678 -0.893312 0.890540 0.000000000000000e+00 1851878480
-0.430685 -0.763860 0.999131 0.000000000000000e+00 1851878480
-0.202771 -0.569548 1.128346 0.000000000000000e+00 1851878480
-0.970628 -1.169169 0.055516 0.000000000000000e+00 1701537140
-0.828859 -1.031270 0.109561 0.000000000000000e+00 1701537140
-0.754390 -0.970126 0.183540 0.000000000000000e+00 1701537140
-0.958134 -1.164963 0.299678 0.000000000000000e+00 1701537140
-0.949455 -1.164014 0.379716 0.000000000000000e+00 1701537140
-0.941872 -1.164068 0.459877 0.000000000000000e+00 1701537140
-0.934384 -1.164215 0.540104 0.000000000000000e+00 1701537140
-0.969569 -1.203161 0.621422 0.000000000000000e+00 1701537140
-0.969524 -1.209960 0.700515 0.000000000000000e+00 1851878480
-0.911949 -1.164838 0.782594 0.000000000000000e+00 1851878480
-0.593683 -0.885566 0.891200 0.000000000000000e+00 1851878480
-0.442779 -0.758061 0.999483 0.000000000000000e+00 1851878480
-0.219070 -0.566282 1.128105 0.000000000000000e+00 1851878480
-0.970821 -1.155277 0.054616 0.000000000000000e+00 1701537140
-0.839153 -1.025934 0.110848 0.000000000000000e+00 1701537140
-0.766590 -0.966148 0.185035 0.000000000000000e+00 1701537140
-0.950922 -1.144180 0.298431 0.000000000000000e+00 1701537140
-0.955877 -1.155797 0.380323 0.000000000000000e+00 1701537140
-0.954570 -1.161591 0.460948 0.000000000000000e+00 1701537140
-0.949272 -1.163700 0.541083 0.000000000000000e+00 1701537140
-0.970048 -1.189673 0.622031 0.000000000000000e+00 1701537140
-0.969765 -1.196285 0.701330 0.000000000000000e+00 1851878480
-0.911475 -1.150231 0.783680 0.000000000000000e+00 1851878480
-0.602659 -0.877804 0.891864 0.000000000000000e+00 1851878480
-0.454686 -0.752134 0.999854 0.000000000000000e+00 1851878480
-0.234936 -0.562706 1.127921 0.000000000000000e+00 1851878480
-0.971197 -1.141480 0.053747 0.000000000000000e+00 1701537140
-0.849540 -1.020719 0.112150 0.000000000000000e+00 1701537140
-0.778894 -0.962320 0.186545 0.000000000000000e+00 1701537140
-0.952006 -1.130950 0.298296 0.000000000000000e+00 1701537140
-0.954510 -1.140355 0.380126 0.000000000000000e+00 1701537140
-0.961028 -1.153409 0.461573 0.000000000000000e+00 1701537140
-0.959628 -1.159096 0.541879 0.000000000000000e+00 1701537140
-0.970145 -1.175763 0.622638 0.000000000000000e+00 1701537140
-0.969791 -1.182341 0.702155 0.000000000000000e+00 1851878480
-0.910620 -1.135192 0.784794 0.000000000000000e+00 1851878480
-0.611306 -0.869757 0.892556 0.000000000000000e+00 1851878480
-0.466458 -0.746125 1.000240 0.000000000000000e+00 1851878480
-0.250440 -0.558879 1.127787 0.000000000000000e+00 1851878480
-0.971478 -1.127518 0.052845 0.000000000000000e+00 1701537140
-0.860193 -1.015787 0.113501 0.000000000000000e+00 1701537140
-0.927558 -1.086480 0.210888 0.000000000000000e+00 1701537140
-0.953515 -1.118052 0.298213 0.000000000000000e+00 1701537140
-0.954848 -1.126406 0.380101 0.000000000000000e+00 1701537140
-0.950554 -1.129477 0.460996 0.000000000000000e+00 1701537140
-0.963710 -1.148711 0.542428 0.000000000000000e+00 1701537140
-0.970062 -1.161609 0.623248 0.000000000000000e+00 1701537140
-0.969763 -1.168269 0.702986 0.000000000000000e+00 1851878480
-0.909599 -1.119912 0.785924 0.000000000000000e+00 1851878480
-0.619774 -0.861552 0.893266 0.000000000000000e+00 1851878480
-0.478025 -0.739966 1.000649 0.000000000000000e+00 1851878480
-0.265587 -0.554798 1.127701 0.000000000000000e+00 1851878480
-0.971614 -1.113343 0.051898 0.000000000000000e+00 1701537140
-0.870931 -1.010972 0.114866 0.000000000000000e+00 1701537140
-0.944333 -1.087750 0.213170 0.000000000000000e+00 1701537140
-0.765861 -0.927080 0.272588 0.000000000000000e+00 1701537140
-0.755034 -0.924594 0.359498 0.000000000000000e+00 1701537140
-0.960178 -1.124148 0.461842 0.000000000000000e+00 1701537140
-0.939265 -1.111688 0.541864 0.000000000000000e+00 1701537140
-0.969531 -1.146960 0.623856 0.000000000000000e+00 1701537140
-0.969578 -1.153973 0.703825 0.000000000000000e+00 1851878480
-0.908064 -1.104068 0.787091 0.000000000000000e+00 1851878480
-0.628209 -0.853322 0.893979 0.000000000000000e+00 1851878480
-0.489524 -0.733780 1.001065 0.000000000000000e+00 1851878480
-0.280197 -0.550295 1.127691 0.000000000000000e+00 1851878480
-0.971017 -1.098393 0.050769 0.000000000000000e+00 1701537140
-0.903249 -1.026748 0.120558 0.000000000000000e+00 1701537140
-0.957187 -1.085405 0.214794 0.000000000000000e+00 1701537140
-0.779203 -0.924181 0.274072 0.000000000000000e+00 1701537140
-0.768854 -0.922083 0.360848 0.000000000000000e+00 1701537140
-0.789270 -0.948949 0.449915 0.000000000000000e+00 1701537140
-0.950584 -1.107866 0.542697 0.000000000000000e+00 1701537140
-0.968693 -1.131937 0.624466 0.000000000000000e+00 1701537140
-0.969271 -1.139482 0.704671 0.000000000000000e+00 1851878480
-0.906418 -1.088021 0.788272 0.000000000000000e+00 1851878480
-0.636338 -0.844814 0.894720 0.000000000000000e+00 1851878480
-0.500807 -0.727429 1.001506 0.000000000000000e+00 1851878480
-0.294552 -0.545620 1.127716 0.000000000000000e+00 1851878480
-0.968499 -1.081518 0.049177 0.000000000000000e+00 1701537140
-0.919938 -1.027834 0.123119 0.000000000000000e+00 1701537140
-0.963409 -1.076788 0.215300 0.000000000000000e+00 1701537140
-0.792489 -0.921294 0.275545 0.000000000000000e+00 1701537140
-0.916371 -1.046602 0.375946 0.000000000000000e+00 1701537140
-0.803133 -0.946664 0.451067 0.000000000000000e+00 1701537140
-0.957295 -1.099741 0.543348 0.000000000000000e+00 1701537140
-0.967112 -1.116126 0.625074 0.000000000000000e+00 1701537140
-0.968807 -1.124760 0.705527 0.000000000000000e+00 1851878480
-0.904464 -1.071585 0.789479 0.000000000000000e+00 1851878480
-0.644481 -0.836320 0.895462 0.000000000000000e+00 1851878480
-0.511998 -0.721025 1.001957 0.000000000000000e+00 1851878480
-0.308688 -0.540802 1.127770 0.000000000000000e+00 1851878480
-0.962830 -1.061504 0.046834 0.000000000000000e+00 1701537140
-0.936299 -1.028711 0.125614 0.000000000000000e+00 1701537140
-0.934843 -1.034728 0.209947 0.000000000000000e+00 1701537140
-0.805777 -0.918472 0.277016 0.000000000000000e+00 1701537140
-0.928821 -1.043688 0.377153 0.000000000000000e+00 1701537140
-0.817008 -0.944460 0.452217 0.000000000000000e+00 1701537140
-0.954796 -1.082865 0.543644 0.000000000000000e+00 1701537140
-0.964596 -1.099331 0.625680 0.000000000000000e+00 1701537140
-0.968118 -1.109740 0.706394 0.000000000000000e+00 1851878480
-0.902206 -1.054760 0.790711 0.000000000000000e+00 1851878480
-0.652607 -0.827812 0.896207 0.000000000000000e+00 1851878480
-0.522909 -0.714391 1.002441 0.000000000000000e+00 1851878480
-0.322497 -0.535736 1.127872 0.000000000000000e+00 1851878480
-0.954857 -1.039113 0.043932 0.000000000000000e+00 1701537140
-0.945593 -1.022839 0.126685 0.000000000000000e+00 1701537140
-0.950228 -1.034745 0.211981 0.000000000000000e+00 1701537140
-0.819084 -0.915732 0.278487 0.000000000000000e+00 1701537140
-0.941091 -1.040659 0.378339 0.000000000000000e+00 1701537140
-0.830818 -0.942264 0.453359 0.000000000000000e+00 1701537140
-0.921348 -1.036307 0.542754 0.000000000000000e+00 1701537140
-0.961283 -1.081664 0.626284 0.000000000000000e+00 1701537140
-0.967301 -1.094508 0.707269 0.000000000000000e+00 1851878480
-0.899814 -1.037696 0.791961 0.000000000000000e+00 1851878480
-0.660567 -0.819146 0.896968 0.000000000000000e+00 1851878480
-0.533754 -0.707722 1.002933 0.000000000000000e+00 1851878480
-0.336147 -0.530576 1.127994 0.000000000000000e+00 1851878480
-0.949333 -1.011571 0.126630 0.000000000000000e+00 1701537140
-0.962398 -1.031728 0.213470 0.000000000000000e+00 1701537140
-0.832389 -0.913055 0.279955 0.000000000000000e+00 1701537140
-0.951196 -1.035595 0.379299 0.000000000000000e+00 1701537140
-0.844715 -0.940224 0.454505 0.000000000000000e+00 1701537140
-0.938476 -1.037891 0.543808 0.000000000000000e+00 1701537140
-0.956607 -1.062570 0.626886 0.000000000000000e+00 1701537140
-0.966094 -1.078810 0.708160 0.000000000000000e+00 1851878480
-0.897289 -1.020396 0.793228 0.000000000000000e+00 1851878480
-0.668526 -0.810478 0.897732 0.000000000000000e+00 1851878480
-0.544173 -0.700677 1.003477 0.000000000000000e+00 1851878480
-0.349644 -0.525326 1.128137 0.000000000000000e+00 1851878480
-0.949454 -0.996707 0.125836 0.000000000000000e+00 1701537140
-0.970078 -1.024374 0.214199 0.000000000000000e+00 1701537140
-0.845781 -0.910527 0.281432 0.000000000000000e+00 1701537140
-0.958724 -1.028055 0.379991 0.000000000000000e+00 1701537140
-0.858610 -0.938254 0.455647 0.000000000000000e+00 1701537140
-0.949455 -1.033642 0.544623 0.000000000000000e+00 1701537140
-0.951898 -1.043305 0.627492 0.000000000000000e+00 1701537140
-0.964726 -1.062861 0.709061 0.000000000000000e+00 1851878480
-0.894466 -1.002693 0.794521 0.000000000000000e+00 1851878480
-0.676522 -0.801844 0.898493 0.000000000000000e+00 1851878480
-0.554613 -0.693675 1.004018 0.000000000000000e+00 1851878480
-0.362986 -0.519977 1.128302 0.000000000000000e+00 1851878480
-0.962881 -0.994894 0.127727 0.000000000000000e+00 1701537140
-0.971780 -1.011138 0.213912 0.000000000000000e+00 1701537140
-0.859151 -0.908043 0.282904 0.000000000000000e+00 1701537140
-0.964055 -1.018366 0.380454 0.000000000000000e+00 1701537140
-0.872590 -0.936439 0.456792 0.000000000000000e+00 1701537140
-0.949455 -1.018754 0.545019 0.000000000000000e+00 1701537140
-0.872934 -0.951877 0.627709 0.000000000000000e+00 1851878480
-0.962060 -1.045555 0.710003 0.000000000000000e+00 1851878480
-0.891194 -0.984439 0.795851 0.000000000000000e+00 1851878480
-0.684452 -0.793144 0.899263 0.000000000000000e+00 1851878480
-0.564606 -0.686266 1.004614 0.000000000000000e+00 1851878480
-0.376241 -0.514596 1.128478 0.000000000000000e+00 1851878480
-0.968739 -0.985634 0.128080 0.000000000000000e+00 1701537140
-0.920834 -0.945693 0.204698 0.000000000000000e+00 1701537140
-0.872593 -0.905697 0.284383 0.000000000000000e+00 1701537140
-0.968082 -1.007369 0.380779 0.000000000000000e+00 1701537140
-0.903334 -0.951152 0.459112 0.000000000000000e+00 1701537140
-0.850850 -0.907274 0.541695 0.000000000000000e+00 1701537140
-0.889262 -0.952422 0.628451 0.000000000000000e+00 1851878480
-0.957617 -1.026402 0.711000 0.000000000000000e+00 1851878480
-0.886342 -0.964524 0.797285 0.000000000000000e+00 1851878480
-0.697944 -0.789821 0.899523 0.000000000000000e+00 1851878480
-0.574511 -0.678790 1.005223 0.000000000000000e+00 1851878480
-0.389362 -0.509134 1.128673 0.000000000000000e+00 1851878480
-0.971292 -0.973051 0.127756 0.000000000000000e+00 1701537140
-0.935160 -0.944584 0.206526 0.000000000000000e+00 1701537140
-0.899474 -0.916768 0.287689 0.000000000000000e+00 1701537140
-0.970791 -0.995026 0.380965 0.000000000000000e+00 1701537140
-0.919740 -0.951980 0.460421 0.000000000000000e+00 1701537140
-0.966112 -1.005116 0.546440 0.000000000000000e+00 1701537140
-0.905481 -0.952963 0.629188 0.000000000000000e+00 1851878480
-0.952111 -1.006070 0.712035 0.000000000000000e+00 1851878480
-0.877728 -0.940792 0.798957 0.000000000000000e+00 1851878480
-0.705399 -0.780686 0.900337 0.000000000000000e+00 1851878480
-0.584131 -0.671053 1.005868 0.000000000000000e+00 1851878480
-0.402296 -0.503539 1.128894 0.000000000000000e+00 1851878480
-0.970264 -0.956807 0.126694 0.000000000000000e+00 1701537140
-0.948349 -0.942415 0.208159 0.000000000000000e+00 1701537140
-0.914749 -0.916468 0.289415 0.000000000000000e+00 1701537140
-0.970395 -0.979531 0.380827 0.000000000000000e+00 1701537140
-0.935932 -0.952699 0.461710 0.000000000000000e+00 1701537140
-0.970059 -0.993971 0.546984 0.000000000000000e+00 1701537140
-0.921103 -0.953014 0.629916 0.000000000000000e+00 1851878480
-0.946283 -0.985267 0.713088 0.000000000000000e+00 1851878480
-0.869856 -0.917598 0.800599 0.000000000000000e+00 1851878480
-0.712785 -0.771474 0.901161 0.000000000000000e+00 1851878480
-0.593457 -0.663041 1.006551 0.000000000000000e+00 1851878480
-0.415121 -0.497882 1.129132 0.000000000000000e+00 1851878480
-0.951327 -0.922348 0.121969 0.000000000000000e+00 1701537140
-0.949454 -0.928128 0.207735 0.000000000000000e+00 1701537140
-0.929941 -0.916177 0.291128 0.000000000000000e+00 1701537140
-0.924137 -0.917969 0.375955 0.000000000000000e+00 1701537140
-0.949374 -0.950772 0.462804 0.000000000000000e+00 1701537140
-0.971565 -0.980352 0.547437 0.000000000000000e+00 1701537140
-0.936311 -0.952750 0.630639 0.000000000000000e+00 1851878480
-0.940496 -0.964346 0.714149 0.000000000000000e+00 1851878480
-0.864528 -0.896730 0.802100 0.000000000000000e+00 1851878480
-0.720111 -0.762193 0.901993 0.000000000000000e+00 1851878480
-0.602741 -0.654997 1.007241 0.000000000000000e+00 1851878480
-0.427678 -0.492008 1.129409 0.000000000000000e+00 1851878480
-0.964415 -0.927817 0.209663 0.000000000000000e+00 1701537140
-0.944751 -0.915588 0.292787 0.000000000000000e+00 1701537140
-0.939466 -0.917863 0.377431 0.000000000000000e+00 1701537140
-0.949400 -0.935424 0.462955 0.000000000000000e+00 1701537140
-0.968401 -0.961977 0.547716 0.000000000000000e+00 1701537140
-0.950722 -0.951778 0.631353 0.000000000000000e+00 1851878480
-0.935075 -0.943629 0.715209 0.000000000000000e+00 1851878480
-0.860906 -0.877401 0.803510 0.000000000000000e+00 1851878480
-0.727343 -0.752808 0.902836 0.000000000000000e+00 1851878480
-0.611628 -0.646569 1.007983 0.000000000000000e+00 1851878480
-0.440088 -0.486029 1.129709 0.000000000000000e+00 1851878480
-0.970087 -0.918114 0.210006 0.000000000000000e+00 1701537140
-0.949455 -0.904802 0.293063 0.000000000000000e+00 1701537140
-0.949454 -0.912432 0.378354 0.000000000000000e+00 1701537140
-0.963504 -0.934224 0.464089 0.000000000000000e+00 1701537140
-0.953517 -0.931653 0.547565 0.000000000000000e+00 1701537140
-0.963229 -0.948974 0.632056 0.000000000000000e+00 1851878480
-0.930762 -0.923866 0.716246 0.000000000000000e+00 1851878480
-0.858141 -0.858790 0.804878 0.000000000000000e+00 1851878480
-0.734880 -0.743714 0.903653 0.000000000000000e+00 1851878480
-0.620506 -0.638136 1.008728 0.000000000000000e+00 1851878480
-0.452307 -0.479899 1.130038 0.000000000000000e+00 1851878480
-0.971318 -0.903827 0.209584 0.000000000000000e+00 1701537140
-0.961438 -0.901431 0.294329 0.000000000000000e+00 1701537140
-0.891265 -0.837443 0.372231 0.000000000000000e+00 1701537140
-0.969824 -0.925182 0.464677 0.000000000000000e+00 1701537140
-0.906177 -0.868120 0.546224 0.000000000000000e+00 1851878480
-0.964791 -0.935154 0.632717 0.000000000000000e+00 1851878480
-0.926900 -0.904412 0.717279 0.000000000000000e+00 1851878480
-0.856538 -0.841219 0.806185 0.000000000000000e+00 1851878480
-0.740173 -0.732360 0.904686 0.000000000000000e+00 1851878480
-0.629227 -0.629547 1.009496 0.000000000000000e+00 1851878480
-0.464259 -0.473541 1.130409 0.000000000000000e+00 1851878480
-0.874461 -0.788147 0.192368 0.000000000000000e+00 1851878480
-0.969333 -0.893901 0.295034 0.000000000000000e+00 1701537140
-0.967745 -0.899918 0.380015 0.000000000000000e+00 1701537140
-0.971504 -0.911371 0.464938 0.000000000000000e+00 1701537140
-0.921498 -0.867879 0.547196 0.000000000000000e+00 1851878480
-0.960206 -0.915003 0.633360 0.000000000000000e+00 1851878480
-0.923816 -0.885605 0.718297 0.000000000000000e+00 1851878480
-0.855070 -0.823668 0.807492 0.000000000000000e+00 1851878480
-0.744220 -0.719712 0.905844 0.000000000000000e+00 1851878480
-0.637838 -0.620849 1.010281 0.000000000000000e+00 1851878480
-0.476112 -0.467116 1.130796 0.000000000000000e+00 1851878480
-0.889118 -0.787038 0.194206 0.000000000000000e+00 1851878480
-0.971565 -0.880504 0.294958 0.000000000000000e+00 1701537140
-0.971412 -0.888028 0.380275 0.000000000000000e+00 1701537140
-0.954691 -0.878438 0.463905 0.000000000000000e+00 1701537140
-0.936730 -0.867636 0.548160 0.000000000000000e+00 1851878480
-0.955074 -0.894141 0.634007 0.000000000000000e+00 1851878480
-0.921560 -0.867510 0.719297 0.000000000000000e+00 1851878480
-0.854118 -0.806526 0.808777 0.000000000000000e+00 1851878480
-0.747839 -0.706576 0.907050 0.000000000000000e+00 1851878480
-0.646450 -0.612149 1.011068 0.000000000000000e+00 1851878480
-0.487572 -0.460329 1.131246 0.000000000000000e+00 1851878480
-0.902829 -0.785022 0.195880 0.000000000000000e+00 1851878480
-0.897944 -0.787980 0.284463 0.000000000000000e+00 1851878480
-0.959618 -0.860018 0.378933 0.000000000000000e+00 1701537140
-0.912918 -0.819336 0.461131 0.000000000000000e+00 1851878480
-0.950662 -0.866139 0.549073 0.000000000000000e+00 1851878480
-0.950203 -0.873386 0.634661 0.000000000000000e+00 1851878480
-0.919481 -0.849471 0.720300 0.000000000000000e+00 1851878480
-0.853268 -0.789376 0.810064 0.000000000000000e+00 1851878480
-0.751135 -0.693051 0.908295 0.000000000000000e+00 1851878480
-0.654921 -0.603306 1.011876 0.000000000000000e+00 1851878480
-0.498901 -0.453434 1.131718 0.000000000000000e+00 1851878480
-0.910232 -0.776441 0.196468 0.000000000000000e+00 1851878480
-0.912674 -0.787071 0.286082 0.000000000000000e+00 1851878480
-0.912657 -0.794996 0.373946 0.000000000000000e+00 1851878480
-0.928093 -0.818978 0.462332 0.000000000000000e+00 1851878480
-0.960105 -0.860053 0.549821 0.000000000000000e+00 1851878480
-0.946656 -0.853847 0.635325 0.000000000000000e+00 1851878480
-0.917830 -0.831751 0.721297 0.000000000000000e+00 1851878480
-0.852497 -0.772197 0.811356 0.000000000000000e+00 1851878480
-0.754125 -0.679150 0.909576 0.000000000000000e+00 1851878480
-0.667844 -0.599019 1.012105 0.000000000000000e+00 1851878480
-0.509857 -0.446185 1.132251 0.000000000000000e+00 1851878480
-0.910913 -0.760740 0.195894 0.000000000000000e+00 1851878480
-0.926506 -0.785298 0.287575 0.000000000000000e+00 1851878480
-0.927282 -0.794056 0.375327 0.000000000000000e+00 1851878480
-0.942257 -0.817647 0.463458 0.000000000000000e+00 1851878480
-0.954461 -0.838210 0.550023 0.000000000000000e+00 1851878480
-0.943290 -0.834352 0.635994 0.000000000000000e+00 1851878480
-0.916625 -0.814372 0.722288 0.000000000000000e+00 1851878480
-0.851773 -0.754955 0.812654 0.000000000000000e+00 1851878480
-0.756424 -0.664464 0.910934 0.000000000000000e+00 1851878480
-0.676087 -0.589960 1.012946 0.000000000000000e+00 1851878480
-0.520648 -0.438786 1.132813 0.000000000000000e+00 1851878480
-0.910132 -0.743387 0.195058 0.000000000000000e+00 1851878480
-0.933703 -0.776557 0.288152 0.000000000000000e+00 1851878480
-0.940747 -0.791970 0.376585 0.000000000000000e+00 1851878480
-0.954171 -0.814021 0.464426 0.000000000000000e+00 1851878480
-0.949702 -0.817125 0.550259 0.000000000000000e+00 1851878480
-0.940640 -0.815465 0.636669 0.000000000000000e+00 1851878480
-0.915444 -0.796902 0.723284 0.000000000000000e+00 1851878480
-0.851069 -0.737621 0.813959 0.000000000000000e+00 1851878480
-0.754116 -0.644910 0.912756 0.000000000000000e+00 1851878480
-0.683191 -0.579713 1.013942 0.000000000000000e+00 1851878480
-0.531088 -0.431045 1.133434 0.000000000000000e+00 1851878480
-0.905292 -0.721571 0.193512 0.000000000000000e+00 1851878480
-0.934829 -0.761320 0.287888 0.000000000000000e+00 1851878480
-0.946255 -0.781482 0.377016 0.000000000000000e+00 1851878480
-0.953944 -0.797556 0.464545 0.000000000000000e+00 1851878480
-0.945510 -0.796478 0.550519 0.000000000000000e+00 1851878480
-0.937995 -0.796447 0.637350 0.000000000000000e+00 1851878480
-0.914683 -0.779757 0.724274 0.000000000000000e+00 1851878480
-0.850247 -0.720049 0.815283 0.000000000000000e+00 1851878480
-0.754319 -0.627846 0.914342 0.000000000000000e+00 1851878480
-0.688236 -0.567297 1.015215 0.000000000000000e+00 1851878480
-0.541408 -0.423191 1.134077 0.000000000000000e+00 1851878480
-0.904992 -0.704478 0.192738 0.000000000000000e+00 1851878480
-0.924784 -0.733994 0.286074 0.000000000000000e+00 1851878480
-0.947751 -0.766665 0.377027 0.000000000000000e+00 1851878480
-0.952507 -0.779694 0.464579 0.000000000000000e+00 1851878480
-0.941510 -0.775878 0.550787 0.000000000000000e+00 1851878480
-0.935538 -0.777492 0.638036 0.000000000000000e+00 1851878480
-0.913988 -0.762568 0.725268 0.000000000000000e+00 1851878480
-0.849387 -0.702321 0.816618 0.000000000000000e+00 1851878480
-0.755134 -0.611319 0.915879 0.000000000000000e+00 1851878480
-0.692741 -0.554266 1.016569 0.000000000000000e+00 1851878480
-0.551560 -0.415176 1.134749 0.000000000000000e+00 1851878480
-0.905155 -0.687774 0.192036 0.000000000000000e+00 1851878480
-0.916071 -0.707872 0.284435 0.000000000000000e+00 1851878480
-0.936162 -0.737662 0.375677 0.000000000000000e+00 1851878480
-0.944956 -0.755139 0.464187 0.000000000000000e+00 1851878480
-0.937708 -0.755334 0.551065 0.000000000000000e+00 1851878480
-0.933294 -0.758628 0.638727 0.000000000000000e+00 1851878480
-0.913609 -0.745602 0.726259 0.000000000000000e+00 1851878480
-0.848482 -0.684426 0.817966 0.000000000000000e+00 1851878480
-0.755919 -0.594660 0.917430 0.000000000000000e+00 1851878480
-0.696839 -0.540751 1.017986 0.000000000000000e+00 1851878480
-0.561595 -0.407047 1.135444 0.000000000000000e+00 1851878480
-0.905532 -0.671194 0.191361 0.000000000000000e+00 1851878480
-0.913541 -0.688247 0.283642 0.000000000000000e+00 1851878480
-0.928778 -0.712959 0.374758 0.000000000000000e+00 1851878480
-0.938254 -0.731296 0.463854 0.000000000000000e+00 1851878480
-0.934312 -0.735071 0.551360 0.000000000000000e+00 1851878480
-0.931259 -0.739853 0.639423 0.000000000000000e+00 1851878480
-0.913441 -0.728749 0.727250 0.000000000000000e+00 1851878480
-0.847511 -0.666340 0.819328 0.000000000000000e+00 1851878480
-0.756694 -0.577887 0.918993 0.000000000000000e+00 1851878480
-0.700495 -0.526703 1.019472 0.000000000000000e+00 1851878480
-0.571575 -0.398868 1.136151 0.000000000000000e+00 1851878480
-0.905932 -0.654534 0.190680 0.000000000000000e+00 1851878480
-0.911136 -0.668616 0.282858 0.000000000000000e+00 1851878480
-0.925826 -0.692884 0.374294 0.000000000000000e+00 1851878480
-0.934770 -0.710758 0.463742 0.000000000000000e+00 1851878480
-0.931795 -0.715610 0.551687 0.000000000000000e+00 1851878480
-0.929756 -0.721519 0.640124 0.000000000000000e+00 1851878480
-0.913451 -0.711977 0.728241 0.000000000000000e+00 1851878480
-0.846521 -0.648111 0.820702 0.000000000000000e+00 1851878480
-0.757414 -0.560953 0.920573 0.000000000000000e+00 1851878480
-0.703202 -0.511574 1.021097 0.000000000000000e+00 1851878480
-0.581515 -0.390655 1.136867 0.000000000000000e+00 1851878480
-0.906389 -0.637830 0.190000 0.000000000000000e+00 1851878480
-0.908734 -0.648845 0.282067 0.000000000000000e+00 1851878480
-0.922860 -0.672643 0.373824 0.000000000000000e+00 1851878480
-0.931731 -0.690550 0.463660 0.000000000000000e+00 1851878480
-0.929747 -0.696518 0.552033 0.000000000000000e+00 1851878480
-0.928855 -0.703711 0.640830 0.000000000000000e+00 1851878480
-0.913589 -0.695236 0.729234 0.000000000000000e+00 1851878480
-0.845560 -0.629789 0.822084 0.000000000000000e+00 1851878480
-0.752832 -0.538195 0.922708 0.000000000000000e+00 1851878480
-0.708381 -0.499018 1.022397 0.000000000000000e+00 1851878480
-0.598063 -0.389531 1.136460 0.000000000000000e+00 1851878480
-0.906873 -0.621048 0.189315 0.000000000000000e+00 1851878480
-0.906327 -0.628923 0.281267 0.000000000000000e+00 1851878480
-0.919818 -0.652168 0.373341 0.000000000000000e+00 1851878480
-0.928299 -0.669758 0.463550 0.000000000000000e+00 1851878480
-0.927690 -0.677277 0.552381 0.000000000000000e+00 1851878480
-0.928090 -0.685929 0.641541 0.000000000000000e+00 1851878480
-0.913810 -0.678477 0.730231 0.000000000000000e+00 1851878480
-0.844618 -0.611362 0.823476 0.000000000000000e+00 1851878480
-0.752062 -0.519397 0.924468 0.000000000000000e+00 1851878480
-0.703021 -0.475016 1.025149 0.000000000000000e+00 1851878480
-0.608252 -0.381641 1.137133 0.000000000000000e+00 1851878480
-0.907389 -0.604192 0.188625 0.000000000000000e+00 1851878480
-0.904302 -0.609278 0.280512 0.000000000000000e+00 1851878480
-0.916953 -0.631733 0.372872 0.000000000000000e+00 1851878480
-0.924758 -0.648687 0.463431 0.000000000000000e+00 1851878480
-0.925633 -0.657896 0.552730 0.000000000000000e+00 1851878480
-0.927498 -0.668215 0.642256 0.000000000000000e+00 1851878480
-0.914152 -0.661741 0.731230 0.000000000000000e+00 1851878480
-0.843681 -0.592812 0.824877 0.000000000000000e+00 1851878480
-0.751320 -0.500500 0.926239 0.000000000000000e+00 1851878480
-0.701847 -0.455376 1.027349 0.000000000000000e+00 1851878480
-0.613588 -0.368496 1.138645 0.000000000000000e+00 1851878480
-0.907931 -0.587255 0.187931 0.000000000000000e+00 1851878480
-0.902337 -0.589558 0.279757 0.000000000000000e+00 1851878480
-0.914843 -0.611989 0.372477 0.000000000000000e+00 1851878480
-0.921811 -0.628116 0.463352 0.000000000000000e+00 1851878480
-0.923639 -0.638445 0.553083 0.000000000000000e+00 1851878480
-0.927118 -0.650616 0.642975 0.000000000000000e+00 1851878480
-0.914462 -0.644860 0.732237 0.000000000000000e+00 1851878480
-0.870872 -0.605106 0.824335 0.000000000000000e+00 1768716611
-0.875626 -0.618762 0.915000 0.000000000000000e+00 1768716611
-0.700679 -0.435607 1.029565 0.000000000000000e+00 1851878480
-0.615727 -0.351809 1.140720 0.000000000000000e+00 1851878480
-0.908485 -0.570222 0.187228 0.000000000000000e+00 1851878480
-0.900225 -0.569527 0.278974 0.000000000000000e+00 1851878480
-0.913018 -0.592419 0.372107 0.000000000000000e+00 1851878480
-0.920141 -0.608819 0.463359 0.000000000000000e+00 1851878480
-0.922227 -0.619500 0.553458 0.000000000000000e+00 1851878480
-0.926787 -0.632951 0.643698 0.000000000000000e+00 1851878480
-0.914818 -0.627920 0.733248 0.000000000000000e+00 1851878480
-0.883340 -0.601336 0.824806 0.000000000000000e+00 1768716611
-0.891351 -0.618627 0.914996 0.000000000000000e+00 1768716611
-0.699465 -0.415650 1.031806 0.000000000000000e+00 1851878480
-0.617910 -0.335070 1.142804 0.000000000000000e+00 1851878480
-0.909016 -0.553050 0.186511 0.000000000000000e+00 1851878480
-0.898257 -0.549511 0.278203 0.000000000000000e+00 1851878480
-0.911349 -0.572883 0.371748 0.000000000000000e+00 1851878480
-0.918684 -0.589623 0.463380 0.000000000000000e+00 1851878480
-0.921159 -0.600807 0.553846 0.000000000000000e+00 1851878480
-0.926499 -0.615213 0.644425 0.000000000000000e+00 1851878480
-0.915146 -0.610837 0.734268 0.000000000000000e+00 1851878480
-0.892551 -0.593986 0.825503 0.000000000000000e+00 1768716611
-0.904145 -0.615330 0.915293 0.000000000000000e+00 1768716611
-0.698278 -0.395581 1.034062 0.000000000000000e+00 1851878480
-0.620246 -0.318403 1.144878 0.000000000000000e+00 1851878480
-0.909549 -0.535766 0.185785 0.000000000000000e+00 1851878480
-0.896497 -0.529584 0.277452 0.000000000000000e+00 1851878480
-0.909875 -0.553425 0.371404 0.000000000000000e+00 1851878480
-0.917455 -0.570546 0.463415 0.000000000000000e+00 1851878480
-0.920249 -0.582158 0.554241 0.000000000000000e+00 1851878480
