# .PCD v0.7 - Point Cloud Data file format
VERSION 0.7
FIELDS x y z rgb label
SIZE 4 4 4 4 4
TYPE F F F F U
COUNT 1 1 1 1 1
WIDTH 783
HEIGHT 1
VIEWPOINT 0 0 0 1 0 0 0
POINTS 783
DATA ascii
-0.959479 0.376933 0.766953 0.000000000000000e+00 1851878480
-0.857801 0.388068 0.834036 0.000000000000000e+00 1851878480
-0.746272 0.400287 0.907520 0.000000000000000e+00 1851878480
-0.610441 0.415681 0.988985 0.000000000000000e+00 1851878480
-0.646657 0.406153 1.052471 0.000000000000000e+00 1851878480
-0.773189 0.383958 1.099979 0.000000000000000e+00 1851878480
-0.874328 0.437378 0.148331 0.000000000000000e+00 1851878480
-0.980814 0.415748 0.229386 0.000000000000000e+00 1851878480
-0.883081 0.427836 0.276773 0.000000000000000e+00 1851878480
-0.851959 0.428894 0.335654 0.000000000000000e+00 1851878480
-0.890118 0.418764 0.402015 0.000000000000000e+00 1851878480
-0.919166 0.410216 0.465659 0.000000000000000e+00 1851878480
-0.975931 0.397377 0.529398 0.000000000000000e+00 1851878480
-0.973669 0.393951 0.588622 0.000000000000000e+00 1851878480
-1.041784 0.379655 0.647697 0.000000000000000e+00 1851878480
-0.827764 0.408685 0.711332 0.000000000000000e+00 1851878480
-0.948557 0.386396 0.768038 0.000000000000000e+00 1851878480
-0.857129 0.396282 0.834679 0.000000000000000e+00 1851878480
-0.752191 0.407857 0.907596 0.000000000000000e+00 1851878480
-0.606028 0.425186 0.990228 0.000000000000000e+00 1851878480
-0.650211 0.414373 1.052691 0.000000000000000e+00 1851878480
-0.770515 0.392684 1.101160 0.000000000000000e+00 1851878480
-0.876284 0.445201 0.148972 0.000000000000000e+00 1851878480
-0.996124 0.420990 0.232181 0.000000000000000e+00 1851878480
-0.895809 0.433828 0.278879 0.000000000000000e+00 1851878480
-0.922706 0.425417 0.344186 0.000000000000000e+00 1851878480
-0.879548 0.428568 0.401436 0.000000000000000e+00 1851878480
-0.918966 0.418226 0.466059 0.000000000000000e+00 1851878480
-0.986682 0.403446 0.530307 0.000000000000000e+00 1851878480
-0.974819 0.401563 0.589107 0.000000000000000e+00 1851878480
-1.025021 0.389873 0.648216 0.000000000000000e+00 1851878480
-0.863633 0.411318 0.710936 0.000000000000000e+00 1851878480
-0.974072 0.390303 0.767318 0.000000000000000e+00 1851878480
-0.875603 0.401579 0.833922 0.000000000000000e+00 1851878480
-0.742380 0.417781 0.909199 0.000000000000000e+00 1851878480
-0.625758 0.431105 0.988564 0.000000000000000e+00 1851878480
-0.649966 0.423144 1.053464 0.000000000000000e+00 1851878480
-0.767149 0.401537 1.102464 0.000000000000000e+00 1851878480
-0.876853 0.453259 0.149349 0.000000000000000e+00 1851878480
-0.969896 0.433259 0.228181 0.000000000000000e+00 1851878480
-0.893953 0.442224 0.278949 0.000000000000000e+00 1851878480
-0.919916 0.433876 0.344219 0.000000000000000e+00 1851878480
-0.876036 0.437269 0.401504 0.000000000000000e+00 1851878480
-0.919299 0.426157 0.466495 0.000000000000000e+00 1851878480
-0.964586 0.414830 0.529762 0.000000000000000e+00 1851878480
-0.942701 0.414568 0.588905 0.000000000000000e+00 1851878480
-1.024066 0.397662 0.648697 0.000000000000000e+00 1851878480
-0.857602 0.420404 0.711635 0.000000000000000e+00 1851878480
-0.971662 0.398461 0.767983 0.000000000000000e+00 1851878480
-0.861257 0.411892 0.835572 0.000000000000000e+00 1851878480
-0.751505 0.424847 0.908968 0.000000000000000e+00 1851878480
-0.595257 0.444599 0.992969 0.000000000000000e+00 1851878480
-0.656041 0.430967 1.053327 0.000000000000000e+00 1851878480
-0.778307 0.408238 1.101322 0.000000000000000e+00 1851878480
-0.894871 0.458254 0.152995 0.000000000000000e+00 1851878480
-0.974054 0.440400 0.229147 0.000000000000000e+00 1851878480
-0.894339 0.450251 0.279329 0.000000000000000e+00 1851878480
-0.911097 0.443392 0.343556 0.000000000000000e+00 1851878480
-0.864244 0.447405 0.400816 0.000000000000000e+00 1851878480
-0.920396 0.433965 0.466981 0.000000000000000e+00 1851878480
-0.943351 0.426215 0.529263 0.000000000000000e+00 1851878480
-0.973016 0.417465 0.589992 0.000000000000000e+00 1851878480
-1.054765 0.400283 0.649085 0.000000000000000e+00 1851878480
-0.843650 0.430819 0.712550 0.000000000000000e+00 1851878480
-0.978837 0.405102 0.768171 0.000000000000000e+00 1851878480
-0.868731 0.418828 0.835623 0.000000000000000e+00 1851878480
-0.749374 0.433639 0.909834 0.000000000000000e+00 1851878480
-0.595959 0.453418 0.993612 0.000000000000000e+00 1851878480
-0.631361 0.443515 1.057651 0.000000000000000e+00 1851878480
-0.766971 0.418323 1.103984 0.000000000000000e+00 1851878480
-0.882960 0.468501 0.151022 0.000000000000000e+00 1851878480
-0.962575 0.450298 0.227557 0.000000000000000e+00 1851878480
-0.881364 0.460635 0.277849 0.000000000000000e+00 1851878480
-0.942882 0.445891 0.347564 0.000000000000000e+00 1851878480
-0.873735 0.453943 0.402071 0.000000000000000e+00 1851878480
-0.905810 0.444461 0.466407 0.000000000000000e+00 1851878480
-0.965844 0.430314 0.530685 0.000000000000000e+00 1851878480
-0.963740 0.426845 0.590266 0.000000000000000e+00 1851878480
-1.041880 0.409991 0.649602 0.000000000000000e+00 1851878480
-0.857552 0.436725 0.712723 0.000000000000000e+00 1851878480
-0.954693 0.416835 0.769936 0.000000000000000e+00 1851878480
-0.862034 0.428026 0.836721 0.000000000000000e+00 1851878480
-0.748716 0.442214 0.910560 0.000000000000000e+00 1851878480
-0.603531 0.461146 0.993425 0.000000000000000e+00 1851878480
-0.630495 0.452468 1.058534 0.000000000000000e+00 1851878480
-0.762473 0.427417 1.105500 0.000000000000000e+00 1851878480
-0.871876 0.478681 0.149203 0.000000000000000e+00 1851878480
-0.984589 0.454228 0.231429 0.000000000000000e+00 1851878480
-0.895203 0.466307 0.280093 0.000000000000000e+00 1851878480
-0.919487 0.457994 0.345222 0.000000000000000e+00 1851878480
-0.947407 0.449138 0.409169 0.000000000000000e+00 1851878480
-0.913846 0.451110 0.467362 0.000000000000000e+00 1851878480
-0.973586 0.436832 0.531457 0.000000000000000e+00 1851878480
-0.975922 0.432613 0.590974 0.000000000000000e+00 1851878480
-1.032567 0.419179 0.650112 0.000000000000000e+00 1851878480
-0.853468 0.445582 0.713380 0.000000000000000e+00 1851878480
-0.966756 0.422683 0.769882 0.000000000000000e+00 1851878480
-0.855795 0.437197 0.837790 0.000000000000000e+00 1851878480
-0.751517 0.450236 0.910952 0.000000000000000e+00 1851878480
-0.608764 0.469216 0.993524 0.000000000000000e+00 1851878480
-0.621733 0.462705 1.060572 0.000000000000000e+00 1851878480
-0.772977 0.434158 1.104478 0.000000000000000e+00 1851878480
-0.879688 0.485438 0.150922 0.000000000000000e+00 1851878480
-0.974398 0.463945 0.230044 0.000000000000000e+00 1851878480
-0.901900 0.473203 0.281340 0.000000000000000e+00 1851878480
-0.907879 0.468123 0.344238 0.000000000000000e+00 1851878480
-0.940836 0.458252 0.408946 0.000000000000000e+00 1851878480
-0.895038 0.462483 0.466508 0.000000000000000e+00 1851878480
-0.959150 0.447214 0.531262 0.000000000000000e+00 1851878480
-0.964675 0.442401 0.591213 0.000000000000000e+00 1851878480
-1.053283 0.423239 0.650519 0.000000000000000e+00 1851878480
-0.836942 0.456605 0.714380 0.000000000000000e+00 1851878480
-0.974688 0.429166 0.770034 0.000000000000000e+00 1851878480
-0.850356 0.446280 0.838807 0.000000000000000e+00 1851878480
-0.753422 0.458399 0.911433 0.000000000000000e+00 1851878480
-0.613410 0.477361 0.993695 0.000000000000000e+00 1851878480
-0.632217 0.469851 1.059813 0.000000000000000e+00 1851878480
-0.770387 0.442968 1.105680 0.000000000000000e+00 1851878480
-0.858341 0.497648 0.147177 0.000000000000000e+00 1851878480
-0.985558 0.469745 0.232135 0.000000000000000e+00 1851878480
-0.889193 0.483660 0.279895 0.000000000000000e+00 1851878480
-0.926249 0.472824 0.346690 0.000000000000000e+00 1851878480
-0.948258 0.464866 0.409994 0.000000000000000e+00 1851878480
-0.890863 0.471338 0.466641 0.000000000000000e+00 1851878480
-0.958360 0.455249 0.531663 0.000000000000000e+00 1851878480
-0.980626 0.447437 0.591992 0.000000000000000e+00 1851878480
-1.038293 0.433465 0.651055 0.000000000000000e+00 1851878480
-0.843055 0.463788 0.714765 0.000000000000000e+00 1851878480
-0.966663 0.438370 0.770999 0.000000000000000e+00 1851878480
-0.850941 0.454371 0.839378 0.000000000000000e+00 1851878480
-0.744480 0.468403 0.912986 0.000000000000000e+00 1851878480
-0.597761 0.488904 0.996349 0.000000000000000e+00 1851878480
-0.627321 0.479508 1.061301 0.000000000000000e+00 1851878480
-0.787698 0.448511 1.103502 0.000000000000000e+00 1851878480
-0.886807 0.500462 0.152752 0.000000000000000e+00 1851878480
-0.984684 0.477770 0.232263 0.000000000000000e+00 1851878480
-0.902057 0.489389 0.281990 0.000000000000000e+00 1851878480
-0.927731 0.480576 0.347202 0.000000000000000e+00 1851878480
-0.945656 0.473301 0.410130 0.000000000000000e+00 1851878480
-0.901410 0.477523 0.467761 0.000000000000000e+00 1851878480
-0.961274 0.462623 0.532223 0.000000000000000e+00 1851878480
-0.948380 0.461092 0.591825 0.000000000000000e+00 1851878480
-1.021503 0.444115 0.651604 0.000000000000000e+00 1851878480
-0.841011 0.472390 0.715376 0.000000000000000e+00 1851878480
-0.968980 0.445810 0.771440 0.000000000000000e+00 1851878480
-0.850086 0.462719 0.840061 0.000000000000000e+00 1851878480
-0.754617 0.475168 0.912663 0.000000000000000e+00 1851878480
-0.583489 0.500317 0.998847 0.000000000000000e+00 1851878480
-0.623280 0.489060 1.062670 0.000000000000000e+00 1851878480
-0.785534 0.457237 1.104641 0.000000000000000e+00 1851878480
-0.881751 0.509630 0.152049 0.000000000000000e+00 1851878480
-0.989576 0.484695 0.233326 0.000000000000000e+00 1851878480
-0.890814 0.499663 0.280744 0.000000000000000e+00 1851878480
-0.919437 0.490184 0.346594 0.000000000000000e+00 1851878480
-0.948451 0.480742 0.410754 0.000000000000000e+00 1851878480
-0.906695 0.484634 0.468524 0.000000000000000e+00 1851878480
-0.956936 0.471331 0.532471 0.000000000000000e+00 1851878480
-0.967138 0.465581 0.592657 0.000000000000000e+00 1851878480
-1.023077 0.451529 0.652085 0.000000000000000e+00 1851878480
-0.850253 0.478974 0.715674 0.000000000000000e+00 1851878480
-0.947657 0.457482 0.773100 0.000000000000000e+00 1851878480
-0.873613 0.466748 0.838916 0.000000000000000e+00 1851878480
-0.746205 0.485147 0.914174 0.000000000000000e+00 1851878480
-0.600667 0.506335 0.997498 0.000000000000000e+00 1851878480
-0.643053 0.494524 1.060556 0.000000000000000e+00 1851878480
-0.753705 0.471074 1.110854 0.000000000000000e+00 1851878480
-0.893572 0.515502 0.154498 0.000000000000000e+00 1851878480
-0.988210 0.492827 0.233367 0.000000000000000e+00 1851878480
-0.898674 0.506298 0.282140 0.000000000000000e+00 1851878480
-0.914275 0.499248 0.346344 0.000000000000000e+00 1851878480
-0.938853 0.490549 0.410257 0.000000000000000e+00 1851878480
-0.994650 0.476014 0.474793 0.000000000000000e+00 1851878480
-0.960380 0.478609 0.533053 0.000000000000000e+00 1851878480
-0.965588 0.473757 0.593093 0.000000000000000e+00 1851878480
-1.025070 0.458865 0.652564 0.000000000000000e+00 1851878480
-0.838857 0.489304 0.716551 0.000000000000000e+00 1851878480
-0.974040 0.460595 0.772304 0.000000000000000e+00 1851878480
-0.849933 0.479176 0.841318 0.000000000000000e+00 1851878480
-0.728467 0.496860 0.916619 0.000000000000000e+00 1851878480
-0.592760 0.516715 0.999229 0.000000000000000e+00 1851878480
-0.635316 0.504722 1.062477 0.000000000000000e+00 1851878480
-0.768888 0.476906 1.109046 0.000000000000000e+00 1851878480
-0.879602 0.526491 0.152123 0.000000000000000e+00 1851878480
-0.966620 0.505008 0.230120 0.000000000000000e+00 1851878480
-0.889916 0.516180 0.281236 0.000000000000000e+00 1851878480
-0.921622 0.505899 0.347521 0.000000000000000e+00 1851878480
-0.942851 0.497779 0.410987 0.000000000000000e+00 1851878480
-0.997622 0.483265 0.475385 0.000000000000000e+00 1851878480
-0.942749 0.489911 0.532736 0.000000000000000e+00 1851878480
-0.963785 0.482001 0.593526 0.000000000000000e+00 1851878480
-1.029848 0.465672 0.653030 0.000000000000000e+00 1851878480
-0.863011 0.493067 0.716427 0.000000000000000e+00 1851878480
-0.959381 0.471164 0.773630 0.000000000000000e+00 1851878480
-0.857638 0.485987 0.841364 0.000000000000000e+00 1851878480
-0.763481 0.499071 0.913830 0.000000000000000e+00 1851878480
-0.597233 0.524915 0.999443 0.000000000000000e+00 1851878480
-0.639411 0.512855 1.062667 0.000000000000000e+00 1851878480
-0.763521 0.486306 1.110757 0.000000000000000e+00 1851878480
-0.894112 0.531767 0.155064 0.000000000000000e+00 1851878480
-0.977133 0.510834 0.232087 0.000000000000000e+00 1851878480
-0.894855 0.523374 0.282221 0.000000000000000e+00 1851878480
-0.916558 0.514988 0.347280 0.000000000000000e+00 1851878480
-0.957682 0.502850 0.412691 0.000000000000000e+00 1851878480
-0.975364 0.495459 0.474303 0.000000000000000e+00 1851878480
-0.941799 0.498085 0.533133 0.000000000000000e+00 1851878480
-0.956498 0.491324 0.593856 0.000000000000000e+00 1851878480
-1.016112 0.476006 0.653584 0.000000000000000e+00 1851878480
-0.866146 0.500684 0.716894 0.000000000000000e+00 1851878480
-0.982125 0.474781 0.773015 0.000000000000000e+00 1851878480
-0.852631 0.495138 0.842372 0.000000000000000e+00 1851878480
-0.735101 0.512833 0.917347 0.000000000000000e+00 1851878480
-0.595810 0.534182 1.000387 0.000000000000000e+00 1851878480
-0.627905 0.523819 1.065159 0.000000000000000e+00 1851878480
-0.755638 0.496203 1.112910 0.000000000000000e+00 1851878480
-0.877735 0.543360 0.152235 0.000000000000000e+00 1851878480
-0.954486 0.523421 0.228668 0.000000000000000e+00 1851878480
-0.891637 0.532212 0.282079 0.000000000000000e+00 1851878480
-0.916116 0.523181 0.347564 0.000000000000000e+00 1851878480
-0.950155 0.512330 0.412378 0.000000000000000e+00 1851878480
-0.987577 0.500928 0.475508 0.000000000000000e+00 1851878480
-0.927989 0.508818 0.532987 0.000000000000000e+00 1851878480
-0.961814 0.498227 0.594425 0.000000000000000e+00 1851878480
-1.038603 0.479378 0.653964 0.000000000000000e+00 1851878480
-0.872239 0.507720 0.717277 0.000000000000000e+00 1851878480
-0.964581 0.485987 0.774501 0.000000000000000e+00 1851878480
-0.869832 0.500105 0.841697 0.000000000000000e+00 1851878480
-0.735010 0.521446 0.918055 0.000000000000000e+00 1851878480
-0.592787 0.543767 1.001535 0.000000000000000e+00 1851878480
-0.637160 0.531013 1.064596 0.000000000000000e+00 1851878480
-0.772119 0.501677 1.110881 0.000000000000000e+00 1851878480
-0.893405 0.548325 0.155383 0.000000000000000e+00 1851878480
-0.972208 0.527732 0.231797 0.000000000000000e+00 1851878480
-0.890817 0.540582 0.282265 0.000000000000000e+00 1851878480
-0.925258 0.529417 0.348936 0.000000000000000e+00 1851878480
-0.953786 0.519589 0.413068 0.000000000000000e+00 1851878480
-0.979696 0.510398 0.475382 0.000000000000000e+00 1851878480
-1.030895 0.496191 0.537758 0.000000000000000e+00 1851878480
-0.965567 0.505418 0.594963 0.000000000000000e+00 1851878480
-1.025910 0.489582 0.654519 0.000000000000000e+00 1851878480
-0.850044 0.520281 0.718479 0.000000000000000e+00 1851878480
-0.977106 0.491454 0.774416 0.000000000000000e+00 1851878480
-0.851508 0.511841 0.843726 0.000000000000000e+00 1851878480
-0.741588 0.528790 0.918099 0.000000000000000e+00 1851878480
-0.588334 0.553652 1.002866 0.000000000000000e+00 1851878480
-0.633081 0.540674 1.066007 0.000000000000000e+00 1851878480
-0.773591 0.509866 1.111435 0.000000000000000e+00 1851878480
-0.888250 0.557648 0.154641 0.000000000000000e+00 1851878480
-0.994161 0.531046 0.235604 0.000000000000000e+00 1851878480
-0.890627 0.548835 0.282535 0.000000000000000e+00 1851878480
-0.917363 0.539162 0.348369 0.000000000000000e+00 1851878480
-0.929220 0.532678 0.411229 0.000000000000000e+00 1851878480
-0.977866 0.518684 0.475656 0.000000000000000e+00 1851878480
-1.017785 0.506608 0.537630 0.000000000000000e+00 1851878480
-0.945306 0.517460 0.595062 0.000000000000000e+00 1851878480
-1.026377 0.497229 0.655009 0.000000000000000e+00 1851878480
-0.873397 0.523905 0.718362 0.000000000000000e+00 1851878480
-0.962182 0.502286 0.775778 0.000000000000000e+00 1851878480
-0.848156 0.520760 0.844622 0.000000000000000e+00 1851878480
-0.726164 0.540390 0.920353 0.000000000000000e+00 1851878480
-0.609059 0.558711 1.001075 0.000000000000000e+00 1851878480
-0.622064 0.551702 1.068454 0.000000000000000e+00 1851878480
-0.763165 0.520318 1.114048 0.000000000000000e+00 1851878480
-0.870112 0.569827 0.151477 0.000000000000000e+00 1851878480
-0.968125 0.544551 0.231633 0.000000000000000e+00 1851878480
-0.892101 0.556745 0.283032 0.000000000000000e+00 1851878480
-0.914047 0.547996 0.348322 0.000000000000000e+00 1851878480
-0.948234 0.536764 0.413296 0.000000000000000e+00 1851878480
-0.981814 0.525785 0.476310 0.000000000000000e+00 1851878480
-1.031012 0.511658 0.538606 0.000000000000000e+00 1851878480
-0.941209 0.526313 0.595461 0.000000000000000e+00 1851878480
-1.044448 0.501288 0.655402 0.000000000000000e+00 1851878480
-0.875603 0.531678 0.718859 0.000000000000000e+00 1851878480
-0.962539 0.510147 0.776339 0.000000000000000e+00 1851878480
-0.848959 0.528882 0.845203 0.000000000000000e+00 1851878480
-0.721990 0.549870 0.921486 0.000000000000000e+00 1851878480
-0.589692 0.571524 1.004272 0.000000000000000e+00 1851878480
-0.628688 0.559371 1.068292 0.000000000000000e+00 1851878480
-0.763495 0.528766 1.114812 0.000000000000000e+00 1851878480
-0.877872 0.576438 0.153137 0.000000000000000e+00 1851878480
-0.971237 0.551871 0.232381 0.000000000000000e+00 1851878480
-0.879017 0.567809 0.281525 0.000000000000000e+00 1851878480
-0.925093 0.553773 0.349901 0.000000000000000e+00 1851878480
-0.950879 0.544236 0.413893 0.000000000000000e+00 1851878480
-0.984159 0.533210 0.476857 0.000000000000000e+00 1851878480
-1.027668 0.520121 0.538889 0.000000000000000e+00 1851878480
-0.939420 0.534721 0.595904 0.000000000000000e+00 1851878480
-1.026999 0.512607 0.655994 0.000000000000000e+00 1851878480
-0.855195 0.544099 0.720027 0.000000000000000e+00 1851878480
-0.976660 0.515207 0.776167 0.000000000000000e+00 1851878480
-0.847634 0.537440 0.845951 0.000000000000000e+00 1851878480
-0.733473 0.556239 0.921044 0.000000000000000e+00 1851878480
-0.577022 0.583133 1.006648 0.000000000000000e+00 1851878480
-0.627272 0.568601 1.069328 0.000000000000000e+00 1851878480
-0.768278 0.536348 1.114811 0.000000000000000e+00 1851878480
-0.884317 0.583303 0.154547 0.000000000000000e+00 1851878480
-0.982684 0.557335 0.234474 0.000000000000000e+00 1851878480
-0.888531 0.574000 0.283122 0.000000000000000e+00 1851878480
-0.932620 0.560258 0.351078 0.000000000000000e+00 1851878480
-0.940584 0.554504 0.413334 0.000000000000000e+00 1851878480
-0.991351 0.539588 0.477719 0.000000000000000e+00 1851878480
-1.027909 0.527849 0.539322 0.000000000000000e+00 1851878480
-0.945039 0.541578 0.596479 0.000000000000000e+00 1851878480
-1.020347 0.521772 0.656530 0.000000000000000e+00 1851878480
-0.852937 0.552867 0.720664 0.000000000000000e+00 1851878480
-0.975405 0.523374 0.776815 0.000000000000000e+00 1851878480
-0.857961 0.543618 0.845803 0.000000000000000e+00 1851878480
-0.718137 0.568021 0.923315 0.000000000000000e+00 1851878480
-0.600335 0.587540 1.004533 0.000000000000000e+00 1851878480
-0.619003 0.579229 1.071393 0.000000000000000e+00 1851878480
-0.759923 0.546530 1.117092 0.000000000000000e+00 1851878480
-0.871548 0.594485 0.152375 0.000000000000000e+00 1851878480
-0.980055 0.565899 0.234286 0.000000000000000e+00 1851878480
-0.883231 0.583444 0.282682 0.000000000000000e+00 1851878480
-0.914585 0.572365 0.349360 0.000000000000000e+00 1851878480
-0.953973 0.559642 0.414886 0.000000000000000e+00 1851878480
-0.979138 0.550166 0.477313 0.000000000000000e+00 1851878480
-1.020811 0.537176 0.539452 0.000000000000000e+00 1851878480
-1.038423 0.529532 0.598589 0.000000000000000e+00 1851878480
-1.027584 0.528024 0.656983 0.000000000000000e+00 1851878480
-0.858109 0.560085 0.721080 0.000000000000000e+00 1851878480
-0.971336 0.532152 0.777617 0.000000000000000e+00 1851878480
-0.846491 0.554296 0.847342 0.000000000000000e+00 1851878480
-0.715805 0.577216 0.924278 0.000000000000000e+00 1851878480
-0.595774 0.597549 1.005906 0.000000000000000e+00 1851878480
-0.630951 0.585792 1.070446 0.000000000000000e+00 1851878480
-0.757532 0.555568 1.118347 0.000000000000000e+00 1851878480
-0.874708 0.602105 0.153166 0.000000000000000e+00 1851878480
-0.971895 0.575749 0.233202 0.000000000000000e+00 1851878480
-0.888945 0.590442 0.283750 0.000000000000000e+00 1851878480
-0.906011 0.582472 0.348714 0.000000000000000e+00 1851878480
-0.951102 0.568331 0.414987 0.000000000000000e+00 1851878480
-0.997383 0.554087 0.478892 0.000000000000000e+00 1851878480
-1.019751 0.545231 0.539832 0.000000000000000e+00 1851878480
-1.020119 0.541285 0.598730 0.000000000000000e+00 1851878480
-1.022724 0.536860 0.657512 0.000000000000000e+00 1851878480
-0.881173 0.563431 0.720955 0.000000000000000e+00 1851878480
-0.970674 0.540238 0.778239 0.000000000000000e+00 1851878480
-0.837374 0.564556 0.848706 0.000000000000000e+00 1851878480
-0.713521 0.586425 0.925241 0.000000000000000e+00 1851878480
-0.588532 0.608157 1.007622 0.000000000000000e+00 1851878480
-0.621264 0.596776 1.072737 0.000000000000000e+00 1851878480
-0.768278 0.561928 1.117322 0.000000000000000e+00 1851878480
-0.876978 0.609923 0.153786 0.000000000000000e+00 1851878480
-0.982662 0.581291 0.235173 0.000000000000000e+00 1851878480
-0.889730 0.598545 0.284139 0.000000000000000e+00 1851878480
-0.913750 0.588930 0.349908 0.000000000000000e+00 1851878480
-0.950244 0.576594 0.415267 0.000000000000000e+00 1851878480
-0.977395 0.566490 0.477984 0.000000000000000e+00 1851878480
-1.002619 0.556886 0.539555 0.000000000000000e+00 1851878480
-1.022450 0.548594 0.599232 0.000000000000000e+00 1851878480
-1.018811 0.545530 0.658038 0.000000000000000e+00 1851878480
-0.849911 0.578503 0.722477 0.000000000000000e+00 1851878480
-0.973813 0.547514 0.778658 0.000000000000000e+00 1851878480
-0.844603 0.571368 0.848804 0.000000000000000e+00 1851878480
-0.731922 0.591242 0.924099 0.000000000000000e+00 1851878480
-0.588810 0.617228 1.008401 0.000000000000000e+00 1851878480
-0.630173 0.603919 1.072250 0.000000000000000e+00 1851878480
-0.747688 0.574776 1.121763 0.000000000000000e+00 1851878480
-0.880721 0.617391 0.154677 0.000000000000000e+00 1851878480
-0.975666 0.590934 0.234272 0.000000000000000e+00 1851878480
-0.876167 0.609990 0.282562 0.000000000000000e+00 1851878480
-0.918937 0.595939 0.350811 0.000000000000000e+00 1851878480
-0.951309 0.584432 0.415716 0.000000000000000e+00 1851878480
-0.977326 0.574493 0.478370 0.000000000000000e+00 1851878480
-1.023443 0.560076 0.540830 0.000000000000000e+00 1851878480
-1.010775 0.559045 0.599497 0.000000000000000e+00 1851878480
-1.024617 0.552067 0.658501 0.000000000000000e+00 1851878480
-0.863945 0.583751 0.722625 0.000000000000000e+00 1851878480
-0.977458 0.554670 0.779051 0.000000000000000e+00 1851878480
-0.818709 0.585377 0.851493 0.000000000000000e+00 1851878480
-0.713688 0.603895 0.926699 0.000000000000000e+00 1851878480
-0.575478 0.629237 1.010902 0.000000000000000e+00 1851878480
-0.612393 0.616718 1.075775 0.000000000000000e+00 1851878480
-0.762480 0.580264 1.120039 0.000000000000000e+00 1851878480
-0.858967 0.630937 0.150825 0.000000000000000e+00 1851878480
-0.979393 0.598088 0.235098 0.000000000000000e+00 1851878480
-0.887968 0.615555 0.284454 0.000000000000000e+00 1851878480
-0.925974 0.602493 0.351919 0.000000000000000e+00 1851878480
-0.939425 0.595285 0.415017 0.000000000000000e+00 1851878480
-0.976357 0.582716 0.478698 0.000000000000000e+00 1851878480
-1.023149 0.567988 0.541241 0.000000000000000e+00 1851878480
-1.019554 0.564921 0.600109 0.000000000000000e+00 1851878480
-1.061161 0.551625 0.658747 0.000000000000000e+00 1851878480
-0.848142 0.595624 0.723691 0.000000000000000e+00 1851878480
-0.962565 0.565948 0.780457 0.000000000000000e+00 1851878480
-0.834251 0.590383 0.850945 0.000000000000000e+00 1851878480
-0.708904 0.613716 0.927933 0.000000000000000e+00 1851878480
-0.583389 0.636705 1.010728 0.000000000000000e+00 1851878480
-0.597507 0.629012 1.078880 0.000000000000000e+00 1851878480
-0.774333 0.586302 1.118826 0.000000000000000e+00 1851878480
-0.863757 0.638209 0.151903 0.000000000000000e+00 1851878480
-0.970558 0.608250 0.233897 0.000000000000000e+00 1851878480
-0.890538 0.623262 0.285080 0.000000000000000e+00 1851878480
-0.909556 0.614579 0.350386 0.000000000000000e+00 1851878480
-0.943307 0.602509 0.415714 0.000000000000000e+00 1851878480
-0.990737 0.587363 0.480014 0.000000000000000e+00 1851878480
-1.022169 0.576072 0.541625 0.000000000000000e+00 1851878480
-1.021545 0.572321 0.600607 0.000000000000000e+00 1851878480
-1.074816 0.556213 0.659145 0.000000000000000e+00 1851878480
-0.869637 0.599112 0.723604 0.000000000000000e+00 1851878480
-0.977027 0.570691 0.780261 0.000000000000000e+00 1851878480
-0.837244 0.598121 0.851381 0.000000000000000e+00 1851878480
-0.726498 0.618589 0.926872 0.000000000000000e+00 1851878480
-0.600678 0.642059 1.009365 0.000000000000000e+00 1851878480
-0.617002 0.633854 1.076810 0.000000000000000e+00 1851878480
-0.745713 0.601111 1.124710 0.000000000000000e+00 1851878480
-0.892896 0.639489 0.157498 0.000000000000000e+00 1851878480
-0.959815 0.618945 0.232386 0.000000000000000e+00 1851878480
-0.890844 0.631511 0.285393 0.000000000000000e+00 1851878480
-0.912486 0.622129 0.351028 0.000000000000000e+00 1851878480
-0.952926 0.608349 0.416915 0.000000000000000e+00 1851878480
-0.981413 0.597554 0.479802 0.000000000000000e+00 1851878480
-1.028390 0.582475 0.542299 0.000000000000000e+00 1851878480
-1.016726 0.581313 0.600992 0.000000000000000e+00 1851878480
-1.081066 0.562446 0.659593 0.000000000000000e+00 1851878480
-0.879292 0.605210 0.723880 0.000000000000000e+00 1851878480
-0.955985 0.583496 0.782019 0.000000000000000e+00 1851878480
-0.855252 0.602431 0.850632 0.000000000000000e+00 1851878480
-0.719129 0.629008 0.928380 0.000000000000000e+00 1851878480
-0.587225 0.654220 1.011905 0.000000000000000e+00 1851878480
-0.622808 0.641638 1.076805 0.000000000000000e+00 1851878480
-0.748093 0.609248 1.125172 0.000000000000000e+00 1851878480
-0.891503 0.648182 0.157418 0.000000000000000e+00 1851878480
-0.976988 0.622829 0.235369 0.000000000000000e+00 1851878480
-0.873854 0.644013 0.283344 0.000000000000000e+00 1851878480
-0.908465 0.631365 0.350888 0.000000000000000e+00 1851878480
-0.950159 0.617138 0.417020 0.000000000000000e+00 1851878480
-0.990828 0.603309 0.480794 0.000000000000000e+00 1851878480
-1.028038 0.590421 0.542708 0.000000000000000e+00 1851878480
-1.041368 0.583356 0.601858 0.000000000000000e+00 1851878480
-1.038128 0.580244 0.660414 0.000000000000000e+00 1851878480
-0.858817 0.618313 0.725107 0.000000000000000e+00 1851878480
-0.957436 0.591216 0.782544 0.000000000000000e+00 1851878480
-0.832491 0.616055 0.853109 0.000000000000000e+00 1851878480
-0.717116 0.638259 0.929342 0.000000000000000e+00 1851878480
-0.563379 0.668847 1.015781 0.000000000000000e+00 1851878480
-0.613808 0.652747 1.079045 0.000000000000000e+00 1851878480
-0.752716 0.616878 1.125243 0.000000000000000e+00 1851878480
-0.885508 0.658054 0.156480 0.000000000000000e+00 1851878480
-0.978563 0.630516 0.235836 0.000000000000000e+00 1851878480
-0.891122 0.648124 0.285967 0.000000000000000e+00 1851878480
-0.929687 0.634408 0.353577 0.000000000000000e+00 1851878480
-0.941257 0.627460 0.416586 0.000000000000000e+00 1851878480
-0.987054 0.612230 0.480939 0.000000000000000e+00 1851878480
-1.032616 0.597186 0.543313 0.000000000000000e+00 1851878480
-1.017995 0.596799 0.601946 0.000000000000000e+00 1851878480
-1.066051 0.581398 0.660700 0.000000000000000e+00 1851878480
-0.872530 0.623444 0.725257 0.000000000000000e+00 1851878480
-0.957088 0.599362 0.783170 0.000000000000000e+00 1851878480
-0.823298 0.626658 0.854522 0.000000000000000e+00 1851878480
-0.712403 0.648161 0.930589 0.000000000000000e+00 1851878480
-0.589791 0.672031 1.013259 0.000000000000000e+00 1851878480
-0.610438 0.662633 1.080442 0.000000000000000e+00 1851878480
-0.770076 0.621591 1.123071 0.000000000000000e+00 1851878480
-0.888428 0.665705 0.157193 0.000000000000000e+00 1851878480
-0.981629 0.637826 0.236540 0.000000000000000e+00 1851878480
-0.892980 0.656015 0.286484 0.000000000000000e+00 1851878480
-0.919818 0.645101 0.352777 0.000000000000000e+00 1851878480
-0.955952 0.631990 0.418226 0.000000000000000e+00 1851878480
-0.982338 0.621418 0.481024 0.000000000000000e+00 1851878480
-1.036603 0.604079 0.543893 0.000000000000000e+00 1851878480
-1.028121 0.602240 0.602573 0.000000000000000e+00 1851878480
-1.082131 0.585253 0.661071 0.000000000000000e+00 1851878480
-0.853287 0.636426 0.726458 0.000000000000000e+00 1851878480
-0.973220 0.603585 0.782879 0.000000000000000e+00 1851878480
-0.845160 0.629963 0.853465 0.000000000000000e+00 1851878480
-0.711614 0.657181 0.931435 0.000000000000000e+00 1851878480
-0.576536 0.684347 1.015803 0.000000000000000e+00 1851878480
-0.618509 0.669894 1.080105 0.000000000000000e+00 1851878480
-0.755456 0.633589 1.126544 0.000000000000000e+00 1851878480
-0.876021 0.677305 0.155060 0.000000000000000e+00 1851878480
-0.981095 0.646053 0.236661 0.000000000000000e+00 1851878480
-0.898178 0.663054 0.287454 0.000000000000000e+00 1851878480
-0.932976 0.650039 0.354554 0.000000000000000e+00 1851878480
-0.932898 0.645935 0.416549 0.000000000000000e+00 1851878480
-0.985165 0.628763 0.481590 0.000000000000000e+00 1851878480
-1.017184 0.616773 0.543547 0.000000000000000e+00 1851878480
-1.022921 0.611411 0.602958 0.000000000000000e+00 1851878480
-1.063357 0.597565 0.661724 0.000000000000000e+00 1851878480
-0.858808 0.643508 0.726871 0.000000000000000e+00 1851878480
-0.983098 0.609230 0.782932 0.000000000000000e+00 1851878480
-0.822905 0.643749 0.855931 0.000000000000000e+00 1851878480
-0.709122 0.666626 0.932463 0.000000000000000e+00 1851878480
-0.570124 0.695136 1.017482 0.000000000000000e+00 1851878480
-0.587705 0.686278 1.085696 0.000000000000000e+00 1851878480
-0.729593 0.648323 1.132022 0.000000000000000e+00 1851878480
-0.878951 0.684991 0.155767 0.000000000000000e+00 1851878480
-0.974474 0.655875 0.235801 0.000000000000000e+00 1851878480
-0.893152 0.672712 0.287028 0.000000000000000e+00 1851878480
-0.932190 0.658480 0.354768 0.000000000000000e+00 1851878480
-0.954313 0.648709 0.418772 0.000000000000000e+00 1851878480
-1.002485 0.632432 0.483076 0.000000000000000e+00 1851878480
-1.017051 0.624749 0.543967 0.000000000000000e+00 1851878480
-1.002083 0.624538 0.603104 0.000000000000000e+00 1851878480
-1.088114 0.599193 0.662018 0.000000000000000e+00 1851878480
-0.863500 0.650772 0.727311 0.000000000000000e+00 1851878480
-0.980968 0.617770 0.783661 0.000000000000000e+00 1851878480
-0.836007 0.649075 0.855574 0.000000000000000e+00 1851878480
-0.694080 0.679137 0.934808 0.000000000000000e+00 1851878480
-0.573693 0.703579 1.017887 0.000000000000000e+00 1851878480
-0.612409 0.689614 1.082832 0.000000000000000e+00 1851878480
-0.744840 0.653482 1.130234 0.000000000000000e+00 1851878480
-0.875309 0.694408 0.155252 0.000000000000000e+00 1851878480
-0.987773 0.660516 0.238139 0.000000000000000e+00 1851878480
-0.879954 0.684550 0.285491 0.000000000000000e+00 1851878480
-0.921144 0.669603 0.353834 0.000000000000000e+00 1851878480
-0.960089 0.655393 0.419621 0.000000000000000e+00 1851878480
-0.992424 0.643023 0.482820 0.000000000000000e+00 1851878480
-1.029040 0.629650 0.544861 0.000000000000000e+00 1851878480
-1.013858 0.629551 0.603756 0.000000000000000e+00 1851878480
-1.085368 0.607594 0.662541 0.000000000000000e+00 1851878480
-0.884780 0.653871 0.727208 0.000000000000000e+00 1851878480
-0.952927 0.632772 0.785860 0.000000000000000e+00 1851878480
-0.794114 0.667904 0.859642 0.000000000000000e+00 1851878480
-0.703104 0.685855 0.934645 0.000000000000000e+00 1851878480
-0.565748 0.714819 1.019778 0.000000000000000e+00 1851878480
-0.613000 0.698641 1.083649 0.000000000000000e+00 1851878480
-0.737533 0.663978 1.132448 0.000000000000000e+00 1851878480
-0.869306 0.704495 0.154297 0.000000000000000e+00 1851878480
-0.964638 0.674780 0.234622 0.000000000000000e+00 1851878480
-0.882000 0.692454 0.286024 0.000000000000000e+00 1851878480
-0.919988 0.678210 0.354005 0.000000000000000e+00 1851878480
-0.941946 0.668302 0.418378 0.000000000000000e+00 1851878480
-0.971271 0.656570 0.481867 0.000000000000000e+00 1851878480
-1.043426 0.633867 0.545846 0.000000000000000e+00 1851878480
-1.026530 0.634270 0.604417 0.000000000000000e+00 1851878480
-1.062223 0.621224 0.663247 0.000000000000000e+00 1851878480
-0.854469 0.669911 0.728796 0.000000000000000e+00 1851878480
-0.979903 0.634121 0.784947 0.000000000000000e+00 1851878480
-0.816509 0.670940 0.858541 0.000000000000000e+00 1851878480
-0.698173 0.695995 0.935946 0.000000000000000e+00 1851878480
-0.587944 0.718684 1.017787 0.000000000000000e+00 1851878480
-0.614686 0.707410 1.084304 0.000000000000000e+00 1851878480
-0.732816 0.673903 1.134213 0.000000000000000e+00 1851878480
-0.893985 0.706319 0.159021 0.000000000000000e+00 1851878480
-0.967397 0.682231 0.235261 0.000000000000000e+00 1851878480
-0.878692 0.701792 0.285828 0.000000000000000e+00 1851878480
-0.936353 0.682176 0.356125 0.000000000000000e+00 1851878480
-0.956243 0.672760 0.419967 0.000000000000000e+00 1851878480
-0.979543 0.662533 0.482774 0.000000000000000e+00 1851878480
-1.009464 0.650635 0.544947 0.000000000000000e+00 1851878480
-1.004232 0.648000 0.604555 0.000000000000000e+00 1851878480
-1.087806 0.622440 0.663522 0.000000000000000e+00 1851878480
-0.875642 0.672956 0.728693 0.000000000000000e+00 1851878480
-0.979468 0.642296 0.785589 0.000000000000000e+00 1851878480
-0.844960 0.672312 0.856941 0.000000000000000e+00 1851878480
-0.783450 0.683485 0.927755 0.000000000000000e+00 1851878480
-0.590891 0.727234 1.018279 0.000000000000000e+00 1851878480
-0.604660 0.719091 1.086764 0.000000000000000e+00 1851878480
-0.728017 0.683892 1.136001 0.000000000000000e+00 1851878480
-0.875101 0.719944 0.155672 0.000000000000000e+00 1851878480
-0.967327 0.690449 0.235442 0.000000000000000e+00 1851878480
-0.865355 0.713881 0.284269 0.000000000000000e+00 1851878480
-0.937570 0.690127 0.356554 0.000000000000000e+00 1851878480
-0.950570 0.682485 0.419814 0.000000000000000e+00 1851878480
-0.989191 0.668088 0.483765 0.000000000000000e+00 1851878480
-1.024612 0.654645 0.545960 0.000000000000000e+00 1851878480
-1.024928 0.650585 0.605333 0.000000000000000e+00 1851878480
-1.097171 0.627741 0.663938 0.000000000000000e+00 1851878480
-0.861414 0.685069 0.729765 0.000000000000000e+00 1851878480
-0.965350 0.654016 0.787018 0.000000000000000e+00 1851878480
-0.826378 0.685576 0.859154 0.000000000000000e+00 1851878480
-0.753000 0.699929 0.931739 0.000000000000000e+00 1851878480
-0.558185 0.744805 1.023400 0.000000000000000e+00 1851878480
-0.592039 0.731502 1.089636 0.000000000000000e+00 1851878480
-0.734746 0.691043 1.135740 0.000000000000000e+00 1851878480
-0.875355 0.728394 0.155864 0.000000000000000e+00 1851878480
-0.994228 0.691240 0.239945 0.000000000000000e+00 1851878480
-0.892028 0.715100 0.288134 0.000000000000000e+00 1851878480
-0.920661 0.703026 0.354967 0.000000000000000e+00 1851878480
-0.969363 0.685632 0.421786 0.000000000000000e+00 1851878480
-0.977839 0.679249 0.483435 0.000000000000000e+00 1851878480
-1.010788 0.666327 0.545852 0.000000000000000e+00 1851878480
-1.010484 0.662399 0.605594 0.000000000000000e+00 1851878480
-1.070060 0.642640 0.664698 0.000000000000000e+00 1851878480
-0.853220 0.695701 0.730642 0.000000000000000e+00 1851878480
-0.947913 0.666706 0.788648 0.000000000000000e+00 1851878480
-0.825479 0.694381 0.859938 0.000000000000000e+00 1851878480
-0.765167 0.705587 0.931233 0.000000000000000e+00 1851878480
-0.603513 0.742594 1.018398 0.000000000000000e+00 1851878480
-0.596667 0.739615 1.089860 0.000000000000000e+00 1851878480
-0.713534 0.705237 1.140482 0.000000000000000e+00 1851878480
-0.894943 0.731428 0.159630 0.000000000000000e+00 1851878480
-0.970881 0.705894 0.236388 0.000000000000000e+00 1851878480
-0.898146 0.721863 0.289207 0.000000000000000e+00 1851878480
-0.929331 0.708992 0.356222 0.000000000000000e+00 1851878480
-0.957852 0.696978 0.421123 0.000000000000000e+00 1851878480
-0.968244 0.690018 0.483218 0.000000000000000e+00 1851878480
-1.022727 0.671130 0.546736 0.000000000000000e+00 1851878480
-1.041982 0.661947 0.606519 0.000000000000000e+00 1851878480
-1.085603 0.646309 0.665057 0.000000000000000e+00 1851878480
-0.866511 0.700683 0.730798 0.000000000000000e+00 1851878480
-0.966145 0.670089 0.788226 0.000000000000000e+00 1851878480
-0.832278 0.701182 0.860095 0.000000000000000e+00 1851878480
-0.751542 0.717918 0.933462 0.000000000000000e+00 1851878480
-0.582743 0.757265 1.021990 0.000000000000000e+00 1851878480
-0.603361 0.747179 1.089767 0.000000000000000e+00 1851878480
-0.707167 0.715775 1.142583 0.000000000000000e+00 1851878480
-0.892581 0.740583 0.159329 0.000000000000000e+00 1851878480
-0.976434 0.712553 0.237461 0.000000000000000e+00 1851878480
-0.895151 0.731158 0.289043 0.000000000000000e+00 1851878480
-0.917085 0.720753 0.355152 0.000000000000000e+00 1851878480
-0.955229 0.705947 0.421232 0.000000000000000e+00 1851878480
-0.981127 0.694663 0.484407 0.000000000000000e+00 1851878480
-1.047945 0.672230 0.548123 0.000000000000000e+00 1851878480
-1.025621 0.674347 0.606757 0.000000000000000e+00 1851878480
-1.073649 0.657339 0.665682 0.000000000000000e+00 1851878480
-0.868514 0.708632 0.731335 0.000000000000000e+00 1851878480
-0.946188 0.683589 0.790016 0.000000000000000e+00 1851878480
-0.841124 0.707408 0.860084 0.000000000000000e+00 1851878480
-0.761579 0.724093 0.933184 0.000000000000000e+00 1851878480
-0.608561 0.759841 1.019512 0.000000000000000e+00 1851878480
-0.621391 0.751754 1.087918 0.000000000000000e+00 1851878480
-0.701339 0.726228 1.144597 0.000000000000000e+00 1851878480
-0.883816 0.751608 0.157841 0.000000000000000e+00 1851878480
-0.977390 0.720503 0.237794 0.000000000000000e+00 1851878480
-0.895758 0.739463 0.289364 0.000000000000000e+00 1851878480
-0.926149 0.726591 0.356446 0.000000000000000e+00 1851878480
-0.942458 0.717795 0.420463 0.000000000000000e+00 1851878480
-0.984222 0.701970 0.484981 0.000000000000000e+00 1851878480
-1.018040 0.688469 0.547408 0.000000000000000e+00 1851878480
-1.039547 0.678514 0.607424 0.000000000000000e+00 1851878480
-1.072791 0.665417 0.666203 0.000000000000000e+00 1851878480
-0.859124 0.719688 0.732263 0.000000000000000e+00 1851878480
-0.955435 0.689320 0.790115 0.000000000000000e+00 1851878480
-0.801621 0.726611 0.864056 0.000000000000000e+00 1851878480
-0.776775 0.728837 0.932355 0.000000000000000e+00 1851878480
-0.592513 0.773403 1.022508 0.000000000000000e+00 1851878480
-0.619016 0.761623 1.089233 0.000000000000000e+00 1851878480
-0.685816 0.739280 1.148368 0.000000000000000e+00 1851878480
-0.890394 0.758246 0.159186 0.000000000000000e+00 1851878480
-0.974067 0.729697 0.237439 0.000000000000000e+00 1851878480
-0.884810 0.751098 0.288120 0.000000000000000e+00 1851878480
-0.925201 0.735243 0.356627 0.000000000000000e+00 1851878480
-0.941040 0.726516 0.420676 0.000000000000000e+00 1851878480
-0.983581 0.710324 0.485323 0.000000000000000e+00 1851878480
-1.011367 0.698396 0.547581 0.000000000000000e+00 1851878480
-1.009429 0.694893 0.607482 0.000000000000000e+00 1851878480
-1.080327 0.671186 0.666638 0.000000000000000e+00 1851878480
-0.865350 0.726512 0.732659 0.000000000000000e+00 1851878480
-0.965969 0.694653 0.790137 0.000000000000000e+00 1851878480
-0.821864 0.729801 0.863114 0.000000000000000e+00 1851878480
-0.772766 0.738700 0.933576 0.000000000000000e+00 1851878480
-0.594983 0.782098 1.023087 0.000000000000000e+00 1851878480
-0.611619 0.772866 1.091337 0.000000000000000e+00 1851878480
-0.694516 0.746005 1.147786 0.000000000000000e+00 1851878480
-0.874370 0.771496 0.156349 0.000000000000000e+00 1851878480
-0.972329 0.738464 0.237335 0.000000000000000e+00 1851878480
-0.892332 0.757453 0.289371 0.000000000000000e+00 1851878480
-0.916345 0.746200 0.355932 0.000000000000000e+00 1851878480
-0.954286 0.731050 0.422154 0.000000000000000e+00 1851878480
-0.978020 0.720101 0.485359 0.000000000000000e+00 1851878480
-1.032880 0.700378 0.548818 0.000000000000000e+00 1851878480
-1.025129 0.698548 0.608172 0.000000000000000e+00 1851878480
-1.080543 0.678972 0.667148 0.000000000000000e+00 1851878480
-0.862223 0.735919 0.733379 0.000000000000000e+00 1851878480
-0.938849 0.710374 0.792372 0.000000000000000e+00 1851878480
-0.822227 0.738357 0.863813 0.000000000000000e+00 1851878480
-0.783844 0.744467 0.933185 0.000000000000000e+00 1851878480
-0.605141 0.788697 1.022658 0.000000000000000e+00 1851878480
-0.597528 0.785984 1.094497 0.000000000000000e+00 1851878480
-0.881372 0.778026 0.157765 0.000000000000000e+00 1851878480
-0.963339 0.749398 0.236069 0.000000000000000e+00 1851878480
-0.891573 0.766207 0.289501 0.000000000000000e+00 1851878480
-0.932300 0.749981 0.357978 0.000000000000000e+00 1851878480
-0.959584 0.737820 0.422942 0.000000000000000e+00 1851878480
-0.985439 0.726180 0.486198 0.000000000000000e+00 1851878480
-1.017502 0.712827 0.548666 0.000000000000000e+00 1851878480
-1.031778 0.704699 0.608737 0.000000000000000e+00 1851878480
-1.079676 0.687078 0.667672 0.000000000000000e+00 1851878480
-0.840654 0.750565 0.734749 0.000000000000000e+00 1851878480
-0.951052 0.715251 0.792300 0.000000000000000e+00 1851878480
-0.820862 0.747406 0.864659 0.000000000000000e+00 1851878480
-0.765063 0.758459 0.936005 0.000000000000000e+00 1851878480
-0.611322 0.796343 1.022753 0.000000000000000e+00 1851878480
-0.626123 0.787512 1.090998 0.000000000000000e+00 1851878480
-0.889315 0.784242 0.159350 0.000000000000000e+00 1851878480
-0.964172 0.757472 0.236370 0.000000000000000e+00 1851878480
-0.875493 0.779531 0.287560 0.000000000000000e+00 1851878480
-0.933842 0.757931 0.358428 0.000000000000000e+00 1851878480
-0.959985 0.746007 0.423307 0.000000000000000e+00 1851878480
-1.000800 0.729905 0.487525 0.000000000000000e+00 1851878480
-1.042374 0.713701 0.550020 0.000000000000000e+00 1851878480
-1.027537 0.713965 0.609156 0.000000000000000e+00 1851878480
-1.069237 0.697951 0.668302 0.000000000000000e+00 1851878480
-0.865708 0.752057 0.734488 0.000000000000000e+00 1851878480
-0.956198 0.722065 0.792642 0.000000000000000e+00 1851878480
-0.815360 0.757647 0.865855 0.000000000000000e+00 1851878480
-0.766382 0.766947 0.936671 0.000000000000000e+00 1851878480
-0.580012 0.814421 1.027807 0.000000000000000e+00 1851878480
-0.611584 0.800830 1.094245 0.000000000000000e+00 1851878480
-0.906739 0.787541 0.162682 0.000000000000000e+00 1851878480
-0.977854 0.761675 0.238722 0.000000000000000e+00 1851878480
-0.888148 0.784347 0.289495 0.000000000000000e+00 1851878480
-0.920200 0.770419 0.357202 0.000000000000000e+00 1851878480
-0.949517 0.757435 0.422737 0.000000000000000e+00 1851878480
-0.990974 0.740983 0.487297 0.000000000000000e+00 1851878480
-1.007493 0.731975 0.549147 0.000000000000000e+00 1851878480
-1.000603 0.729899 0.609283 0.000000000000000e+00 1851878480
-1.065143 0.707064 0.668867 0.000000000000000e+00 1851878480
-0.837251 0.768850 0.736115 0.000000000000000e+00 1851878480
-0.965149 0.727768 0.792759 0.000000000000000e+00 1851878480
-0.824639 0.763719 0.865819 0.000000000000000e+00 1851878480
-0.755476 0.778911 0.938664 0.000000000000000e+00 1851878480
-0.616785 0.813508 1.023862 0.000000000000000e+00 1851878480
-0.619188 0.808046 1.094030 0.000000000000000e+00 1851878480
-0.894546 0.799834 0.160539 0.000000000000000e+00 1851878480
-0.975027 0.770843 0.238431 0.000000000000000e+00 1851878480
-0.881658 0.794907 0.288845 0.000000000000000e+00 1851878480
-0.932487 0.775183 0.358833 0.000000000000000e+00 1851878480
-0.936967 0.769571 0.421991 0.000000000000000e+00 1851878480
-0.995884 0.747739 0.487976 0.000000000000000e+00 1851878480
-1.021400 0.736004 0.550090 0.000000000000000e+00 1851878480
-1.036510 0.727468 0.610225 0.000000000000000e+00 1851878480
-1.076375 0.711717 0.669261 0.000000000000000e+00 1851878480
-0.851255 0.773446 0.736242 0.000000000000000e+00 1851878480
-0.970631 0.734435 0.793081 0.000000000000000e+00 1851878480
-0.824144 0.772567 0.866604 0.000000000000000e+00 1851878480
-0.781330 0.780410 0.936679 0.000000000000000e+00 1851878480
-0.579922 0.833389 1.029683 0.000000000000000e+00 1851878480
-0.612027 0.819419 1.096140 0.000000000000000e+00 1851878480
-0.887396 0.810657 0.159324 0.000000000000000e+00 1851878480
-0.952749 0.786046 0.235033 0.000000000000000e+00 1851878480
-0.885659 0.802305 0.289606 0.000000000000000e+00 1851878480
-0.917029 0.788350 0.357407 0.000000000000000e+00 1851878480
-0.948440 0.774513 0.423303 0.000000000000000e+00 1851878480
-0.972975 0.762875 0.486950 0.000000000000000e+00 1851878480
-1.026419 0.742624 0.550701 0.000000000000000e+00 1851878480
-1.014466 0.742117 0.610424 0.000000000000000e+00 1851878480
-1.084422 0.717256 0.669688 0.000000000000000e+00 1851878480
-0.860622 0.779335 0.736532 0.000000000000000e+00 1851878480
-0.971138 0.742541 0.793702 0.000000000000000e+00 1851878480
-0.814040 0.784240 0.868202 0.000000000000000e+00 1851878480
-0.767303 0.793333 0.939022 0.000000000000000e+00 1851878480
-0.586638 0.840946 1.029729 0.000000000000000e+00 1851878480
-0.613675 0.828326 1.096872 0.000000000000000e+00 1851878480
-0.885245 0.819976 0.159028 0.000000000000000e+00 1851878480
-0.982522 0.785178 0.239941 0.000000000000000e+00 1851878480
-0.909923 0.803408 0.293092 0.000000000000000e+00 1851878480
-0.928582 0.793301 0.358952 0.000000000000000e+00 1851878480
-0.951646 0.781931 0.423904 0.000000000000000e+00 1851878480
-0.973838 0.770923 0.487383 0.000000000000000e+00 1851878480
-1.041270 0.746243 0.551670 0.000000000000000e+00 1851878480
-1.019652 0.748707 0.610970 0.000000000000000e+00 1851878480
-1.085959 0.724711 0.670191 0.000000000000000e+00 1851878480
-0.841642 0.793641 0.737845 0.000000000000000e+00 1851878480
-0.950177 0.757032 0.795622 0.000000000000000e+00 1851878480
-0.805218 0.795616 0.869702 0.000000000000000e+00 1851878480
-0.782721 0.797720 0.938165 0.000000000000000e+00 1851878480
-0.574472 0.853988 1.032296 0.000000000000000e+00 1851878480
-0.623867 0.834759 1.096259 0.000000000000000e+00 1851878480
-0.885448 0.828579 0.159164 0.000000000000000e+00 1851878480
-0.969914 0.797487 0.238082 0.000000000000000e+00 1851878480
-0.882144 0.820681 0.289570 0.000000000000000e+00 1851878480
-0.905855 0.808881 0.356726 0.000000000000000e+00 1851878480
-0.928743 0.797440 0.422276 0.000000000000000e+00 1851878480
-0.984696 0.775897 0.488423 0.000000000000000e+00 1851878480
-1.029621 0.757908 0.551669 0.000000000000000e+00 1851878480
-1.022401 0.756021 0.611485 0.000000000000000e+00 1851878480
-1.080469 0.734302 0.670778 0.000000000000000e+00 1851878480
-0.837301 0.803668 0.738636 0.000000000000000e+00 1851878480
-0.964190 0.761176 0.795435 0.000000000000000e+00 1851878480
-0.823828 0.798876 0.868881 0.000000000000000e+00 1851878480
-0.771115 0.810044 0.940261 0.000000000000000e+00 1851878480
-0.604825 0.854576 1.029187 0.000000000000000e+00 1851878480
-0.622281 0.844599 1.097510 0.000000000000000e+00 1851878480
-0.871706 0.841663 0.156722 0.000000000000000e+00 1851878480
-0.968600 0.806298 0.238022 0.000000000000000e+00 1851878480
-0.881579 0.829533 0.289710 0.000000000000000e+00 1851878480
-0.905268 0.817649 0.356934 0.000000000000000e+00 1851878480
-0.950295 0.799183 0.424440 0.000000000000000e+00 1851878480
-0.971554 0.788297 0.488001 0.000000000000000e+00 1851878480
-1.044891 0.761317 0.552649 0.000000000000000e+00 1851878480
-1.021626 0.764419 0.611958 0.000000000000000e+00 1851878480
-1.069129 0.745739 0.671441 0.000000000000000e+00 1851878480
-0.855561 0.806844 0.738603 0.000000000000000e+00 1851878480
-0.950619 0.773615 0.796924 0.000000000000000e+00 1851878480
-0.827885 0.806422 0.869294 0.000000000000000e+00 1851878480
-0.761304 0.821920 0.942171 0.000000000000000e+00 1851878480
-0.594367 0.867163 1.031539 0.000000000000000e+00 1851878480
-0.606873 0.858569 1.100963 0.000000000000000e+00 1851878480
-0.866290 0.852160 0.155813 0.000000000000000e+00 1851878480
-0.975669 0.812435 0.239295 0.000000000000000e+00 1851878480
