# .PCD v0.7 - Point Cloud Data file format
VERSION 0.7
FIELDS x y z rgb label
SIZE 4 4 4 4 4
TYPE F F F F U
COUNT 1 1 1 1 1
WIDTH 624
HEIGHT 1
VIEWPOINT 0 0 0 1 0 0 0
POINTS 624
DATA ascii
-0.489049 -2.115418 0.229333 0.000000000000000e+00 1851878480
-0.560382 -2.069707 0.234189 0.000000000000000e+00 1851878480
-0.517517 -2.090904 0.457561 0.000000000000000e+00 1851878480
-0.605324 -2.030190 0.237882 0.000000000000000e+00 1851878480
-0.546039 -2.054777 0.459729 0.000000000000000e+00 1851878480
-0.666886 -1.987456 0.242266 0.000000000000000e+00 1851878480
-0.591461 -2.015251 0.462208 0.000000000000000e+00 1851878480
-0.719592 -1.947006 0.246249 0.000000000000000e+00 1851878480
-0.593765 -1.985149 0.463858 0.000000000000000e+00 1851878480
-0.769120 -1.907582 0.250074 0.000000000000000e+00 1851878480
-0.607879 -1.952644 0.465727 0.000000000000000e+00 1851878480
-0.816227 -1.868999 0.253777 0.000000000000000e+00 1851878480
-0.620630 -1.920543 0.467567 0.000000000000000e+00 1851878480
-0.849777 -1.833463 0.256890 0.000000000000000e+00 1851878480
-0.610283 -1.893216 0.468978 0.000000000000000e+00 1851878480
-0.869063 -1.800986 0.259392 0.000000000000000e+00 1851878480
-0.682166 -1.849538 0.471890 0.000000000000000e+00 1851878480
-0.885418 -1.769233 0.261762 0.000000000000000e+00 1851878480
-0.705612 -1.815808 0.473904 0.000000000000000e+00 1851878480
-0.310164 -1.905323 0.697389 0.000000000000000e+00 1851878480
-0.904826 -1.737034 0.264250 0.000000000000000e+00 1851878480
-0.758048 -1.776687 0.476428 0.000000000000000e+00 1851878480
-0.469063 -1.844312 0.697968 0.000000000000000e+00 1851878480
-0.928639 -1.704161 0.266912 0.000000000000000e+00 1851878480
-0.802196 -1.739494 0.478788 0.000000000000000e+00 1851878480
-0.518165 -1.805233 0.699165 0.000000000000000e+00 1851878480
-0.934075 -1.674865 0.268807 0.000000000000000e+00 1851878480
-0.987603 -1.676336 0.483610 0.000000000000000e+00 1851878480
-0.551263 -1.769491 0.700449 0.000000000000000e+00 1851878480
-0.953676 -1.643061 0.271278 0.000000000000000e+00 1851878480
-1.021769 -1.642023 0.485742 0.000000000000000e+00 1851878480
-0.609884 -1.729287 0.701563 0.000000000000000e+00 1851878480
-0.990574 -1.608323 0.274445 0.000000000000000e+00 1851878480
-1.029382 -1.612728 0.487406 0.000000000000000e+00 1851878480
-0.670457 -1.689128 0.702647 0.000000000000000e+00 1851878480
-1.006071 -1.577598 0.276729 0.000000000000000e+00 1851878480
-1.030444 -1.584670 0.488957 0.000000000000000e+00 1851878480
-0.697275 -1.655384 0.703941 0.000000000000000e+00 1851878480
-1.027582 -1.545964 0.279247 0.000000000000000e+00 1851878480
-1.059521 -1.551784 0.490979 0.000000000000000e+00 1851878480
-0.736218 -1.619716 0.705145 0.000000000000000e+00 1851878480
-0.987245 -1.524956 0.279270 0.000000000000000e+00 1851878480
-1.062242 -1.523602 0.492552 0.000000000000000e+00 1851878480
-0.780429 -1.583416 0.706303 0.000000000000000e+00 1851878480
-0.822662 -1.524366 0.274332 0.000000000000000e+00 1851878480
-1.088946 -1.491449 0.494521 0.000000000000000e+00 1851878480
-0.799590 -1.551644 0.707629 0.000000000000000e+00 1851878480
-1.014918 -1.464618 0.283671 0.000000000000000e+00 1701537140
-1.042848 -1.471451 0.495291 0.000000000000000e+00 1851878480
-0.806834 -1.521993 0.709038 0.000000000000000e+00 1851878480
-1.057130 -1.430081 0.286986 0.000000000000000e+00 1701537140
-0.941613 -1.460082 0.495185 0.000000000000000e+00 1851878480
-0.830087 -1.489814 0.710328 0.000000000000000e+00 1851878480
-1.008200 -1.410126 0.286687 0.000000000000000e+00 1701537140
-1.078955 -1.410398 0.498932 0.000000000000000e+00 1701537140
-0.839268 -1.460049 0.711720 0.000000000000000e+00 1851878480
-0.996712 -1.384139 0.287875 0.000000000000000e+00 1701537140
-1.099685 -1.379663 0.500787 0.000000000000000e+00 1701537140
-0.842716 -1.431264 0.713157 0.000000000000000e+00 1851878480
-1.018756 -1.341565 0.079414 0.000000000000000e+00 1701537140
-0.789659 -1.387568 0.281416 0.000000000000000e+00 1701537140
-1.088927 -1.353866 0.502142 0.000000000000000e+00 1701537140
-0.856859 -1.400889 0.714510 0.000000000000000e+00 1851878480
-1.033259 -1.311760 0.082051 0.000000000000000e+00 1701537140
-0.751641 -1.364804 0.281613 0.000000000000000e+00 1701537140
-1.072226 -1.328913 0.503409 0.000000000000000e+00 1701537140
-0.850803 -1.373659 0.716025 0.000000000000000e+00 1851878480
-1.046488 -1.282250 0.084600 0.000000000000000e+00 1701537140
-1.027726 -1.296444 0.293993 0.000000000000000e+00 1701537140
-1.067584 -1.302124 0.504867 0.000000000000000e+00 1701537140
-0.866502 -1.343218 0.717365 0.000000000000000e+00 1851878480
-1.066070 -1.251956 0.087534 0.000000000000000e+00 1701537140
-1.014816 -1.270678 0.295125 0.000000000000000e+00 1701537140
-1.095413 -1.270698 0.506818 0.000000000000000e+00 1701537140
-0.880055 -1.313208 0.718720 0.000000000000000e+00 1851878480
-1.036012 -1.228611 0.087388 0.000000000000000e+00 1701537140
-1.027738 -1.241282 0.297252 0.000000000000000e+00 1701537140
-0.835037 -1.279708 0.504446 0.000000000000000e+00 1701537140
-0.888593 -1.284011 0.720116 0.000000000000000e+00 1851878480
-1.001473 -1.205704 0.086974 0.000000000000000e+00 1701537140
-1.046082 -1.211254 0.299581 0.000000000000000e+00 1701537140
-0.810396 -1.254951 0.505652 0.000000000000000e+00 1701537140
-0.888585 -1.256070 0.721588 0.000000000000000e+00 1851878480
-0.889983 -1.192683 0.081841 0.000000000000000e+00 1701537140
-1.052924 -1.182884 0.301463 0.000000000000000e+00 1701537140
-0.796432 -1.228641 0.507024 0.000000000000000e+00 1701537140
-0.880631 -1.229222 0.723133 0.000000000000000e+00 1851878480
-0.884626 -1.165430 0.083249 0.000000000000000e+00 1701537140
-1.035319 -1.157734 0.302417 0.000000000000000e+00 1701537140
-0.818102 -1.197620 0.508917 0.000000000000000e+00 1701537140
-0.874435 -1.202119 0.724667 0.000000000000000e+00 1851878480
-0.859416 -1.140644 0.083443 0.000000000000000e+00 1701537140
-1.029238 -1.131046 0.303810 0.000000000000000e+00 1701537140
-1.090098 -1.134870 0.514379 0.000000000000000e+00 1701537140
-0.889388 -1.172277 0.726010 0.000000000000000e+00 1851878480
-0.875670 -1.110679 0.086168 0.000000000000000e+00 1701537140
-1.022348 -1.104441 0.305174 0.000000000000000e+00 1701537140
-1.061843 -1.111132 0.515511 0.000000000000000e+00 1701537140
-0.879954 -1.145612 0.727581 0.000000000000000e+00 1851878480
-1.020607 -1.065562 0.096694 0.000000000000000e+00 1701537140
-0.866788 -1.095649 0.300993 0.000000000000000e+00 1701537140
-1.116002 -1.077248 0.517802 0.000000000000000e+00 1701537140
-0.882110 -1.117490 0.729047 0.000000000000000e+00 1851878480
-1.048200 -1.034919 0.100062 0.000000000000000e+00 1701537140
-0.863441 -1.068133 0.302518 0.000000000000000e+00 1701537140
-0.832292 -1.083651 0.515422 0.000000000000000e+00 1701537140
-0.860963 -1.092186 0.730742 0.000000000000000e+00 1851878480
-1.054227 -1.006890 0.102115 0.000000000000000e+00 1701537140
-0.889405 -1.037277 0.305125 0.000000000000000e+00 1701537140
-0.827687 -1.056202 0.516936 0.000000000000000e+00 1701537140
-0.867583 -1.063541 0.732171 0.000000000000000e+00 1851878480
-1.043491 -0.980754 0.103156 0.000000000000000e+00 1701537140
-0.863192 -1.012382 0.305804 0.000000000000000e+00 1701537140
-0.818407 -1.029270 0.518390 0.000000000000000e+00 1701537140
-0.872195 -1.035182 0.733621 0.000000000000000e+00 1851878480
-1.033744 -0.954465 0.104256 0.000000000000000e+00 1701537140
-0.893301 -0.981277 0.308551 0.000000000000000e+00 1701537140
-1.075684 -0.973232 0.523382 0.000000000000000e+00 1701537140
-0.865007 -1.008173 0.735194 0.000000000000000e+00 1851878480
-1.028862 -0.927632 0.105648 0.000000000000000e+00 1701537140
-0.751415 -0.968383 0.305026 0.000000000000000e+00 1701537140
-1.116493 -0.941726 0.525454 0.000000000000000e+00 1701537140
-0.854363 -0.981510 0.736808 0.000000000000000e+00 1851878480
-0.768420 -0.938488 0.307306 0.000000000000000e+00 1701537140
-1.095996 -0.916798 0.526721 0.000000000000000e+00 1701537140
-0.850064 -0.954138 0.738361 0.000000000000000e+00 1851878480
-1.042312 -0.883383 0.318837 0.000000000000000e+00 1701537140
-1.064548 -0.892858 0.527856 0.000000000000000e+00 1701537140
-0.842443 -0.927096 0.739954 0.000000000000000e+00 1851878480
-1.038553 -0.856497 0.320312 0.000000000000000e+00 1701537140
0.565596 -1.023630 0.508914 0.000000000000000e+00 1701537140
-0.853782 -0.898160 0.741346 0.000000000000000e+00 1851878480
-1.017084 -0.831241 0.321155 0.000000000000000e+00 1701537140
-1.087103 -0.836433 0.531221 0.000000000000000e+00 1851878480
-0.857359 -0.870049 0.742823 0.000000000000000e+00 1851878480
0.615883 -0.950099 0.264793 0.000000000000000e+00 1701537140
-1.071058 -0.810828 0.532566 0.000000000000000e+00 1851878480
-0.851404 -0.842856 0.744409 0.000000000000000e+00 1851878480
-1.012689 -0.777056 0.324223 0.000000000000000e+00 1851878480
-1.081272 -0.782835 0.534233 0.000000000000000e+00 1851878480
-0.828528 -0.817147 0.746193 0.000000000000000e+00 1851878480
-1.010374 -0.749975 0.325753 0.000000000000000e+00 1851878480
-1.069293 -0.756800 0.535634 0.000000000000000e+00 1851878480
-0.834781 -0.788809 0.747650 0.000000000000000e+00 1851878480
-0.329380 -0.845026 0.978618 0.000000000000000e+00 1851878480
-0.997911 -0.723711 0.326928 0.000000000000000e+00 1851878480
-1.078018 -0.729015 0.537283 0.000000000000000e+00 1851878480
-0.859535 -0.758987 0.748892 0.000000000000000e+00 1851878480
-0.491010 -0.802111 0.974520 0.000000000000000e+00 1851878480
-0.990224 -0.697013 0.328273 0.000000000000000e+00 1851878480
-1.064600 -0.703038 0.538675 0.000000000000000e+00 1851878480
-0.835486 -0.733233 0.750709 0.000000000000000e+00 1851878480
-0.566817 -0.767169 0.973392 0.000000000000000e+00 1851878480
-0.985158 -0.670088 0.329711 0.000000000000000e+00 1851878480
-1.052178 -0.676918 0.540084 0.000000000000000e+00 1851878480
-0.833193 -0.705673 0.752275 0.000000000000000e+00 1851878480
-0.636318 -0.733195 0.972467 0.000000000000000e+00 1851878480
-1.001397 -0.641625 0.331883 0.000000000000000e+00 1851878480
-1.057620 -0.649437 0.541698 0.000000000000000e+00 1851878480
-0.833317 -0.677931 0.753815 0.000000000000000e+00 1851878480
-0.656803 -0.703342 0.973265 0.000000000000000e+00 1851878480
-0.986618 -0.615391 0.332987 0.000000000000000e+00 1851878480
-1.065208 -0.621853 0.543335 0.000000000000000e+00 1851878480
-0.833000 -0.650236 0.755364 0.000000000000000e+00 1851878480
-0.708800 -0.671350 0.972938 0.000000000000000e+00 1851878480
-0.986238 -0.588138 0.334585 0.000000000000000e+00 1851878480
-1.055568 -0.595471 0.544783 0.000000000000000e+00 1851878480
-0.835762 -0.622340 0.756878 0.000000000000000e+00 1851878480
-0.746231 -0.640693 0.973121 0.000000000000000e+00 1851878480
-0.992121 -0.560506 0.336395 0.000000000000000e+00 1851878480
-1.046662 -0.568998 0.546245 0.000000000000000e+00 1851878480
-0.842004 -0.594248 0.758349 0.000000000000000e+00 1851878480
-0.763344 -0.611618 0.974028 0.000000000000000e+00 1851878480
-0.960227 -0.535155 0.336929 0.000000000000000e+00 1851878480
-1.048440 -0.541832 0.547823 0.000000000000000e+00 1851878480
-0.837303 -0.566880 0.759963 0.000000000000000e+00 1851878480
-0.780586 -0.582650 0.974930 0.000000000000000e+00 1851878480
-0.968948 -0.507341 0.338836 0.000000000000000e+00 1851878480
-1.052088 -0.514582 0.549420 0.000000000000000e+00 1851878480
-0.827904 -0.539771 0.761643 0.000000000000000e+00 1851878480
-0.789004 -0.554328 0.976152 0.000000000000000e+00 1851878480
-0.975559 -0.479701 0.340669 0.000000000000000e+00 1851878480
-1.051613 -0.487587 0.550976 0.000000000000000e+00 1851878480
-0.836998 -0.511584 0.763085 0.000000000000000e+00 1851878480
-0.982548 -0.515485 0.970623 0.000000000000000e+00 1768716611
-0.978864 -0.452275 0.342389 0.000000000000000e+00 1851878480
-1.043482 -0.460992 0.552458 0.000000000000000e+00 1851878480
-0.836507 -0.483967 0.764656 0.000000000000000e+00 1851878480
-1.021291 -0.486199 0.970708 0.000000000000000e+00 1768716611
-0.970384 -0.425433 0.343719 0.000000000000000e+00 1851878480
-1.050658 -0.433616 0.554093 0.000000000000000e+00 1851878480
-0.840215 -0.456146 0.766173 0.000000000000000e+00 1851878480
-0.771688 -0.471902 0.981399 0.000000000000000e+00 1851878480
-0.977480 -0.397861 0.345562 0.000000000000000e+00 1851878480
-1.044132 -0.406912 0.555596 0.000000000000000e+00 1851878480
-0.839191 -0.428577 0.767757 0.000000000000000e+00 1851878480
-0.771601 -0.444100 0.982953 0.000000000000000e+00 1851878480
-0.976567 -0.370669 0.347141 0.000000000000000e+00 1851878480
-1.057361 -0.379340 0.557288 0.000000000000000e+00 1851878480
-0.845365 -0.400695 0.769245 0.000000000000000e+00 1851878480
-0.775968 -0.416106 0.984346 0.000000000000000e+00 1851878480
-0.958488 -0.344131 0.348162 0.000000000000000e+00 1851878480
-1.061927 -0.352195 0.558898 0.000000000000000e+00 1851878480
-0.842142 -0.373240 0.770867 0.000000000000000e+00 1851878480
-0.785728 -0.387917 0.985543 0.000000000000000e+00 1851878480
-0.980046 -0.316102 0.350470 0.000000000000000e+00 1851878480
-1.043726 -0.325914 0.560300 0.000000000000000e+00 1851878480
-0.833372 -0.345983 0.772573 0.000000000000000e+00 1851878480
-0.773526 -0.360655 0.987565 0.000000000000000e+00 1851878480
-0.961370 -0.289498 0.351477 0.000000000000000e+00 1851878480
-1.061164 -0.298339 0.562028 0.000000000000000e+00 1851878480
-0.842654 -0.318052 0.774024 0.000000000000000e+00 1851878480
-0.781275 -0.332603 0.988845 0.000000000000000e+00 1851878480
-0.965297 -0.262131 0.353213 0.000000000000000e+00 1851878480
-1.044615 -0.271907 0.563454 0.000000000000000e+00 1851878480
-0.840843 -0.290535 0.775638 0.000000000000000e+00 1851878480
-0.785914 -0.304709 0.990245 0.000000000000000e+00 1851878480
-0.989472 -0.222080 0.146328 0.000000000000000e+00 1851878480
-0.984416 -0.234397 0.355429 0.000000000000000e+00 1851878480
-1.046032 -0.244889 0.565042 0.000000000000000e+00 1851878480
-0.833241 -0.263179 0.777342 0.000000000000000e+00 1851878480
-0.780630 -0.277146 0.992027 0.000000000000000e+00 1851878480
-0.977647 -0.195158 0.147302 0.000000000000000e+00 1851878480
-0.960799 -0.207766 0.356288 0.000000000000000e+00 1851878480
-1.036955 -0.218139 0.566543 0.000000000000000e+00 1851878480
-0.824373 -0.235813 0.779071 0.000000000000000e+00 1851878480
-0.783905 -0.249325 0.993489 0.000000000000000e+00 1851878480
-0.994724 -0.167632 0.149857 0.000000000000000e+00 1851878480
-0.972152 -0.180298 0.358254 0.000000000000000e+00 1851878480
-1.044554 -0.190984 0.568185 0.000000000000000e+00 1851878480
-0.845823 -0.207711 0.780347 0.000000000000000e+00 1851878480
-0.797128 -0.221288 0.994575 0.000000000000000e+00 1851878480
-0.957867 -0.141052 0.149468 0.000000000000000e+00 1851878480
-0.978408 -0.152988 0.360057 0.000000000000000e+00 1851878480
-1.052840 -0.163864 0.569832 0.000000000000000e+00 1851878480
-0.829046 -0.180494 0.782206 0.000000000000000e+00 1851878480
-0.774125 -0.194097 0.997056 0.000000000000000e+00 1851878480
-0.988574 -0.113404 0.152755 0.000000000000000e+00 1851878480
-0.958350 -0.126086 0.361040 0.000000000000000e+00 1851878480
-1.044965 -0.137046 0.571351 0.000000000000000e+00 1851878480
-0.835753 -0.152789 0.783710 0.000000000000000e+00 1851878480
-0.779501 -0.166260 0.998454 0.000000000000000e+00 1851878480
-0.292675 -0.188257 1.242870 0.000000000000000e+00 1851878480
-0.983179 -0.086289 0.154077 0.000000000000000e+00 1851878480
-0.970150 -0.098718 0.363013 0.000000000000000e+00 1851878480
-1.043752 -0.110100 0.572926 0.000000000000000e+00 1851878480
-0.847221 -0.125060 0.785141 0.000000000000000e+00 1851878480
-0.766997 -0.138726 1.000550 0.000000000000000e+00 1851878480
-0.390411 -0.157490 1.238485 0.000000000000000e+00 1851878480
-0.980645 -0.059124 0.155554 0.000000000000000e+00 1851878480
-0.967688 -0.071536 0.364545 0.000000000000000e+00 1851878480
-1.065980 -0.082932 0.574678 0.000000000000000e+00 1851878480
-0.830827 -0.097701 0.787013 0.000000000000000e+00 1851878480
-0.775159 -0.110872 1.001849 0.000000000000000e+00 1851878480
-0.431568 -0.128071 1.237596 0.000000000000000e+00 1851878480
-0.988327 -0.031909 0.157578 0.000000000000000e+00 1851878480
-0.944524 -0.044441 0.365446 0.000000000000000e+00 1851878480
-1.037895 -0.056215 0.576056 0.000000000000000e+00 1851878480
-0.849861 -0.069973 0.788327 0.000000000000000e+00 1851878480
-0.773353 -0.083157 1.003542 0.000000000000000e+00 1851878480
-0.464416 -0.098987 1.237221 0.000000000000000e+00 1851878480
-0.986408 -0.004748 0.159083 0.000000000000000e+00 1851878480
-0.963499 -0.017129 0.367633 0.000000000000000e+00 1851878480
-1.036547 -0.029244 0.577637 0.000000000000000e+00 1851878480
-0.834717 -0.042521 0.790191 0.000000000000000e+00 1851878480
-0.781762 -0.055373 1.004839 0.000000000000000e+00 1851878480
-0.477179 -0.070250 1.238100 0.000000000000000e+00 1851878480
-0.982588 0.022430 0.160486 0.000000000000000e+00 1851878480
-0.964060 0.010088 0.369257 0.000000000000000e+00 1851878480
-1.046599 -0.002262 0.579299 0.000000000000000e+00 1851878480
-0.824910 -0.014970 0.791978 0.000000000000000e+00 1851878480
-0.775675 -0.027684 1.006713 0.000000000000000e+00 1851878480
-0.478212 -0.041643 1.239719 0.000000000000000e+00 1851878480
-0.983649 0.049605 0.162147 0.000000000000000e+00 1851878480
-0.959074 0.037326 0.370716 0.000000000000000e+00 1851878480
-1.047011 0.024687 0.580895 0.000000000000000e+00 1851878480
-0.841731 0.012605 0.793331 0.000000000000000e+00 1851878480
-0.798250 0.000042 1.007455 0.000000000000000e+00 1851878480
-0.501316 -0.013011 1.239956 0.000000000000000e+00 1851878480
-0.986204 0.076760 0.163886 0.000000000000000e+00 1851878480
-0.953412 0.064598 0.372156 0.000000000000000e+00 1851878480
-1.044185 0.051651 0.582471 0.000000000000000e+00 1851878480
-0.835333 0.040179 0.795070 0.000000000000000e+00 1851878480
-0.766012 0.027796 1.010384 0.000000000000000e+00 1851878480
-0.505806 0.015511 1.241368 0.000000000000000e+00 1851878480
-0.992268 0.103861 0.165807 0.000000000000000e+00 1851878480
-0.959887 0.091783 0.373958 0.000000000000000e+00 1851878480
-1.030690 0.078727 0.583981 0.000000000000000e+00 1851878480
-0.825387 0.067819 0.796876 0.000000000000000e+00 1851878480
-0.754142 0.055623 1.012513 0.000000000000000e+00 1851878480
-0.507279 0.044022 1.242978 0.000000000000000e+00 1851878480
-0.994357 0.130984 0.167515 0.000000000000000e+00 1851878480
-0.968581 0.118900 0.375822 0.000000000000000e+00 1851878480
-1.044165 0.105567 0.585666 0.000000000000000e+00 1851878480
-0.831677 0.095351 0.798412 0.000000000000000e+00 1851878480
-0.751975 0.083434 1.014262 0.000000000000000e+00 1851878480
-0.505586 0.072548 1.244796 0.000000000000000e+00 1851878480
-0.974746 0.158478 0.168082 0.000000000000000e+00 1851878480
-0.944028 0.146505 0.376711 0.000000000000000e+00 1851878480
-1.024708 0.132817 0.587149 0.000000000000000e+00 1851878480
-0.831974 0.122928 0.800053 0.000000000000000e+00 1851878480
-0.757708 0.111166 1.015697 0.000000000000000e+00 1851878480
-0.500885 0.101119 1.246815 0.000000000000000e+00 1851878480
-1.009188 0.184980 0.171481 0.000000000000000e+00 1851878480
-0.942283 0.173822 0.378273 0.000000000000000e+00 1851878480
-1.036395 0.159629 0.588824 0.000000000000000e+00 1851878480
-0.829526 0.150549 0.801745 0.000000000000000e+00 1851878480
-0.774430 0.138699 1.016690 0.000000000000000e+00 1851878480
-0.480516 0.129933 1.249845 0.000000000000000e+00 1851878480
-0.977574 0.212837 0.171422 0.000000000000000e+00 1851878480
-0.947267 0.201004 0.380029 0.000000000000000e+00 1851878480
-1.044131 0.186457 0.590475 0.000000000000000e+00 1851878480
-0.817228 0.178380 0.803617 0.000000000000000e+00 1851878480
-0.774592 0.166434 1.018359 0.000000000000000e+00 1851878480
-0.499798 0.158212 1.250350 0.000000000000000e+00 1851878480
-0.977911 0.240036 0.173033 0.000000000000000e+00 1851878480
-0.940601 0.228452 0.381449 0.000000000000000e+00 1851878480
-1.053307 0.213207 0.592133 0.000000000000000e+00 1851878480
-0.828741 0.205753 0.805072 0.000000000000000e+00 1851878480
-0.765892 0.194356 1.020397 0.000000000000000e+00 1851878480
-0.475246 0.187239 1.253672 0.000000000000000e+00 1851878480
-1.000197 0.266588 0.175779 0.000000000000000e+00 1851878480
-0.956482 0.255308 0.383516 0.000000000000000e+00 1851878480
-1.053040 0.240159 0.593739 0.000000000000000e+00 1851878480
-0.847237 0.232883 0.806402 0.000000000000000e+00 1851878480
-0.739325 0.222764 1.023181 0.000000000000000e+00 1851878480
-0.449206 0.216451 1.257108 0.000000000000000e+00 1851878480
-0.979168 0.294424 0.176280 0.000000000000000e+00 1851878480
-0.938861 0.283120 0.384626 0.000000000000000e+00 1851878480
-1.027898 0.267860 0.595218 0.000000000000000e+00 1851878480
-0.829671 0.260933 0.808385 0.000000000000000e+00 1851878480
-0.757603 0.250124 1.024124 0.000000000000000e+00 1851878480
-0.420204 0.245901 1.260753 0.000000000000000e+00 1851878480
-0.980332 0.321599 0.177928 0.000000000000000e+00 1851878480
-0.953331 0.309943 0.386648 0.000000000000000e+00 1851878480
-1.037853 0.294563 0.596885 0.000000000000000e+00 1851878480
-0.841716 0.288160 0.809835 0.000000000000000e+00 1851878480
-0.740440 0.278442 1.026541 0.000000000000000e+00 1851878480
-0.983969 0.348679 0.179701 0.000000000000000e+00 1851878480
-0.943754 0.337580 0.387992 0.000000000000000e+00 1851878480
-1.043554 0.321364 0.598529 0.000000000000000e+00 1851878480
-0.820730 0.316460 0.811897 0.000000000000000e+00 1851878480
-0.753896 0.305857 1.027691 0.000000000000000e+00 1851878480
-0.980063 0.376056 0.181086 0.000000000000000e+00 1851878480
-0.936477 0.365189 0.389403 0.000000000000000e+00 1851878480
-1.022124 0.349191 0.600048 0.000000000000000e+00 1851878480
-0.815612 0.344295 0.813674 0.000000000000000e+00 1851878480
-0.743403 0.334061 1.029847 0.000000000000000e+00 1851878480
-0.972498 0.403627 0.182285 0.000000000000000e+00 1851878480
-0.958425 0.391583 0.391625 0.000000000000000e+00 1851878480
-1.020718 0.376315 0.601666 0.000000000000000e+00 1851878480
-0.811785 0.372118 0.815433 0.000000000000000e+00 1851878480
-0.733585 0.362308 1.031985 0.000000000000000e+00 1851878480
-0.968450 0.431083 0.183662 0.000000000000000e+00 1851878480
-0.924271 0.420449 0.392299 0.000000000000000e+00 1851878480
-1.018712 0.403481 0.603284 0.000000000000000e+00 1851878480
-0.804715 0.400109 0.817259 0.000000000000000e+00 1851878480
-0.755123 0.389299 1.032806 0.000000000000000e+00 1851878480
-0.974616 0.458053 0.185557 0.000000000000000e+00 1851878480
-1.005517 0.443835 0.396135 0.000000000000000e+00 1851878480
-1.040408 0.429530 0.605002 0.000000000000000e+00 1851878480
-0.829990 0.426646 0.818469 0.000000000000000e+00 1851878480
-0.754111 0.417187 1.034584 0.000000000000000e+00 1851878480
-0.978621 0.485109 0.187338 0.000000000000000e+00 1851878480
-1.017319 0.470374 0.398060 0.000000000000000e+00 1851878480
-1.033698 0.456903 0.606604 0.000000000000000e+00 1851878480
-0.817987 0.454885 0.820399 0.000000000000000e+00 1851878480
-0.746224 0.445417 1.036662 0.000000000000000e+00 1851878480
-0.966592 0.513059 0.188312 0.000000000000000e+00 1851878480
-1.005255 0.498172 0.399337 0.000000000000000e+00 1851878480
-1.026828 0.484333 0.608209 0.000000000000000e+00 1851878480
-0.819774 0.482480 0.822067 0.000000000000000e+00 1851878480
-0.737253 0.473759 1.038796 0.000000000000000e+00 1851878480
-0.980535 0.539539 0.190588 0.000000000000000e+00 1851878480
-1.020909 0.524433 0.401362 0.000000000000000e+00 1851878480
-1.013288 0.512194 0.609797 0.000000000000000e+00 1851878480
-0.820061 0.510157 0.823769 0.000000000000000e+00 1851878480
-0.720237 0.502601 1.041286 0.000000000000000e+00 1851878480
-0.991012 0.566161 0.192685 0.000000000000000e+00 1851878480
-1.017452 0.551782 0.402873 0.000000000000000e+00 1851878480
-1.010814 0.539481 0.611428 0.000000000000000e+00 1851878480
-0.806348 0.538660 0.825755 0.000000000000000e+00 1851878480
-0.727613 0.530158 1.042733 0.000000000000000e+00 1851878480
-0.970622 0.594763 0.193244 0.000000000000000e+00 1851878480
-1.029108 0.578189 0.404785 0.000000000000000e+00 1851878480
-1.067051 0.563092 0.613250 0.000000000000000e+00 1851878480
-0.814135 0.565933 0.827317 0.000000000000000e+00 1851878480
-0.731180 0.557911 1.044351 0.000000000000000e+00 1851878480
-0.986909 0.620971 0.195624 0.000000000000000e+00 1851878480
-1.017890 0.606077 0.406094 0.000000000000000e+00 1851878480
-1.071798 0.589774 0.614900 0.000000000000000e+00 1851878480
-0.808155 0.594057 0.829160 0.000000000000000e+00 1851878480
-0.714826 0.586912 1.046842 0.000000000000000e+00 1851878480
-0.979189 0.648820 0.196813 0.000000000000000e+00 1851878480
-1.009032 0.633879 0.407469 0.000000000000000e+00 1851878480
-1.078176 0.616327 0.616555 0.000000000000000e+00 1851878480
-0.801036 0.622307 0.831035 0.000000000000000e+00 1851878480
-0.737637 0.613428 1.047630 0.000000000000000e+00 1851878480
-0.985896 0.675644 0.198712 0.000000000000000e+00 1851878480
-1.027243 0.659755 0.409548 0.000000000000000e+00 1851878480
-1.084560 0.642850 0.618210 0.000000000000000e+00 1851878480
-0.811442 0.649370 0.832552 0.000000000000000e+00 1851878480
-0.724054 0.642338 1.050018 0.000000000000000e+00 1851878480
-1.002542 0.701665 0.201095 0.000000000000000e+00 1851878480
-1.011521 0.688131 0.410749 0.000000000000000e+00 1851878480
-1.082912 0.669951 0.619845 0.000000000000000e+00 1851878480
-0.804741 0.677645 0.834429 0.000000000000000e+00 1851878480
-0.725681 0.670242 1.051745 0.000000000000000e+00 1851878480
-0.977557 0.730970 0.201439 0.000000000000000e+00 1851878480
-1.021210 0.714591 0.412605 0.000000000000000e+00 1851878480
-1.079940 0.697176 0.621481 0.000000000000000e+00 1851878480
-0.806071 0.705356 0.836143 0.000000000000000e+00 1851878480
-0.718452 0.698815 1.053872 0.000000000000000e+00 1851878480
-0.970279 0.758952 0.202651 0.000000000000000e+00 1851878480
-1.033063 0.740828 0.414513 0.000000000000000e+00 1851878480
-1.081249 0.724086 0.623130 0.000000000000000e+00 1851878480
-0.812743 0.732646 0.837747 0.000000000000000e+00 1851878480
-0.712826 0.727320 1.055936 0.000000000000000e+00 1851878480
-0.983136 0.785237 0.204841 0.000000000000000e+00 1851878480
-1.023477 0.768841 0.415879 0.000000000000000e+00 1851878480
-1.086974 0.750628 0.624789 0.000000000000000e+00 1851878480
-0.787619 0.762540 0.840038 0.000000000000000e+00 1851878480
-0.733130 0.753763 1.056848 0.000000000000000e+00 1851878480
-0.987747 0.812202 0.206627 0.000000000000000e+00 1851878480
-1.007969 0.797451 0.417100 0.000000000000000e+00 1851878480
-1.082891 0.778004 0.626432 0.000000000000000e+00 1851878480
-0.801657 0.789240 0.841493 0.000000000000000e+00 1851878480
-0.731894 0.781913 1.058728 0.000000000000000e+00 1851878480
-0.999047 0.838531 0.208731 0.000000000000000e+00 1851878480
-1.009838 0.824577 0.418759 0.000000000000000e+00 1851878480
-1.068834 0.806320 0.628064 0.000000000000000e+00 1851878480
-0.794707 0.817734 0.843407 0.000000000000000e+00 1851878480
-0.719233 0.811085 1.061132 0.000000000000000e+00 1851878480
-0.995151 0.866267 0.210103 0.000000000000000e+00 1851878480
-1.029195 0.850048 0.420849 0.000000000000000e+00 1851878480
-1.070306 0.833287 0.629725 0.000000000000000e+00 1851878480
-0.792912 0.845811 0.845215 0.000000000000000e+00 1851878480
-0.716883 0.839415 1.063079 0.000000000000000e+00 1851878480
-0.992715 0.893898 0.211545 0.000000000000000e+00 1851878480
-1.030465 0.877187 0.422491 0.000000000000000e+00 1851878480
-1.083152 0.859165 0.631401 0.000000000000000e+00 1851878480
-0.791766 0.873854 0.847014 0.000000000000000e+00 1851878480
-0.721507 0.867123 1.064717 0.000000000000000e+00 1851878480
-0.980660 0.922542 0.212528 0.000000000000000e+00 1851878480
-1.026709 0.904840 0.424011 0.000000000000000e+00 1851878480
-1.075549 0.887011 0.633056 0.000000000000000e+00 1851878480
-0.783534 0.902613 0.848978 0.000000000000000e+00 1851878480
-0.722145 0.895204 1.066542 0.000000000000000e+00 1851878480
-1.003697 0.947582 0.215179 0.000000000000000e+00 1851878480
-1.025921 0.932224 0.425605 0.000000000000000e+00 1851878480
-1.089320 0.912731 0.634732 0.000000000000000e+00 1851878480
-0.790632 0.929891 0.850602 0.000000000000000e+00 1851878480
-0.714581 0.924114 1.068751 0.000000000000000e+00 1851878480
-0.997492 0.975667 0.216439 0.000000000000000e+00 1851878480
-1.010334 0.961212 0.426847 0.000000000000000e+00 1851878480
-1.062936 0.942619 0.636383 0.000000000000000e+00 1851878480
-0.783573 0.958614 0.852552 0.000000000000000e+00 1851878480
-0.711497 0.952627 1.070763 0.000000000000000e+00 1851878480
-0.988286 1.004142 0.217560 0.000000000000000e+00 1851878480
-1.034514 0.985939 0.429038 0.000000000000000e+00 1851878480
-1.082445 0.967705 0.638066 0.000000000000000e+00 1851878480
-0.796091 0.985303 0.854058 0.000000000000000e+00 1851878480
-0.691519 0.982961 1.073568 0.000000000000000e+00 1851878480
-0.989896 1.031452 0.219189 0.000000000000000e+00 1851878480
-1.017327 1.015212 0.430248 0.000000000000000e+00 1851878480
-1.080037 0.995134 0.639739 0.000000000000000e+00 1851878480
-0.791181 1.013853 0.855970 0.000000000000000e+00 1851878480
-0.681359 1.012367 1.075930 0.000000000000000e+00 1851878480
-1.002498 1.057480 0.221331 0.000000000000000e+00 1851878480
-1.027549 1.041426 0.432106 0.000000000000000e+00 1851878480
-1.077927 1.022562 0.641416 0.000000000000000e+00 1851878480
-0.774189 1.043817 0.858173 0.000000000000000e+00 1851878480
-0.680116 1.040857 1.077886 0.000000000000000e+00 1851878480
-1.023885 1.082390 0.223877 0.000000000000000e+00 1851878480
-1.020788 1.069621 0.433567 0.000000000000000e+00 1851878480
-1.075957 1.050006 0.643097 0.000000000000000e+00 1851878480
-0.790043 1.070088 0.859610 0.000000000000000e+00 1851878480
-0.674446 1.069883 1.080058 0.000000000000000e+00 1851878480
-1.011239 1.111397 0.224836 0.000000000000000e+00 1851878480
-1.034255 1.095404 0.435497 0.000000000000000e+00 1851878480
-1.066739 1.078354 0.644784 0.000000000000000e+00 1851878480
-0.791386 1.098012 0.861392 0.000000000000000e+00 1851878480
-0.644605 1.101809 1.083381 0.000000000000000e+00 1851878480
-1.003314 1.139904 0.226017 0.000000000000000e+00 1851878480
-1.015282 1.125189 0.436684 0.000000000000000e+00 1851878480
-1.086112 1.103242 0.646463 0.000000000000000e+00 1851878480
-0.759892 1.129964 0.863969 0.000000000000000e+00 1851878480
-0.647132 1.130027 1.085188 0.000000000000000e+00 1851878480
-1.013095 1.166182 0.228015 0.000000000000000e+00 1851878480
-1.048248 1.148445 0.439054 0.000000000000000e+00 1851878480
-1.081870 1.131025 0.648154 0.000000000000000e+00 1851878480
-0.786923 1.154793 0.865144 0.000000000000000e+00 1851878480
0.613614 1.409795 0.154963 0.000000000000000e+00 1701537140
-1.055860 1.174852 0.440844 0.000000000000000e+00 1851878480
-1.077991 1.158808 0.649850 0.000000000000000e+00 1851878480
-0.776730 1.184258 0.867225 0.000000000000000e+00 1851878480
-0.887973 1.238284 0.225389 0.000000000000000e+00 1701537140
0.596192 1.424322 0.405666 0.000000000000000e+00 1701537140
-1.085227 1.185158 0.651539 0.000000000000000e+00 1851878480
-0.798493 1.209606 0.868526 0.000000000000000e+00 1851878480
-1.034764 1.245853 0.233635 0.000000000000000e+00 1701537140
-0.962550 1.242512 0.442022 0.000000000000000e+00 1701537140
-1.092458 1.211487 0.653228 0.000000000000000e+00 1851878480
-0.774104 1.241051 0.870972 0.000000000000000e+00 1851878480
-1.057265 1.270195 0.236195 0.000000000000000e+00 1701537140
-1.030503 1.260696 0.445149 0.000000000000000e+00 1701537140
-1.114320 1.235758 0.654895 0.000000000000000e+00 1851878480
-0.790354 1.267078 0.872414 0.000000000000000e+00 1851878480
-1.020015 1.303092 0.236047 0.000000000000000e+00 1701537140
-1.047298 1.285833 0.447142 0.000000000000000e+00 1701537140
-1.103788 1.264522 0.656612 0.000000000000000e+00 1851878480
-0.778975 1.296913 0.874554 0.000000000000000e+00 1851878480
-0.766528 1.368288 0.226181 0.000000000000000e+00 1701537140
-1.027301 1.316289 0.448337 0.000000000000000e+00 1701537140
-1.095405 1.293063 0.658332 0.000000000000000e+00 1851878480
-0.790934 1.323490 0.876109 0.000000000000000e+00 1851878480
-0.744159 1.400106 0.226762 0.000000000000000e+00 1701537140
-0.746871 1.385898 0.443976 0.000000000000000e+00 1701537140
-1.093431 1.320728 0.660046 0.000000000000000e+00 1851878480
-0.770600 1.354757 0.878493 0.000000000000000e+00 1851878480
-0.882026 1.407358 0.234506 0.000000000000000e+00 1701537140
-1.031356 1.370909 0.451686 0.000000000000000e+00 1701537140
-1.120313 1.344062 0.661699 0.000000000000000e+00 1851878480
-0.783006 1.381268 0.880045 0.000000000000000e+00 1851878480
-0.876916 1.436293 0.235842 0.000000000000000e+00 1701537140
-1.037869 1.397537 0.453456 0.000000000000000e+00 1701537140
-0.785819 1.409194 0.881847 0.000000000000000e+00 1851878480
-0.992822 1.459507 0.028804 0.000000000000000e+00 1701537140
-0.865275 1.466336 0.236889 0.000000000000000e+00 1701537140
-1.034856 1.425668 0.455027 0.000000000000000e+00 1701537140
0.790583 1.699793 0.670171 0.000000000000000e+00 1851878480
-0.788864 1.437094 0.883648 0.000000000000000e+00 1851878480
-0.994649 1.487074 0.030369 0.000000000000000e+00 1701537140
-0.874507 1.493061 0.238861 0.000000000000000e+00 1701537140
-1.047739 1.451265 0.456928 0.000000000000000e+00 1701537140
0.532392 1.691616 0.671528 0.000000000000000e+00 1851878480
-0.781731 1.466622 0.885723 0.000000000000000e+00 1851878480
-0.982812 1.516956 0.031006 0.000000000000000e+00 1701537140
-1.045292 1.492826 0.247934 0.000000000000000e+00 1701537140
-0.895428 1.504101 0.455448 0.000000000000000e+00 1701537140
0.860840 1.777911 0.674566 0.000000000000000e+00 1851878480
-0.787235 1.494170 0.887469 0.000000000000000e+00 1851878480
-1.002486 1.541540 0.033773 0.000000000000000e+00 1701537140
-1.023124 1.524325 0.248496 0.000000000000000e+00 1701537140
-0.871630 1.536277 0.456630 0.000000000000000e+00 1701537140
0.826005 1.805674 0.676564 0.000000000000000e+00 1851878480
-0.786733 1.522705 0.889380 0.000000000000000e+00 1851878480
-0.992600 1.571186 0.034539 0.000000000000000e+00 1701537140
-0.880529 1.576811 0.243811 0.000000000000000e+00 1701537140
-0.873901 1.564161 0.458346 0.000000000000000e+00 1701537140
0.820093 1.838169 0.678653 0.000000000000000e+00 1851878480
-0.786187 1.551278 0.891299 0.000000000000000e+00 1851878480
-1.001112 1.597657 0.036543 0.000000000000000e+00 1701537140
-0.892306 1.603041 0.245883 0.000000000000000e+00 1701537140
-1.026895 1.565760 0.463063 0.000000000000000e+00 1701537140
0.818818 1.871465 0.680760 0.000000000000000e+00 1851878480
-0.732610 1.588978 0.894671 0.000000000000000e+00 1851878480
-0.967950 1.631632 0.035746 0.000000000000000e+00 1701537140
-1.023831 1.607777 0.253135 0.000000000000000e+00 1701537140
-1.038998 1.591461 0.464947 0.000000000000000e+00 1701537140
0.803294 1.902277 0.682817 0.000000000000000e+00 1851878480
-0.736403 1.617023 0.896494 0.000000000000000e+00 1851878480
-1.001794 1.653532 0.039442 0.000000000000000e+00 1701537140
-1.015901 1.637140 0.254328 0.000000000000000e+00 1701537140
-0.854469 1.652649 0.462986 0.000000000000000e+00 1701537140
0.786889 1.932872 0.684869 0.000000000000000e+00 1851878480
-0.703758 1.651550 0.899331 0.000000000000000e+00 1851878480
-0.879359 1.690418 0.250001 0.000000000000000e+00 1701537140
-0.739869 1.702161 0.462449 0.000000000000000e+00 1701537140
-0.830181 1.671607 0.680196 0.000000000000000e+00 1851878480
-0.689152 1.683048 0.901684 0.000000000000000e+00 1851878480
-0.769496 1.739551 0.246862 0.000000000000000e+00 1701537140
-0.764247 1.726439 0.464620 0.000000000000000e+00 1701537140
-1.019556 1.665022 0.681169 0.000000000000000e+00 1851878480
-0.630558 1.722757 0.905286 0.000000000000000e+00 1851878480
-0.780635 1.766219 0.248914 0.000000000000000e+00 1701537140
-0.807494 1.747010 0.467142 0.000000000000000e+00 1701537140
-1.121564 1.673759 0.682472 0.000000000000000e+00 1851878480
-0.569764 1.763274 0.908982 0.000000000000000e+00 1851878480
-0.866413 1.778320 0.254130 0.000000000000000e+00 1701537140
-0.935533 1.750967 0.471244 0.000000000000000e+00 1701537140
-1.112122 1.703249 0.684274 0.000000000000000e+00 1851878480
-0.533630 1.799515 0.912006 0.000000000000000e+00 1851878480
-0.932511 1.793810 0.258485 0.000000000000000e+00 1701537140
-1.013194 1.764044 0.474363 0.000000000000000e+00 1701537140
-1.112318 1.730953 0.686034 0.000000000000000e+00 1851878480
-0.462934 1.842693 0.916045 0.000000000000000e+00 1851878480
-1.037579 1.801087 0.264457 0.000000000000000e+00 1701537140
-1.035873 1.787632 0.476442 0.000000000000000e+00 1701537140
-1.105171 1.760141 0.687837 0.000000000000000e+00 1851878480
-1.045293 1.827612 0.266312 0.000000000000000e+00 1701537140
-1.010105 1.820927 0.477630 0.000000000000000e+00 1701537140
-1.081182 1.792793 0.689737 0.000000000000000e+00 1851878480
-1.026729 1.859566 0.267068 0.000000000000000e+00 1701537140
-0.757561 1.901061 0.474734 0.000000000000000e+00 1851878480
-1.072216 1.822561 0.691567 0.000000000000000e+00 1851878480
-0.812147 1.932910 0.259679 0.000000000000000e+00 1851878480
-0.896858 1.900990 0.478939 0.000000000000000e+00 1851878480
-1.070534 1.850911 0.693362 0.000000000000000e+00 1851878480
-0.922297 1.938301 0.265811 0.000000000000000e+00 1851878480
-1.023020 1.902863 0.482861 0.000000000000000e+00 1851878480
-1.047710 1.883754 0.695289 0.000000000000000e+00 1851878480
-1.006111 1.948743 0.270818 0.000000000000000e+00 1851878480
-1.041388 1.927167 0.484852 0.000000000000000e+00 1851878480
-1.041199 1.913294 0.697128 0.000000000000000e+00 1851878480
-0.969328 1.985203 0.270845 0.000000000000000e+00 1851878480
-1.022172 1.959594 0.486187 0.000000000000000e+00 1851878480
-1.024578 1.945100 0.699039 0.000000000000000e+00 1851878480
-0.971336 2.013283 0.272470 0.000000000000000e+00 1851878480
-0.999656 1.992911 0.487475 0.000000000000000e+00 1851878480
-1.022556 1.973839 0.700865 0.000000000000000e+00 1851878480
-0.944876 2.047826 0.272936 0.000000000000000e+00 1851878480
-0.961648 2.029886 0.488511 0.000000000000000e+00 1851878480
-0.995995 2.008100 0.702862 0.000000000000000e+00 1851878480
-0.908959 2.084743 0.273027 0.000000000000000e+00 1851878480
-0.948638 2.061447 0.489983 0.000000000000000e+00 1851878480
-0.900677 2.058118 0.705356 0.000000000000000e+00 1851878480
-0.871373 2.122317 0.273064 0.000000000000000e+00 1851878480
-0.910384 2.098960 0.491043 0.000000000000000e+00 1851878480
-0.782790 2.113956 0.708055 0.000000000000000e+00 1851878480
-0.755612 2.178591 0.269970 0.000000000000000e+00 1851878480
-0.870771 2.137072 0.492098 0.000000000000000e+00 1851878480
-0.569568 2.192747 0.711513 0.000000000000000e+00 1851878480
-0.458855 2.263813 0.487140 0.000000000000000e+00 1851878480
