# .PCD v0.7 - Point Cloud Data file format
VERSION 0.7
FIELDS x y z rgb label
SIZE 4 4 4 4 4
TYPE F F F F U
COUNT 1 1 1 1 1
WIDTH 784
HEIGHT 1
VIEWPOINT 0 0 0 1 0 0 0
POINTS 784
DATA ascii
-0.732173 1.424852 0.677310 0.000000000000000e+00 1851878480
-0.974188 1.603627 0.747536 0.000000000000000e+00 1851878480
-0.925222 1.564111 0.825108 0.000000000000000e+00 1851878480
-0.800245 1.467271 0.912896 0.000000000000000e+00 1851878480
-0.631867 1.337426 1.014014 0.000000000000000e+00 1851878480
0.099940 0.781740 1.216123 0.000000000000000e+00 1851878480
-0.949455 1.621478 0.079701 0.000000000000000e+00 1701537140
-0.730288 1.457068 0.113141 0.000000000000000e+00 1701537140
-0.804404 1.508844 0.206345 0.000000000000000e+00 1701537140
-0.951327 1.614650 0.304450 0.000000000000000e+00 1701537140
-0.945056 1.607274 0.378447 0.000000000000000e+00 1701537140
-0.953892 1.611121 0.453158 0.000000000000000e+00 1701537140
-0.940711 1.598633 0.526236 0.000000000000000e+00 1701537140
-0.970561 1.618113 0.601274 0.000000000000000e+00 1701537140
-0.716427 1.426093 0.677738 0.000000000000000e+00 1851878480
-0.973293 1.614795 0.747613 0.000000000000000e+00 1851878480
-0.924588 1.575698 0.825024 0.000000000000000e+00 1851878480
-0.798250 1.478419 0.912784 0.000000000000000e+00 1851878480
-0.626868 1.347104 1.014143 0.000000000000000e+00 1851878480
0.125252 0.779588 1.219266 0.000000000000000e+00 1851878480
-0.949455 1.633415 0.081246 0.000000000000000e+00 1701537140
-0.719769 1.462317 0.112633 0.000000000000000e+00 1701537140
-0.958571 1.634608 0.232444 0.000000000000000e+00 1701537140
-0.949617 1.625309 0.305262 0.000000000000000e+00 1701537140
-0.931316 1.609099 0.377907 0.000000000000000e+00 1701537140
-0.940046 1.612808 0.452840 0.000000000000000e+00 1701537140
-0.965447 1.628846 0.527887 0.000000000000000e+00 1701537140
-0.971150 1.630357 0.601653 0.000000000000000e+00 1701537140
-0.700615 1.427376 0.678170 0.000000000000000e+00 1851878480
-0.972145 1.625729 0.747703 0.000000000000000e+00 1851878480
-0.923764 1.587095 0.824958 0.000000000000000e+00 1851878480
-0.795921 1.489281 0.912711 0.000000000000000e+00 1851878480
-0.621570 1.356546 1.014316 0.000000000000000e+00 1851878480
0.148880 0.778853 1.222140 0.000000000000000e+00 1851878480
-0.949454 1.645298 0.082781 0.000000000000000e+00 1701537140
-0.709684 1.467921 0.112208 0.000000000000000e+00 1701537140
-0.955984 1.644553 0.233223 0.000000000000000e+00 1701537140
-0.935496 1.626864 0.304437 0.000000000000000e+00 1701537140
-0.916103 1.609922 0.377222 0.000000000000000e+00 1701537140
-0.923514 1.612602 0.452328 0.000000000000000e+00 1701537140
-0.961362 1.637632 0.528238 0.000000000000000e+00 1701537140
-0.971514 1.642377 0.602027 0.000000000000000e+00 1701537140
-0.684762 1.428717 0.678607 0.000000000000000e+00 1851878480
-0.970828 1.636499 0.747803 0.000000000000000e+00 1851878480
-0.922894 1.598413 0.824899 0.000000000000000e+00 1851878480
-0.793091 1.499738 0.912694 0.000000000000000e+00 1851878480
-0.616136 1.365878 1.014513 0.000000000000000e+00 1851878480
0.174553 0.776747 1.225338 0.000000000000000e+00 1851878480
-0.966567 1.669494 0.088045 0.000000000000000e+00 1701537140
-0.700839 1.474459 0.112019 0.000000000000000e+00 1701537140
-0.947446 1.650158 0.233044 0.000000000000000e+00 1701537140
-0.918860 1.626673 0.303288 0.000000000000000e+00 1701537140
-0.900619 1.610636 0.376515 0.000000000000000e+00 1701537140
-0.804674 1.538027 0.444332 0.000000000000000e+00 1701537140
-0.952168 1.642680 0.528362 0.000000000000000e+00 1701537140
-0.971445 1.654025 0.602394 0.000000000000000e+00 1701537140
-0.668808 1.430074 0.679048 0.000000000000000e+00 1851878480
-0.969364 1.647120 0.747911 0.000000000000000e+00 1851878480
-0.922004 1.609671 0.824845 0.000000000000000e+00 1851878480
-0.789904 1.509904 0.912717 0.000000000000000e+00 1851878480
-0.610384 1.374966 1.014756 0.000000000000000e+00 1851878480
-0.969127 1.683031 0.090107 0.000000000000000e+00 1701537140
-0.963764 1.676426 0.163111 0.000000000000000e+00 1701537140
-0.961845 1.672306 0.236527 0.000000000000000e+00 1701537140
-0.901701 1.626206 0.302078 0.000000000000000e+00 1701537140
-0.872879 1.602589 0.374567 0.000000000000000e+00 1701537140
-0.804688 1.550462 0.445067 0.000000000000000e+00 1701537140
-0.937858 1.644055 0.528261 0.000000000000000e+00 1701537140
-0.970699 1.665132 0.602750 0.000000000000000e+00 1701537140
-0.652753 1.431448 0.679495 0.000000000000000e+00 1851878480
-0.967795 1.657627 0.748027 0.000000000000000e+00 1851878480
-0.921025 1.620820 0.824801 0.000000000000000e+00 1851878480
-0.786354 1.519779 0.912781 0.000000000000000e+00 1851878480
-0.604431 1.383902 1.015031 0.000000000000000e+00 1851878480
-0.970518 1.695660 0.091902 0.000000000000000e+00 1701537140
-0.965561 1.689367 0.164782 0.000000000000000e+00 1701537140
-0.963909 1.685445 0.238027 0.000000000000000e+00 1701537140
-0.871126 1.616231 0.299127 0.000000000000000e+00 1701537140
-0.858041 1.604002 0.373941 0.000000000000000e+00 1701537140
-0.804673 1.562822 0.445796 0.000000000000000e+00 1701537140
-0.921417 1.643976 0.528071 0.000000000000000e+00 1701537140
-0.968939 1.675463 0.603091 0.000000000000000e+00 1701537140
-0.636594 1.432836 0.679947 0.000000000000000e+00 1851878480
-0.966133 1.668031 0.748148 0.000000000000000e+00 1851878480
-0.919956 1.631861 0.824767 0.000000000000000e+00 1851878480
-0.782348 1.529302 0.912895 0.000000000000000e+00 1851878480
-0.598038 1.392516 1.015368 0.000000000000000e+00 1851878480
-0.971409 1.707872 0.093578 0.000000000000000e+00 1701537140
-0.962006 1.698442 0.165437 0.000000000000000e+00 1701537140
-0.956988 1.692126 0.238091 0.000000000000000e+00 1701537140
-0.854270 1.616251 0.297977 0.000000000000000e+00 1701537140
-0.842688 1.605131 0.373268 0.000000000000000e+00 1701537140
-0.804629 1.575107 0.446521 0.000000000000000e+00 1701537140
-0.683921 1.485895 0.518192 0.000000000000000e+00 1701537140
-0.966408 1.685209 0.603421 0.000000000000000e+00 1701537140
0.924690 0.325904 0.701181 0.000000000000000e+00 1851878480
-0.964280 1.678263 0.748280 0.000000000000000e+00 1851878480
-0.918824 1.642816 0.824741 0.000000000000000e+00 1851878480
-0.777979 1.538546 0.913051 0.000000000000000e+00 1851878480
-0.591092 1.400730 1.015781 0.000000000000000e+00 1851878480
-0.971576 1.719515 0.095086 0.000000000000000e+00 1701537140
-0.956482 1.706110 0.165720 0.000000000000000e+00 1701537140
-0.945054 1.695280 0.237362 0.000000000000000e+00 1701537140
-0.836692 1.615862 0.296741 0.000000000000000e+00 1701537140
-0.826611 1.605835 0.372528 0.000000000000000e+00 1701537140
-0.804558 1.587321 0.447240 0.000000000000000e+00 1701537140
-0.682764 1.497881 0.518725 0.000000000000000e+00 1701537140
-0.963507 1.694663 0.603745 0.000000000000000e+00 1701537140
0.924088 0.346444 0.701544 0.000000000000000e+00 1851878480
-0.962383 1.688430 0.748417 0.000000000000000e+00 1851878480
-0.917622 1.653680 0.824724 0.000000000000000e+00 1851878480
-0.773279 1.547539 0.913243 0.000000000000000e+00 1851878480
-0.583072 1.408182 1.016337 0.000000000000000e+00 1851878480
-0.970707 1.730382 0.096360 0.000000000000000e+00 1701537140
-0.949450 1.712723 0.165719 0.000000000000000e+00 1701537140
-0.930854 1.696901 0.236279 0.000000000000000e+00 1701537140
-0.818504 1.615152 0.295434 0.000000000000000e+00 1701537140
-0.961142 1.712661 0.386908 0.000000000000000e+00 1701537140
-0.804461 1.599465 0.447955 0.000000000000000e+00 1701537140
-0.681817 1.509972 0.519265 0.000000000000000e+00 1701537140
-0.960152 1.703774 0.604064 0.000000000000000e+00 1701537140
-0.986056 1.719401 0.675909 0.000000000000000e+00 1851878480
-0.960434 1.698528 0.748558 0.000000000000000e+00 1851878480
-0.916351 1.664456 0.824716 0.000000000000000e+00 1851878480
-0.768247 1.556286 0.913474 0.000000000000000e+00 1851878480
-0.470296 1.340999 1.030336 0.000000000000000e+00 1634431585
-0.968476 1.740261 0.097334 0.000000000000000e+00 1701537140
-0.939420 1.717262 0.165159 0.000000000000000e+00 1701537140
-0.916559 1.698535 0.235186 0.000000000000000e+00 1701537140
-0.805798 1.618384 0.294841 0.000000000000000e+00 1701537140
-0.969390 1.729887 0.388564 0.000000000000000e+00 1701537140
-0.804343 1.611542 0.448665 0.000000000000000e+00 1701537140
-0.949454 1.710463 0.531416 0.000000000000000e+00 1701537140
-0.956744 1.712829 0.604382 0.000000000000000e+00 1701537140
-0.984679 1.729761 0.676140 0.000000000000000e+00 1851878480
-0.958427 1.708554 0.748704 0.000000000000000e+00 1851878480
-0.914993 1.675132 0.824717 0.000000000000000e+00 1851878480
-0.762861 1.564775 0.913743 0.000000000000000e+00 1851878480
-0.460329 1.347574 1.031135 0.000000000000000e+00 1634431585
-0.965215 1.749401 0.098079 0.000000000000000e+00 1701537140
-0.928085 1.720939 0.164358 0.000000000000000e+00 1701537140
-0.804362 1.632421 0.218739 0.000000000000000e+00 1701537140
-0.805562 1.630331 0.295853 0.000000000000000e+00 1701537140
-0.971237 1.742543 0.389572 0.000000000000000e+00 1701537140
-0.804206 1.623556 0.449370 0.000000000000000e+00 1701537140
-0.949455 1.721916 0.531940 0.000000000000000e+00 1701537140
-0.953531 1.722002 0.604704 0.000000000000000e+00 1701537140
-0.982906 1.739808 0.676379 0.000000000000000e+00 1851878480
-0.956400 1.718534 0.748853 0.000000000000000e+00 1851878480
-0.913636 1.685772 0.824722 0.000000000000000e+00 1851878480
-0.757228 1.573087 0.914042 0.000000000000000e+00 1851878480
-0.450042 1.353957 1.031978 0.000000000000000e+00 1634431585
-0.961618 1.758291 0.098747 0.000000000000000e+00 1701537140
-0.915507 1.723816 0.163331 0.000000000000000e+00 1701537140
-0.804220 1.644394 0.219916 0.000000000000000e+00 1701537140
-0.805318 1.642225 0.296858 0.000000000000000e+00 1701537140
-0.968325 1.751847 0.390102 0.000000000000000e+00 1701537140
-0.804052 1.635508 0.450072 0.000000000000000e+00 1701537140
-0.970172 1.747672 0.533349 0.000000000000000e+00 1701537140
-0.950461 1.731256 0.605029 0.000000000000000e+00 1701537140
-0.981104 1.749803 0.676619 0.000000000000000e+00 1851878480
-0.954337 1.728461 0.749007 0.000000000000000e+00 1851878480
-0.912139 1.696278 0.824741 0.000000000000000e+00 1851878480
-0.751318 1.581205 0.914372 0.000000000000000e+00 1851878480
-0.439714 1.360345 1.032832 0.000000000000000e+00 1634431585
-0.957748 1.766981 0.099352 0.000000000000000e+00 1701537140
-0.949108 1.758287 0.170832 0.000000000000000e+00 1701537140
-0.804061 1.656306 0.221084 0.000000000000000e+00 1701537140
-0.805068 1.654065 0.297856 0.000000000000000e+00 1701537140
-0.965011 1.760855 0.390591 0.000000000000000e+00 1701537140
-0.803886 1.647403 0.450770 0.000000000000000e+00 1701537140
-0.971582 1.759908 0.533925 0.000000000000000e+00 1701537140
-0.940061 1.735436 0.605249 0.000000000000000e+00 1701537140
-0.979268 1.759745 0.676861 0.000000000000000e+00 1851878480
-0.952244 1.738338 0.749164 0.000000000000000e+00 1851878480
-0.910627 1.706738 0.824764 0.000000000000000e+00 1851878480
-0.745196 1.589177 0.914728 0.000000000000000e+00 1851878480
-0.429343 1.366739 1.033695 0.000000000000000e+00 1634431585
-0.953952 1.775707 0.099967 0.000000000000000e+00 1701537140
-0.969181 1.783235 0.175801 0.000000000000000e+00 1701537140
-0.803889 1.668161 0.222242 0.000000000000000e+00 1701537140
-0.804815 1.665856 0.298849 0.000000000000000e+00 1701537140
-0.961555 1.769749 0.391063 0.000000000000000e+00 1701537140
-0.803707 1.659241 0.451464 0.000000000000000e+00 1701537140
-0.970354 1.770281 0.534388 0.000000000000000e+00 1701537140
-0.927164 1.737952 0.605438 0.000000000000000e+00 1701537140
-0.977408 1.769639 0.677104 0.000000000000000e+00 1851878480
-0.950116 1.748162 0.749325 0.000000000000000e+00 1851878480
-0.908984 1.717074 0.824800 0.000000000000000e+00 1851878480
-0.738880 1.597018 0.915107 0.000000000000000e+00 1851878480
-0.417945 1.372459 1.034693 0.000000000000000e+00 1634431585
-0.950339 1.784543 0.100616 0.000000000000000e+00 1701537140
-0.971438 1.795952 0.177472 0.000000000000000e+00 1701537140
-0.803706 1.679960 0.223393 0.000000000000000e+00 1701537140
-0.804559 1.677598 0.299836 0.000000000000000e+00 1701537140
-0.957495 1.778217 0.391474 0.000000000000000e+00 1701537140
-0.803518 1.671024 0.452154 0.000000000000000e+00 1701537140
-0.967012 1.779182 0.534760 0.000000000000000e+00 1701537140
-0.914078 1.740405 0.605627 0.000000000000000e+00 1701537140
-0.975505 1.779475 0.677350 0.000000000000000e+00 1851878480
-0.947900 1.757899 0.749492 0.000000000000000e+00 1851878480
-0.907310 1.727356 0.824842 0.000000000000000e+00 1851878480
-0.732552 1.604857 0.915491 0.000000000000000e+00 1851878480
-0.404373 1.376733 1.035973 0.000000000000000e+00 1634431585
-0.937181 1.786985 0.099240 0.000000000000000e+00 1701537140
-0.970866 1.806709 0.178614 0.000000000000000e+00 1701537140
-0.803513 1.691706 0.224534 0.000000000000000e+00 1701537140
-0.804303 1.689293 0.300818 0.000000000000000e+00 1701537140
-0.953304 1.786587 0.391870 0.000000000000000e+00 1701537140
-0.965810 1.792254 0.464220 0.000000000000000e+00 1701537140
-0.962655 1.787381 0.535090 0.000000000000000e+00 1701537140
-0.900647 1.742694 0.605816 0.000000000000000e+00 1701537140
-0.973347 1.789109 0.677600 0.000000000000000e+00 1851878480
-0.945663 1.767594 0.749662 0.000000000000000e+00 1851878480
-0.905553 1.737550 0.824893 0.000000000000000e+00 1851878480
-0.726118 1.612631 0.915890 0.000000000000000e+00 1851878480
-0.390717 1.381013 1.037266 0.000000000000000e+00 1634431585
-0.921363 1.787730 0.097307 0.000000000000000e+00 1701537140
-0.967559 1.815607 0.179250 0.000000000000000e+00 1701537140
-0.949215 1.800604 0.248176 0.000000000000000e+00 1701537140
-0.804044 1.700940 0.301793 0.000000000000000e+00 1701537140
-0.949180 1.794994 0.392272 0.000000000000000e+00 1701537140
-0.971390 1.807093 0.465265 0.000000000000000e+00 1701537140
-0.957959 1.795346 0.535405 0.000000000000000e+00 1701537140
-0.886645 1.744672 0.606000 0.000000000000000e+00 1701537140
-0.970957 1.798561 0.677856 0.000000000000000e+00 1851878480
-0.943446 1.777277 0.749834 0.000000000000000e+00 1851878480
-0.903754 1.747684 0.824950 0.000000000000000e+00 1851878480
-0.719536 1.620310 0.916308 0.000000000000000e+00 1851878480
-0.376976 1.385299 1.038574 0.000000000000000e+00 1634431585
-0.905066 1.788252 0.095282 0.000000000000000e+00 1701537140
-0.962951 1.823628 0.179645 0.000000000000000e+00 1701537140
-0.970574 1.825883 0.252558 0.000000000000000e+00 1701537140
-0.803786 1.712543 0.302764 0.000000000000000e+00 1701537140
-0.949454 1.806312 0.393101 0.000000000000000e+00 1701537140
-0.970785 1.817726 0.465875 0.000000000000000e+00 1701537140
-0.953544 1.803494 0.535733 0.000000000000000e+00 1701537140
-0.871704 1.746099 0.606175 0.000000000000000e+00 1701537140
-0.968461 1.807918 0.678114 0.000000000000000e+00 1851878480
-0.941221 1.786929 0.750009 0.000000000000000e+00 1851878480
-0.901903 1.757753 0.825015 0.000000000000000e+00 1851878480
-0.712720 1.627841 0.916753 0.000000000000000e+00 1851878480
-0.363791 1.390025 1.039814 0.000000000000000e+00 1634431585
-0.887920 1.788314 0.093087 0.000000000000000e+00 1701537140
-0.958077 1.831471 0.179988 0.000000000000000e+00 1701537140
-0.971390 1.837425 0.253763 0.000000000000000e+00 1701537140
-0.969294 1.833273 0.324505 0.000000000000000e+00 1701537140
-0.971150 1.831714 0.396008 0.000000000000000e+00 1701537140
-0.967143 1.826313 0.466272 0.000000000000000e+00 1701537140
-0.948813 1.811427 0.536048 0.000000000000000e+00 1701537140
-0.979528 1.828998 0.607995 0.000000000000000e+00 1851878480
-0.965843 1.817171 0.678375 0.000000000000000e+00 1851878480
-0.938896 1.796489 0.750190 0.000000000000000e+00 1851878480
-0.899993 1.767754 0.825087 0.000000000000000e+00 1851878480
-0.705618 1.635191 0.917230 0.000000000000000e+00 1851878480
-0.349865 1.394314 1.041153 0.000000000000000e+00 1634431585
-0.869008 1.787331 0.090532 0.000000000000000e+00 1701537140
-0.953494 1.839502 0.180381 0.000000000000000e+00 1701537140
-0.968516 1.846505 0.254397 0.000000000000000e+00 1701537140
-0.971629 1.845764 0.325729 0.000000000000000e+00 1701537140
-0.970856 1.842472 0.396767 0.000000000000000e+00 1701537140
-0.962237 1.834058 0.466581 0.000000000000000e+00 1701537140
-0.935389 1.813641 0.536005 0.000000000000000e+00 1701537140
-0.977056 1.838274 0.608326 0.000000000000000e+00 1851878480
-0.963164 1.826364 0.678639 0.000000000000000e+00 1851878480
-0.936519 1.805991 0.750376 0.000000000000000e+00 1851878480
-0.898020 1.777685 0.825168 0.000000000000000e+00 1851878480
-0.698263 1.642387 0.917735 0.000000000000000e+00 1851878480
-0.331330 1.395609 1.043078 0.000000000000000e+00 1634431585
-0.847416 1.784732 0.087428 0.000000000000000e+00 1701537140
-0.947974 1.846922 0.180602 0.000000000000000e+00 1701537140
-0.963581 1.854230 0.254712 0.000000000000000e+00 1701537140
-0.969252 1.855129 0.326358 0.000000000000000e+00 1701537140
-0.966949 1.850838 0.397174 0.000000000000000e+00 1701537140
-0.957026 1.841602 0.466870 0.000000000000000e+00 1701537140
-0.921791 1.815813 0.535960 0.000000000000000e+00 1701537140
-0.974556 1.847510 0.608657 0.000000000000000e+00 1851878480
-0.960371 1.835461 0.678906 0.000000000000000e+00 1851878480
-0.934155 1.815477 0.750564 0.000000000000000e+00 1851878480
-0.895942 1.787519 0.825259 0.000000000000000e+00 1851878480
-0.690697 1.649459 0.918266 0.000000000000000e+00 1851878480
-0.311782 1.396342 1.045134 0.000000000000000e+00 1634431585
-0.823944 1.781067 0.083946 0.000000000000000e+00 1701537140
-0.932970 1.848242 0.179112 0.000000000000000e+00 1701537140
-0.958271 1.861712 0.254969 0.000000000000000e+00 1701537140
-0.964413 1.862881 0.326679 0.000000000000000e+00 1701537140
-0.961701 1.858326 0.397451 0.000000000000000e+00 1701537140
-0.952168 1.849376 0.467182 0.000000000000000e+00 1701537140
-0.907944 1.817896 0.535908 0.000000000000000e+00 1701537140
-0.972078 1.856738 0.608989 0.000000000000000e+00 1851878480
-0.957450 1.844455 0.679176 0.000000000000000e+00 1851878480
-0.931701 1.824882 0.750758 0.000000000000000e+00 1851878480
-0.893771 1.797265 0.825360 0.000000000000000e+00 1851878480
-0.682669 1.656247 0.918846 0.000000000000000e+00 1851878480
-0.292040 1.397060 1.047217 0.000000000000000e+00 1634431585
-0.796604 1.775090 0.079677 0.000000000000000e+00 1701537140
-0.917664 1.849456 0.177574 0.000000000000000e+00 1701537140
-0.953260 1.869388 0.255269 0.000000000000000e+00 1701537140
-0.958955 1.870235 0.326921 0.000000000000000e+00 1701537140
-0.956353 1.865753 0.397718 0.000000000000000e+00 1701537140
-0.943357 1.854605 0.467225 0.000000000000000e+00 1701537140
-0.893717 1.819810 0.535845 0.000000000000000e+00 1701537140
-0.969458 1.865854 0.609319 0.000000000000000e+00 1851878480
-0.954438 1.853372 0.679450 0.000000000000000e+00 1851878480
-0.929196 1.834231 0.750957 0.000000000000000e+00 1851878480
-0.891486 1.806913 0.825472 0.000000000000000e+00 1851878480
-0.674251 1.662802 0.919469 0.000000000000000e+00 1851878480
-0.269034 1.395769 1.049714 0.000000000000000e+00 1634431585
-0.752383 1.758604 0.071926 0.000000000000000e+00 1701537140
-0.901958 1.850504 0.175971 0.000000000000000e+00 1701537140
-0.946230 1.875781 0.255261 0.000000000000000e+00 1701537140
-0.953743 1.877750 0.327193 0.000000000000000e+00 1701537140
-0.951373 1.873418 0.398019 0.000000000000000e+00 1701537140
-0.929428 1.856595 0.466922 0.000000000000000e+00 1701537140
-0.878849 1.821391 0.535760 0.000000000000000e+00 1701537140
-0.966255 1.874575 0.609643 0.000000000000000e+00 1851878480
-0.951292 1.862188 0.679727 0.000000000000000e+00 1851878480
-0.926613 1.843509 0.751161 0.000000000000000e+00 1851878480
-0.889075 1.816455 0.825597 0.000000000000000e+00 1851878480
-0.665403 1.669104 0.920137 0.000000000000000e+00 1851878480
-0.243775 1.393162 1.052497 0.000000000000000e+00 1634431585
-0.885607 1.851236 0.174261 0.000000000000000e+00 1701537140
-0.931558 1.877364 0.254101 0.000000000000000e+00 1701537140
-0.947365 1.884529 0.327320 0.000000000000000e+00 1701537140
-0.940716 1.877485 0.397779 0.000000000000000e+00 1701537140
-0.915320 1.858547 0.466611 0.000000000000000e+00 1701537140
-0.973275 1.892585 0.540075 0.000000000000000e+00 1851878480
-0.962751 1.883091 0.609963 0.000000000000000e+00 1851878480
-0.948062 1.870934 0.680006 0.000000000000000e+00 1851878480
-0.924028 1.852766 0.751368 0.000000000000000e+00 1851878480
-0.886599 1.825934 0.825729 0.000000000000000e+00 1851878480
-0.656450 1.675368 0.920819 0.000000000000000e+00 1851878480
-0.217365 1.389976 1.055426 0.000000000000000e+00 1634431585
-0.867963 1.851254 0.172328 0.000000000000000e+00 1701537140
-0.916665 1.878890 0.252913 0.000000000000000e+00 1701537140
-0.933064 1.886342 0.326474 0.000000000000000e+00 1701537140
-0.926540 1.879383 0.397208 0.000000000000000e+00 1701537140
-0.900888 1.860373 0.466282 0.000000000000000e+00 1701537140
-0.970483 1.901502 0.540460 0.000000000000000e+00 1851878480
-0.959152 1.891534 0.610284 0.000000000000000e+00 1851878480
-0.944727 1.879601 0.680289 0.000000000000000e+00 1851878480
-0.921309 1.861917 0.751583 0.000000000000000e+00 1851878480
-0.884117 1.835388 0.825866 0.000000000000000e+00 1851878480
-0.647173 1.681454 0.921537 0.000000000000000e+00 1851878480
-0.185391 1.383406 1.059057 0.000000000000000e+00 1634431585
-0.848798 1.850431 0.170133 0.000000000000000e+00 1701537140
-0.901422 1.880282 0.251679 0.000000000000000e+00 1701537140
-0.918561 1.888106 0.325609 0.000000000000000e+00 1701537140
-0.912152 1.881228 0.396621 0.000000000000000e+00 1701537140
-0.885995 1.861989 0.465928 0.000000000000000e+00 1701537140
-0.967696 1.910404 0.540846 0.000000000000000e+00 1851878480
-0.955507 1.899939 0.610605 0.000000000000000e+00 1851878480
-0.941330 1.888214 0.680575 0.000000000000000e+00 1851878480
-0.918531 1.871013 0.751803 0.000000000000000e+00 1851878480
-0.881506 1.844739 0.826015 0.000000000000000e+00 1851878480
-0.637760 1.687487 0.922273 0.000000000000000e+00 1851878480
-0.152473 1.376455 1.062806 0.000000000000000e+00 1634431585
-0.828520 1.849041 0.167751 0.000000000000000e+00 1701537140
-0.885645 1.881430 0.250371 0.000000000000000e+00 1701537140
-0.903766 1.889771 0.324713 0.000000000000000e+00 1701537140
-0.897438 1.882949 0.396009 0.000000000000000e+00 1701537140
-0.967937 1.923963 0.472065 0.000000000000000e+00 1851878480
-0.964771 1.919204 0.541227 0.000000000000000e+00 1851878480
-0.951787 1.908286 0.610925 0.000000000000000e+00 1851878480
-0.937827 1.896749 0.680864 0.000000000000000e+00 1851878480
-0.915740 1.880082 0.752025 0.000000000000000e+00 1851878480
-0.878780 1.853997 0.826175 0.000000000000000e+00 1851878480
-0.628052 1.693367 0.923040 0.000000000000000e+00 1851878480
-0.093574 1.353354 1.069820 0.000000000000000e+00 1634431585
-0.807313 1.847208 0.165216 0.000000000000000e+00 1701537140
-0.868879 1.882061 0.248922 0.000000000000000e+00 1701537140
-0.888527 1.891244 0.323769 0.000000000000000e+00 1701537140
-0.882180 1.884417 0.395350 0.000000000000000e+00 1701537140
-0.965062 1.932772 0.472499 0.000000000000000e+00 1851878480
-0.961081 1.927515 0.541577 0.000000000000000e+00 1851878480
-0.948037 1.916606 0.611247 0.000000000000000e+00 1851878480
-0.934285 1.905249 0.681155 0.000000000000000e+00 1851878480
-0.912741 1.889004 0.752259 0.000000000000000e+00 1851878480
-0.875769 1.863059 0.826358 0.000000000000000e+00 1851878480
-0.618204 1.699197 0.923826 0.000000000000000e+00 1851878480
-0.033593 1.330014 1.076964 0.000000000000000e+00 1634431585
-0.783620 1.843994 0.162254 0.000000000000000e+00 1701537140
-0.850935 1.882072 0.247306 0.000000000000000e+00 1701537140
-0.872466 1.892302 0.322732 0.000000000000000e+00 1701537140
-0.866033 1.885427 0.394614 0.000000000000000e+00 1701537140
-0.962193 1.941568 0.472932 0.000000000000000e+00 1851878480
-0.957017 1.935586 0.541912 0.000000000000000e+00 1851878480
-0.944214 1.924872 0.611568 0.000000000000000e+00 1851878480
-0.930621 1.913662 0.681449 0.000000000000000e+00 1851878480
-0.909725 1.897901 0.752497 0.000000000000000e+00 1851878480
-0.872070 1.871680 0.826594 0.000000000000000e+00 1851878480
-0.608269 1.705009 0.924623 0.000000000000000e+00 1851878480
0.078852 1.274494 1.090683 0.000000000000000e+00 1634431585
-0.756164 1.838657 0.158644 0.000000000000000e+00 1701537140
-0.832121 1.881663 0.245568 0.000000000000000e+00 1701537140
-0.855282 1.892769 0.321564 0.000000000000000e+00 1701537140
-0.955820 1.951026 0.403789 0.000000000000000e+00 1851878480
-0.959328 1.950352 0.473364 0.000000000000000e+00 1851878480
-0.952837 1.943581 0.542244 0.000000000000000e+00 1851878480
-0.940360 1.933112 0.611891 0.000000000000000e+00 1851878480
-0.926890 1.922026 0.681747 0.000000000000000e+00 1851878480
-0.906610 1.906722 0.752741 0.000000000000000e+00 1851878480
-0.865999 1.878830 0.826999 0.000000000000000e+00 1851878480
-0.598105 1.710718 0.925447 0.000000000000000e+00 1851878480
-0.726237 1.832019 0.154618 0.000000000000000e+00 1701537140
-0.812790 1.881058 0.243764 0.000000000000000e+00 1701537140
-0.945988 1.958459 0.333426 0.000000000000000e+00 1851878480
-0.952984 1.959833 0.404274 0.000000000000000e+00 1851878480
-0.955680 1.958646 0.473744 0.000000000000000e+00 1851878480
-0.948606 1.951541 0.542574 0.000000000000000e+00 1851878480
-0.936421 1.941292 0.612213 0.000000000000000e+00 1851878480
-0.923055 1.930318 0.682048 0.000000000000000e+00 1851878480
-0.903315 1.915419 0.752995 0.000000000000000e+00 1851878480
-0.859755 1.885885 0.827420 0.000000000000000e+00 1851878480
-0.587691 1.716313 0.926299 0.000000000000000e+00 1851878480
-0.791912 1.879646 0.241740 0.000000000000000e+00 1701537140
-0.943183 1.967305 0.333967 0.000000000000000e+00 1851878480
-0.950151 1.968627 0.404758 0.000000000000000e+00 1851878480
-0.951308 1.966496 0.474075 0.000000000000000e+00 1851878480
-0.944330 1.959470 0.542903 0.000000000000000e+00 1851878480
-0.932437 1.949440 0.612536 0.000000000000000e+00 1851878480
-0.919136 1.938551 0.682351 0.000000000000000e+00 1851878480
-0.900015 1.924101 0.753251 0.000000000000000e+00 1851878480
-0.853519 1.892956 0.827844 0.000000000000000e+00 1851878480
-0.577142 1.721869 0.927167 0.000000000000000e+00 1851878480
-0.920072 1.966929 0.261679 0.000000000000000e+00 1851878480
-0.940381 1.976138 0.334505 0.000000000000000e+00 1851878480
-0.947001 1.977217 0.405211 0.000000000000000e+00 1851878480
-0.946737 1.974226 0.474394 0.000000000000000e+00 1851878480
-0.939981 1.967352 0.543229 0.000000000000000e+00 1851878480
-0.928368 1.957530 0.612858 0.000000000000000e+00 1851878480
-0.915163 1.946746 0.682658 0.000000000000000e+00 1851878480
-0.896583 1.932692 0.753516 0.000000000000000e+00 1851878480
-0.847311 1.900056 0.828269 0.000000000000000e+00 1851878480
-0.566363 1.727328 0.928062 0.000000000000000e+00 1851878480
-0.917431 1.975931 0.262297 0.000000000000000e+00 1851878480
-0.937567 1.984948 0.335040 0.000000000000000e+00 1851878480
-0.942642 1.985078 0.405550 0.000000000000000e+00 1851878480
-0.942091 1.981910 0.474708 0.000000000000000e+00 1851878480
-0.935601 1.975214 0.543554 0.000000000000000e+00 1851878480
-0.924201 1.965558 0.613181 0.000000000000000e+00 1851878480
-0.911087 1.954874 0.682968 0.000000000000000e+00 1851878480
-0.893028 1.941199 0.753789 0.000000000000000e+00 1851878480
-0.841033 1.907125 0.828702 0.000000000000000e+00 1851878480
-0.555374 1.732706 0.928982 0.000000000000000e+00 1851878480
-0.914794 1.984919 0.262912 0.000000000000000e+00 1851878480
-0.933612 1.993074 0.335435 0.000000000000000e+00 1851878480
-0.937976 1.992757 0.405861 0.000000000000000e+00 1851878480
-0.937352 1.989540 0.475015 0.000000000000000e+00 1851878480
-0.931136 1.983023 0.543877 0.000000000000000e+00 1851878480
-0.919938 1.973525 0.613504 0.000000000000000e+00 1851878480
-0.906955 1.962964 0.683280 0.000000000000000e+00 1851878480
-0.889471 1.949696 0.754064 0.000000000000000e+00 1851878480
-0.834692 1.914169 0.829142 0.000000000000000e+00 1851878480
-0.544413 1.738147 0.929902 0.000000000000000e+00 1851878480
-0.854538 1.963337 0.182965 0.000000000000000e+00 1851878480
-0.911630 1.993585 0.263446 0.000000000000000e+00 1851878480
-0.928910 2.000759 0.335741 0.000000000000000e+00 1851878480
-0.933180 2.000361 0.406159 0.000000000000000e+00 1851878480
-0.932596 1.997160 0.475322 0.000000000000000e+00 1851878480
-0.926630 1.990807 0.544199 0.000000000000000e+00 1851878480
-0.915566 1.981425 0.613827 0.000000000000000e+00 1851878480
-0.902782 1.971025 0.683595 0.000000000000000e+00 1851878480
-0.885773 1.958100 0.754347 0.000000000000000e+00 1851878480
-0.828064 1.921056 0.829606 0.000000000000000e+00 1851878480
-0.533181 1.743474 0.930852 0.000000000000000e+00 1851878480
-0.852642 1.972961 0.183780 0.000000000000000e+00 1851878480
-0.907252 2.001537 0.263801 0.000000000000000e+00 1851878480
-0.923999 2.008325 0.336020 0.000000000000000e+00 1851878480
-0.928313 2.007926 0.406450 0.000000000000000e+00 1851878480
-0.927741 2.004726 0.475622 0.000000000000000e+00 1851878480
-0.922019 1.998530 0.544518 0.000000000000000e+00 1851878480
-0.911119 1.989279 0.614151 0.000000000000000e+00 1851878480
-0.898560 1.979054 0.683913 0.000000000000000e+00 1851878480
-0.881930 1.966412 0.754640 0.000000000000000e+00 1851878480
-0.821164 1.927800 0.830093 0.000000000000000e+00 1851878480
-0.521739 1.748726 0.931827 0.000000000000000e+00 1851878480
-0.850622 1.982492 0.184569 0.000000000000000e+00 1851878480
-0.902521 2.009286 0.264102 0.000000000000000e+00 1851878480
-0.919019 2.015853 0.336290 0.000000000000000e+00 1851878480
-0.923398 2.015465 0.406737 0.000000000000000e+00 1851878480
-0.922877 2.012289 0.475922 0.000000000000000e+00 1851878480
-0.917349 2.006219 0.544835 0.000000000000000e+00 1851878480
-0.906546 1.997059 0.614474 0.000000000000000e+00 1851878480
-0.894341 1.987083 0.684232 0.000000000000000e+00 1851878480
-0.877930 1.974627 0.754941 0.000000000000000e+00 1851878480
-0.814066 1.934445 0.830597 0.000000000000000e+00 1851878480
-0.509824 1.753751 0.932851 0.000000000000000e+00 1851878480
-0.847803 1.991546 0.185215 0.000000000000000e+00 1851878480
-0.897706 2.016987 0.264390 0.000000000000000e+00 1851878480
-0.913930 2.023324 0.336546 0.000000000000000e+00 1851878480
-0.918406 2.022964 0.407015 0.000000000000000e+00 1851878480
-0.917923 2.019803 0.476216 0.000000000000000e+00 1851878480
-0.912519 2.013817 0.545147 0.000000000000000e+00 1851878480
-0.901919 2.004809 0.614798 0.000000000000000e+00 1851878480
-0.890091 1.995090 0.684554 0.000000000000000e+00 1851878480
-0.873745 1.982730 0.755253 0.000000000000000e+00 1851878480
-0.806815 1.941021 0.831115 0.000000000000000e+00 1851878480
-0.497202 1.758420 0.933949 0.000000000000000e+00 1851878480
-0.842543 1.999207 0.185438 0.000000000000000e+00 1851878480
-0.892777 2.024626 0.264659 0.000000000000000e+00 1851878480
-0.908781 2.030764 0.336794 0.000000000000000e+00 1851878480
-0.913372 2.030443 0.407290 0.000000000000000e+00 1851878480
-0.912906 2.027284 0.476506 0.000000000000000e+00 1851878480
-0.907621 2.021379 0.545457 0.000000000000000e+00 1851878480
-0.897222 2.012520 0.615123 0.000000000000000e+00 1851878480
-0.885712 2.003021 0.684880 0.000000000000000e+00 1851878480
-0.869078 1.990552 0.755589 0.000000000000000e+00 1851878480
-0.799409 1.947528 0.831647 0.000000000000000e+00 1851878480
-0.483445 1.762494 0.935160 0.000000000000000e+00 1851878480
-0.836467 2.006417 0.185520 0.000000000000000e+00 1851878480
-0.887830 2.032260 0.264924 0.000000000000000e+00 1851878480
-0.903559 2.038170 0.337033 0.000000000000000e+00 1851878480
-0.908266 2.037886 0.407558 0.000000000000000e+00 1851878480
-0.907815 2.034728 0.476792 0.000000000000000e+00 1851878480
-0.902587 2.028868 0.545763 0.000000000000000e+00 1851878480
-0.892466 2.020199 0.615448 0.000000000000000e+00 1851878480
-0.881302 2.010934 0.685208 0.000000000000000e+00 1851878480
-0.863703 1.997973 0.755958 0.000000000000000e+00 1851878480
-0.791835 1.953962 0.832194 0.000000000000000e+00 1851878480
-0.468010 1.765678 0.936538 0.000000000000000e+00 1851878480
-0.829909 2.013371 0.185518 0.000000000000000e+00 1851878480
-0.882782 2.039840 0.265172 0.000000000000000e+00 1851878480
-0.898278 2.045549 0.337265 0.000000000000000e+00 1851878480
-0.903080 2.045290 0.407819 0.000000000000000e+00 1851878480
-0.902573 2.042094 0.477069 0.000000000000000e+00 1851878480
-0.897452 2.036305 0.546066 0.000000000000000e+00 1851878480
-0.887727 2.027890 0.615775 0.000000000000000e+00 1851878480
-0.876724 2.018752 0.685541 0.000000000000000e+00 1851878480
-0.857585 2.004981 0.756361 0.000000000000000e+00 1851878480
-0.784251 1.960413 0.832745 0.000000000000000e+00 1851878480
-0.451055 1.768078 0.938067 0.000000000000000e+00 1851878480
-0.822893 2.020087 0.185437 0.000000000000000e+00 1851878480
-0.877688 2.047399 0.265413 0.000000000000000e+00 1851878480
-0.892889 2.052874 0.337482 0.000000000000000e+00 1851878480
-0.897797 2.052646 0.408070 0.000000000000000e+00 1851878480
-0.897241 2.049415 0.477341 0.000000000000000e+00 1851878480
-0.892250 2.043709 0.546367 0.000000000000000e+00 1851878480
-0.882916 2.035542 0.616102 0.000000000000000e+00 1851878480
-0.872045 2.026514 0.685877 0.000000000000000e+00 1851878480
-0.853295 2.013028 0.756688 0.000000000000000e+00 1851878480
-0.776560 1.966828 0.833307 0.000000000000000e+00 1851878480
-0.433666 1.770328 0.939643 0.000000000000000e+00 1851878480
-0.815371 2.026545 0.185269 0.000000000000000e+00 1851878480
-0.872423 2.054871 0.265628 0.000000000000000e+00 1851878480
-0.887437 2.060172 0.337692 0.000000000000000e+00 1851878480
-0.892374 2.059932 0.408309 0.000000000000000e+00 1851878480
-0.891786 2.056675 0.477605 0.000000000000000e+00 1851878480
-0.886955 2.051069 0.546666 0.000000000000000e+00 1851878480
-0.878121 2.043207 0.616431 0.000000000000000e+00 1851878480
-0.867234 2.034203 0.686218 0.000000000000000e+00 1851878480
-0.844478 2.018549 0.757215 0.000000000000000e+00 1851878480
-0.768791 1.973223 0.833878 0.000000000000000e+00 1851878480
-0.415688 1.772344 0.941279 0.000000000000000e+00 1851878480
-0.807615 2.032900 0.185061 0.000000000000000e+00 1851878480
-0.867009 2.062267 0.265820 0.000000000000000e+00 1851878480
-0.881804 2.067380 0.337881 0.000000000000000e+00 1851878480
-0.886837 2.067163 0.408538 0.000000000000000e+00 1851878480
-0.886220 2.063883 0.477862 0.000000000000000e+00 1851878480
-0.881623 2.058416 0.546965 0.000000000000000e+00 1851878480
-0.873234 2.050825 0.616761 0.000000000000000e+00 1851878480
-0.862056 2.041694 0.686567 0.000000000000000e+00 1851878480
-0.835215 2.023857 0.757763 0.000000000000000e+00 1851878480
-0.760887 1.979568 0.834461 0.000000000000000e+00 1851878480
-0.396965 1.774046 0.942990 0.000000000000000e+00 1851878480
-0.799605 2.039142 0.184811 0.000000000000000e+00 1851878480
-0.861417 2.069575 0.265986 0.000000000000000e+00 1851878480
-0.876059 2.074537 0.338056 0.000000000000000e+00 1851878480
-0.881189 2.074343 0.408757 0.000000000000000e+00 1851878480
-0.880598 2.071070 0.478117 0.000000000000000e+00 1851878480
-0.876298 2.065773 0.547265 0.000000000000000e+00 1851878480
-0.868327 2.058435 0.617092 0.000000000000000e+00 1851878480
-0.855772 2.048584 0.686937 0.000000000000000e+00 1851878480
-0.825757 2.029095 0.758324 0.000000000000000e+00 1851878480
-0.752867 1.985876 0.835057 0.000000000000000e+00 1851878480
-0.377881 1.775656 0.944741 0.000000000000000e+00 1851878480
-0.790908 2.045045 0.184444 0.000000000000000e+00 1851878480
-0.855730 2.076841 0.266137 0.000000000000000e+00 1851878480
-0.870183 2.081635 0.338215 0.000000000000000e+00 1851878480
-0.875411 2.081464 0.408964 0.000000000000000e+00 1851878480
-0.874908 2.078231 0.478368 0.000000000000000e+00 1851878480
-0.870921 2.073111 0.547564 0.000000000000000e+00 1851878480
-0.863341 2.066007 0.617423 0.000000000000000e+00 1851878480
-0.822468 2.040762 0.687774 0.000000000000000e+00 1851878480
-0.816246 2.034344 0.758890 0.000000000000000e+00 1851878480
-0.744708 1.992136 0.835665 0.000000000000000e+00 1851878480
-0.358711 1.777327 0.946503 0.000000000000000e+00 1851878480
-0.780213 2.049914 0.183743 0.000000000000000e+00 1851878480
-0.849994 2.084092 0.266281 0.000000000000000e+00 1851878480
-0.864170 2.088671 0.338358 0.000000000000000e+00 1851878480
-0.869588 2.088572 0.409168 0.000000000000000e+00 1851878480
-0.869169 2.085376 0.478617 0.000000000000000e+00 1851878480
-0.865547 2.080458 0.547864 0.000000000000000e+00 1851878480
-0.858226 2.073514 0.617755 0.000000000000000e+00 1851878480
-0.812728 2.045917 0.688211 0.000000000000000e+00 1851878480
-0.806720 2.039624 0.759460 0.000000000000000e+00 1851878480
-0.736410 1.998347 0.836287 0.000000000000000e+00 1851878480
-0.339120 1.778879 0.948310 0.000000000000000e+00 1851878480
-0.768425 2.054254 0.182860 0.000000000000000e+00 1851878480
-0.844305 2.091379 0.266430 0.000000000000000e+00 1851878480
-0.858109 2.095695 0.338496 0.000000000000000e+00 1851878480
-0.863675 2.095643 0.409363 0.000000000000000e+00 1851878480
-0.863437 2.092536 0.478867 0.000000000000000e+00 1851878480
-0.860085 2.087767 0.548162 0.000000000000000e+00 1851878480
-0.852895 2.080912 0.618087 0.000000000000000e+00 1851878480
-0.802603 2.050907 0.688658 0.000000000000000e+00 1851878480
-0.797203 2.044950 0.760032 0.000000000000000e+00 1851878480
-0.727954 2.004503 0.836923 0.000000000000000e+00 1851878480
-0.316971 1.779159 0.950369 0.000000000000000e+00 1851878480
-0.756157 2.058399 0.181899 0.000000000000000e+00 1851878480
-0.838516 2.098624 0.266564 0.000000000000000e+00 1851878480
-0.851959 2.102686 0.338623 0.000000000000000e+00 1851878480
-0.857756 2.102724 0.409559 0.000000000000000e+00 1851878480
-0.857675 2.099691 0.479115 0.000000000000000e+00 1851878480
-0.854593 2.095069 0.548460 0.000000000000000e+00 1851878480
-0.846501 2.087752 0.618410 0.000000000000000e+00 1851878480
0.935230 1.134466 0.719372 0.000000000000000e+00 1851878480
-0.787771 2.050360 0.760604 0.000000000000000e+00 1851878480
-0.719326 2.010598 0.837575 0.000000000000000e+00 1851878480
-0.143287 1.698232 0.967123 0.000000000000000e+00 1634431585
-0.742947 2.062114 0.180785 0.000000000000000e+00 1851878480
-0.832654 2.105843 0.266687 0.000000000000000e+00 1851878480
-0.845810 2.109692 0.338751 0.000000000000000e+00 1851878480
-0.851832 2.109816 0.409755 0.000000000000000e+00 1851878480
-0.851842 2.106821 0.479360 0.000000000000000e+00 1851878480
-0.849009 2.102332 0.548756 0.000000000000000e+00 1851878480
-0.812329 2.079932 0.618496 0.000000000000000e+00 1851878480
0.936468 1.150912 0.719844 0.000000000000000e+00 1851878480
-0.778334 2.055807 0.761180 0.000000000000000e+00 1851878480
-0.710632 2.016690 0.838235 0.000000000000000e+00 1851878480
-0.096826 1.686403 0.971542 0.000000000000000e+00 1634431585
-0.728572 2.065294 0.179481 0.000000000000000e+00 1851878480
-0.826546 2.112946 0.266774 0.000000000000000e+00 1851878480
-0.839632 2.116699 0.338875 0.000000000000000e+00 1851878480
-0.845861 2.116897 0.409946 0.000000000000000e+00 1851878480
-0.845979 2.113948 0.479604 0.000000000000000e+00 1851878480
-0.843258 2.109519 0.549047 0.000000000000000e+00 1851878480
-0.789853 2.078477 0.618691 0.000000000000000e+00 1851878480
0.937679 1.167328 0.720317 0.000000000000000e+00 1851878480
-0.768910 2.061301 0.761758 0.000000000000000e+00 1851878480
-0.701852 2.022769 0.838904 0.000000000000000e+00 1851878480
-0.051488 1.675483 0.975855 0.000000000000000e+00 1634431585
-0.712864 2.067865 0.177961 0.000000000000000e+00 1851878480
-0.819879 2.119776 0.266783 0.000000000000000e+00 1851878480
-0.833378 2.123681 0.338990 0.000000000000000e+00 1851878480
-0.839832 2.123960 0.410133 0.000000000000000e+00 1851878480
-0.839958 2.121005 0.479839 0.000000000000000e+00 1851878480
-0.837153 2.116533 0.549327 0.000000000000000e+00 1851878480
-0.778235 2.082815 0.618983 0.000000000000000e+00 1851878480
0.938917 1.183685 0.720792 0.000000000000000e+00 1851878480
-0.759384 2.066780 0.762343 0.000000000000000e+00 1851878480
-0.692922 2.028803 0.839587 0.000000000000000e+00 1851878480
-0.006645 1.665130 0.980123 0.000000000000000e+00 1634431585
-0.696149 2.070010 0.176279 0.000000000000000e+00 1851878480
-0.812324 2.126171 0.266668 0.000000000000000e+00 1851878480
-0.827086 2.130659 0.339101 0.000000000000000e+00 1851878480
-0.833698 2.130985 0.410311 0.000000000000000e+00 1851878480
-0.833887 2.128051 0.480072 0.000000000000000e+00 1851878480
-0.806367 2.110833 0.548757 0.000000000000000e+00 1851878480
-0.766553 2.087176 0.619278 0.000000000000000e+00 1851878480
0.940182 1.199984 0.721271 0.000000000000000e+00 1851878480
-0.749760 2.072248 0.762937 0.000000000000000e+00 1851878480
-0.683923 2.034835 0.840279 0.000000000000000e+00 1851878480
0.082151 1.632159 0.988651 0.000000000000000e+00 1634431585
-0.675335 2.070174 0.173926 0.000000000000000e+00 1851878480
-0.803816 2.132108 0.266420 0.000000000000000e+00 1851878480
-0.820655 2.137583 0.339196 0.000000000000000e+00 1851878480
-0.827442 2.137962 0.410479 0.000000000000000e+00 1851878480
-0.827554 2.134978 0.480290 0.000000000000000e+00 1851878480
-0.772831 2.103928 0.548103 0.000000000000000e+00 1851878480
-0.754808 2.091561 0.619576 0.000000000000000e+00 1851878480
0.941472 1.216227 0.721751 0.000000000000000e+00 1851878480
-0.739905 2.077638 0.763544 0.000000000000000e+00 1851878480
-0.674724 2.040799 0.840989 0.000000000000000e+00 1851878480
-0.794784 2.137814 0.266101 0.000000000000000e+00 1851878480
-0.814097 2.144460 0.339278 0.000000000000000e+00 1851878480
-0.820899 2.144809 0.410623 0.000000000000000e+00 1851878480
-0.821009 2.141814 0.480496 0.000000000000000e+00 1851878480
-0.761137 2.108345 0.548207 0.000000000000000e+00 1851878480
-0.742996 2.095970 0.619877 0.000000000000000e+00 1851878480
0.942797 1.232410 0.722234 0.000000000000000e+00 1851878480
-0.729902 2.082994 0.764160 0.000000000000000e+00 1851878480
-0.665083 2.046574 0.841733 0.000000000000000e+00 1851878480
-0.785775 2.143569 0.265787 0.000000000000000e+00 1851878480
-0.807264 2.151218 0.339328 0.000000000000000e+00 1851878480
-0.814108 2.151552 0.410746 0.000000000000000e+00 1851878480
-0.814065 2.148467 0.480679 0.000000000000000e+00 1851878480
-0.749380 2.112787 0.548311 0.000000000000000e+00 1851878480
-0.731120 2.100403 0.620180 0.000000000000000e+00 1851878480
0.944206 1.248508 0.722721 0.000000000000000e+00 1851878480
-0.719477 2.088180 0.764799 0.000000000000000e+00 1851878480
-0.655257 2.052294 0.842494 0.000000000000000e+00 1851878480
-0.776514 2.149235 0.265439 0.000000000000000e+00 1851878480
-0.799632 2.157598 0.339289 0.000000000000000e+00 1851878480
-0.806502 2.157907 0.410800 0.000000000000000e+00 1851878480
-0.806636 2.154900 0.480835 0.000000000000000e+00 1851878480
-0.737557 2.117252 0.548416 0.000000000000000e+00 1851878480
-0.719177 2.104860 0.620487 0.000000000000000e+00 1851878480
0.945731 1.264507 0.723212 0.000000000000000e+00 1851878480
-0.708792 2.093281 0.765453 0.000000000000000e+00 1851878480
-0.645415 2.058047 0.843260 0.000000000000000e+00 1851878480
-0.766927 2.154780 0.265047 0.000000000000000e+00 1851878480
-0.789582 2.162814 0.338981 0.000000000000000e+00 1851878480
-0.798160 2.163927 0.410792 0.000000000000000e+00 1851878480
-0.797927 2.160724 0.480916 0.000000000000000e+00 1851878480
-0.725668 2.121743 0.548523 0.000000000000000e+00 1851878480
-0.707166 2.109342 0.620797 0.000000000000000e+00 1851878480
0.947411 1.280390 0.723708 0.000000000000000e+00 1851878480
-0.697882 2.098319 0.766120 0.000000000000000e+00 1851878480
-0.635511 2.063811 0.844033 0.000000000000000e+00 1851878480
-0.756988 2.160195 0.264609 0.000000000000000e+00 1851878480
-0.781082 2.168833 0.338849 0.000000000000000e+00 1870292837
-0.789129 2.169640 0.410727 0.000000000000000e+00 1851878480
-0.782143 2.163102 0.480579 0.000000000000000e+00 1851878480
-0.713713 2.126259 0.548631 0.000000000000000e+00 1851878480
-0.695088 2.113850 0.621110 0.000000000000000e+00 1851878480
0.949343 1.296111 0.724211 0.000000000000000e+00 1851878480
-0.686704 2.103274 0.766802 0.000000000000000e+00 1851878480
-0.625604 2.069616 0.844811 0.000000000000000e+00 1851878480
-0.746656 2.165462 0.264119 0.000000000000000e+00 1851878480
-0.788216 2.182481 0.340454 0.000000000000000e+00 1870292837
-0.779633 2.175164 0.410625 0.000000000000000e+00 1851878480
-0.767079 2.165920 0.480291 0.000000000000000e+00 1851878480
-0.701689 2.130800 0.548741 0.000000000000000e+00 1851878480
-0.682941 2.118383 0.621426 0.000000000000000e+00 1851878480
0.951550 1.311661 0.724721 0.000000000000000e+00 1851878480
-0.675357 2.108197 0.767496 0.000000000000000e+00 1851878480
-0.615691 2.075459 0.845593 0.000000000000000e+00 1851878480
-0.735854 2.170551 0.263568 0.000000000000000e+00 1851878480
-0.795066 2.195909 0.342019 0.000000000000000e+00 1870292837
-0.769795 2.180563 0.410496 0.000000000000000e+00 1851878480
-0.750851 2.168256 0.479938 0.000000000000000e+00 1851878480
-0.689598 2.135367 0.548851 0.000000000000000e+00 1851878480
-0.670723 2.122941 0.621745 0.000000000000000e+00 1851878480
0.953963 1.327078 0.725237 0.000000000000000e+00 1851878480
-0.663900 2.113121 0.768198 0.000000000000000e+00 1851878480
-0.605727 2.081320 0.846382 0.000000000000000e+00 1851878480
-0.724527 2.175439 0.262947 0.000000000000000e+00 1851878480
-0.701991 2.161453 0.332537 0.000000000000000e+00 1870292837
-0.759417 2.185747 0.410324 0.000000000000000e+00 1851878480
-0.715273 2.161383 0.478457 0.000000000000000e+00 1851878480
-0.677437 2.139960 0.548963 0.000000000000000e+00 1851878480
-0.658436 2.127525 0.622067 0.000000000000000e+00 1851878480
0.956479 1.342414 0.725757 0.000000000000000e+00 1851878480
-0.652368 2.118062 0.768907 0.000000000000000e+00 1851878480
-0.595667 2.087177 0.847181 0.000000000000000e+00 1851878480
-0.712620 2.180108 0.262250 0.000000000000000e+00 1851878480
-0.705616 2.173560 0.333761 0.000000000000000e+00 1870292837
-0.760020 2.196204 0.411078 0.000000000000000e+00 1870292837
-0.694227 2.161674 0.477839 0.000000000000000e+00 1851878480
-0.664619 2.144299 0.549057 0.000000000000000e+00 1851878480
-0.646077 2.132136 0.622393 0.000000000000000e+00 1851878480
0.959031 1.357704 0.726280 0.000000000000000e+00 1851878480
-0.640741 2.123012 0.769625 0.000000000000000e+00 1851878480
-0.585394 2.092973 0.848000 0.000000000000000e+00 1851878480
-0.700208 2.184597 0.261487 0.000000000000000e+00 1851878480
-0.709582 2.185771 0.335017 0.000000000000000e+00 1870292837
-0.760484 2.206562 0.411818 0.000000000000000e+00 1870292837
-0.674959 2.162933 0.477331 0.000000000000000e+00 1851878480
-0.651492 2.148555 0.549145 0.000000000000000e+00 1851878480
-0.633646 2.136773 0.622721 0.000000000000000e+00 1851878480
0.961651 1.372932 0.726807 0.000000000000000e+00 1851878480
-0.629001 2.127964 0.770350 0.000000000000000e+00 1851878480
-0.574281 2.098413 0.848881 0.000000000000000e+00 1851878480
-0.687411 2.188968 0.260676 0.000000000000000e+00 1851878480
-0.713632 2.197962 0.336277 0.000000000000000e+00 1870292837
-0.757649 2.215341 0.412279 0.000000000000000e+00 1870292837
-0.657770 2.165280 0.476950 0.000000000000000e+00 1851878480
-0.638279 2.152838 0.549234 0.000000000000000e+00 1851878480
-0.621141 2.141437 0.623053 0.000000000000000e+00 1851878480
0.964229 1.388152 0.727335 0.000000000000000e+00 1851878480
-0.617132 2.132910 0.771086 0.000000000000000e+00 1851878480
-0.562599 2.103632 0.849807 0.000000000000000e+00 1851878480
-0.674314 2.193266 0.259828 0.000000000000000e+00 1851878480
-0.717796 2.210147 0.337543 0.000000000000000e+00 1870292837
-0.659154 2.179653 0.404761 0.000000000000000e+00 1870292837
-0.644947 2.169759 0.476827 0.000000000000000e+00 1851878480
-0.624982 2.157148 0.549324 0.000000000000000e+00 1851878480
-0.608563 2.146128 0.623389 0.000000000000000e+00 1851878480
0.966758 1.403367 0.727865 0.000000000000000e+00 1851878480
-0.605117 2.137846 0.771832 0.000000000000000e+00 1851878480
-0.549822 2.108391 0.850815 0.000000000000000e+00 1851878480
-0.660346 2.197232 0.258867 0.000000000000000e+00 1851878480
-0.721941 2.222264 0.338800 0.000000000000000e+00 1870292837
