# .PCD v0.7 - Point Cloud Data file format
VERSION 0.7
FIELDS x y z rgb label
SIZE 4 4 4 4 4
TYPE F F F F U
COUNT 1 1 1 1 1
WIDTH 784
HEIGHT 1
VIEWPOINT 0 0 0 1 0 0 0
POINTS 784
DATA ascii
-1.071437 1.850124 0.539168 0.000000000000000e+00 1701537140
-0.848697 1.695917 0.604716 0.000000000000000e+00 1701537140
-1.030354 1.816857 0.676575 0.000000000000000e+00 1851878480
-0.949504 1.758994 0.749424 0.000000000000000e+00 1851878480
-0.917718 1.734472 0.824106 0.000000000000000e+00 1851878480
-0.646529 1.545949 0.924002 0.000000000000000e+00 1851878480
-0.364912 1.349667 1.040999 0.000000000000000e+00 1634431585
-0.911475 1.769803 0.093799 0.000000000000000e+00 1701537140
-0.934151 1.782128 0.171892 0.000000000000000e+00 1701537140
-0.811098 1.696792 0.225708 0.000000000000000e+00 1701537140
-0.833334 1.708793 0.304488 0.000000000000000e+00 1701537140
-1.017328 1.829663 0.398150 0.000000000000000e+00 1701537140
-1.024164 1.831578 0.468306 0.000000000000000e+00 1701537140
-1.080038 1.866610 0.540021 0.000000000000000e+00 1701537140
-0.848983 1.707767 0.605103 0.000000000000000e+00 1701537140
-1.015697 1.817786 0.676998 0.000000000000000e+00 1851878480
-0.931321 1.757867 0.750268 0.000000000000000e+00 1851878480
-0.923859 1.749986 0.823600 0.000000000000000e+00 1851878480
-0.645688 1.557906 0.923841 0.000000000000000e+00 1851878480
-0.354502 1.356332 1.041874 0.000000000000000e+00 1634431585
-0.885159 1.763690 0.089664 0.000000000000000e+00 1701537140
-0.946476 1.801584 0.175400 0.000000000000000e+00 1701537140
-0.958661 1.806897 0.249634 0.000000000000000e+00 1701537140
-0.827280 1.716446 0.304723 0.000000000000000e+00 1701537140
-1.009492 1.835307 0.398169 0.000000000000000e+00 1701537140
-1.029111 1.845738 0.469292 0.000000000000000e+00 1701537140
-1.067467 1.868781 0.539984 0.000000000000000e+00 1701537140
-0.824868 1.703178 0.605156 0.000000000000000e+00 1701537140
-1.021364 1.832472 0.677135 0.000000000000000e+00 1851878480
-0.933274 1.770424 0.750264 0.000000000000000e+00 1851878480
-0.896421 1.742735 0.825468 0.000000000000000e+00 1851878480
-0.628918 1.559049 0.925258 0.000000000000000e+00 1851878480
-0.322675 1.348530 1.045475 0.000000000000000e+00 1634431585
-0.876524 1.769425 0.089272 0.000000000000000e+00 1701537140
-0.949866 1.814982 0.177262 0.000000000000000e+00 1701537140
-0.972337 1.827050 0.252829 0.000000000000000e+00 1701537140
-0.825524 1.726954 0.305497 0.000000000000000e+00 1701537140
-1.015746 1.850332 0.399562 0.000000000000000e+00 1701537140
-1.031716 1.858254 0.470110 0.000000000000000e+00 1701537140
-1.052641 1.869515 0.539856 0.000000000000000e+00 1701537140
-0.810380 1.705176 0.605347 0.000000000000000e+00 1701537140
-1.004372 1.831921 0.677597 0.000000000000000e+00 1851878480
-0.924935 1.776026 0.750698 0.000000000000000e+00 1851878480
-0.903597 1.758889 0.824896 0.000000000000000e+00 1851878480
-0.609017 1.558186 0.926987 0.000000000000000e+00 1851878480
-0.316633 1.358297 1.045801 0.000000000000000e+00 1634431585
-0.871453 1.777524 0.089629 0.000000000000000e+00 1701537140
-0.927094 1.811134 0.174361 0.000000000000000e+00 1701537140
-0.967795 1.835061 0.253211 0.000000000000000e+00 1701537140
-0.996787 1.851380 0.327951 0.000000000000000e+00 1701537140
-1.033833 1.873066 0.402097 0.000000000000000e+00 1701537140
-1.024448 1.864179 0.470241 0.000000000000000e+00 1701537140
-1.057228 1.883185 0.540537 0.000000000000000e+00 1701537140
-0.927709 1.794644 0.607303 0.000000000000000e+00 1851878480
-0.990247 1.833377 0.678022 0.000000000000000e+00 1851878480
-0.929180 1.790027 0.750602 0.000000000000000e+00 1851878480
-0.906908 1.772362 0.824600 0.000000000000000e+00 1851878480
-0.614232 1.574206 0.926241 0.000000000000000e+00 1851878480
-0.316002 1.371679 1.045447 0.000000000000000e+00 1634431585
-0.823716 1.757847 0.081044 0.000000000000000e+00 1701537140
-0.940696 1.831157 0.178063 0.000000000000000e+00 1701537140
-0.979506 1.853683 0.256078 0.000000000000000e+00 1701537140
-0.994706 1.860863 0.328612 0.000000000000000e+00 1701537140
-1.038991 1.887126 0.403365 0.000000000000000e+00 1701537140
-1.013522 1.867724 0.470120 0.000000000000000e+00 1701537140
-1.024094 1.871969 0.539661 0.000000000000000e+00 1701537140
-0.929542 1.806979 0.607698 0.000000000000000e+00 1851878480
-1.007481 1.855601 0.677993 0.000000000000000e+00 1851878480
-0.927484 1.800020 0.750759 0.000000000000000e+00 1851878480
-0.885793 1.769591 0.826030 0.000000000000000e+00 1851878480
-0.611221 1.584676 0.926312 0.000000000000000e+00 1851878480
-0.299698 1.374602 1.047085 0.000000000000000e+00 1634431585
-0.810754 1.761025 0.079768 0.000000000000000e+00 1701537140
-0.939282 1.841292 0.179032 0.000000000000000e+00 1701537140
-0.967192 1.856573 0.255263 0.000000000000000e+00 1701537140
-0.989156 1.868065 0.328838 0.000000000000000e+00 1701537140
-1.046751 1.902794 0.404877 0.000000000000000e+00 1701537140
-1.005469 1.873194 0.470200 0.000000000000000e+00 1701537140
-1.026523 1.884228 0.540254 0.000000000000000e+00 1701537140
-0.911683 1.806370 0.607835 0.000000000000000e+00 1851878480
-1.015020 1.871278 0.678105 0.000000000000000e+00 1851878480
-0.922123 1.807578 0.751074 0.000000000000000e+00 1851878480
-0.898501 1.789201 0.825078 0.000000000000000e+00 1851878480
-0.605524 1.593354 0.926652 0.000000000000000e+00 1851878480
-0.263788 1.364674 1.051208 0.000000000000000e+00 1634431585
-0.789297 1.758812 0.076725 0.000000000000000e+00 1701537140
-0.910853 1.834012 0.175126 0.000000000000000e+00 1701537140
-0.952765 1.858163 0.254131 0.000000000000000e+00 1701537140
-0.980606 1.873336 0.328690 0.000000000000000e+00 1701537140
-1.021115 1.896754 0.403168 0.000000000000000e+00 1701537140
-1.016496 1.891051 0.471588 0.000000000000000e+00 1701537140
-1.026769 1.895007 0.540757 0.000000000000000e+00 1701537140
-0.909812 1.816262 0.608183 0.000000000000000e+00 1851878480
-1.012456 1.880271 0.678365 0.000000000000000e+00 1851878480
-0.910000 1.810728 0.751680 0.000000000000000e+00 1851878480
-0.876591 1.786041 0.826570 0.000000000000000e+00 1851878480
-0.588728 1.594769 0.928088 0.000000000000000e+00 1851878480
-0.251885 1.370737 1.052294 0.000000000000000e+00 1634431585
-0.762120 1.753088 0.072508 0.000000000000000e+00 1701537140
-0.897215 1.836386 0.173899 0.000000000000000e+00 1701537140
-0.950573 1.867668 0.254861 0.000000000000000e+00 1701537140
-0.989966 1.890125 0.330762 0.000000000000000e+00 1701537140
-1.015455 1.903725 0.403386 0.000000000000000e+00 1701537140
-0.993799 1.887068 0.470667 0.000000000000000e+00 1701537140
-1.008608 1.893876 0.540510 0.000000000000000e+00 1701537140
-0.921306 1.834759 0.608703 0.000000000000000e+00 1851878480
-1.008869 1.888582 0.678642 0.000000000000000e+00 1851878480
-0.923064 1.830258 0.751217 0.000000000000000e+00 1851878480
-0.896914 1.810436 0.825090 0.000000000000000e+00 1851878480
-0.579448 1.601165 0.928788 0.000000000000000e+00 1851878480
-0.232412 1.371918 1.054339 0.000000000000000e+00 1634431585
-0.716248 1.735702 0.064433 0.000000000000000e+00 1701537140
-0.875199 1.833514 0.171175 0.000000000000000e+00 1701537140
-0.944737 1.874832 0.255036 0.000000000000000e+00 1701537140
-0.982266 1.895922 0.330716 0.000000000000000e+00 1701537140
-0.991326 1.898917 0.401839 0.000000000000000e+00 1701537140
-0.996622 1.899553 0.471490 0.000000000000000e+00 1701537140
-0.997669 1.897485 0.540561 0.000000000000000e+00 1701537140
-0.906697 1.836368 0.608890 0.000000000000000e+00 1851878480
-0.993139 1.889079 0.679102 0.000000000000000e+00 1851878480
-0.909861 1.832726 0.751874 0.000000000000000e+00 1851878480
-0.888486 1.816076 0.825638 0.000000000000000e+00 1851878480
-0.575201 1.610842 0.928998 0.000000000000000e+00 1851878480
-0.194333 1.361171 1.058735 0.000000000000000e+00 1634431585
-0.874253 1.844075 0.172231 0.000000000000000e+00 1701537140
-0.932706 1.878088 0.254274 0.000000000000000e+00 1701537140
-0.988017 1.910257 0.332327 0.000000000000000e+00 1701537140
-1.005422 1.918506 0.403946 0.000000000000000e+00 1701537140
-0.984572 1.902528 0.471301 0.000000000000000e+00 1701537140
-1.088003 1.965571 0.544688 0.000000000000000e+00 1851878480
-0.903502 1.845333 0.609223 0.000000000000000e+00 1851878480
-0.977075 1.889455 0.679571 0.000000000000000e+00 1851878480
-0.919895 1.850123 0.751544 0.000000000000000e+00 1851878480
-0.898552 1.833591 0.824888 0.000000000000000e+00 1851878480
-0.561882 1.614686 0.930103 0.000000000000000e+00 1851878480
-0.175043 1.362772 1.060761 0.000000000000000e+00 1634431585
-0.847552 1.838468 0.168688 0.000000000000000e+00 1701537140
-0.917319 1.879300 0.253011 0.000000000000000e+00 1701537140
-0.957400 1.901640 0.329462 0.000000000000000e+00 1701537140
-0.989477 1.919017 0.403187 0.000000000000000e+00 1701537140
-0.954995 1.894506 0.469934 0.000000000000000e+00 1701537140
-1.082304 1.972165 0.544935 0.000000000000000e+00 1851878480
-0.897543 1.852534 0.609523 0.000000000000000e+00 1851878480
-0.997632 1.913149 0.679490 0.000000000000000e+00 1851878480
-0.921434 1.861996 0.751577 0.000000000000000e+00 1851878480
-0.886462 1.836880 0.825701 0.000000000000000e+00 1851878480
-0.552429 1.621060 0.930832 0.000000000000000e+00 1851878480
-0.151211 1.361581 1.063361 0.000000000000000e+00 1634431585
-0.826323 1.836448 0.166136 0.000000000000000e+00 1701537140
-0.900007 1.879400 0.251466 0.000000000000000e+00 1701537140
-0.941170 1.902223 0.328377 0.000000000000000e+00 1701537140
-0.987751 1.928517 0.403780 0.000000000000000e+00 1701537140
-0.957118 1.906557 0.470710 0.000000000000000e+00 1701537140
-1.067891 1.973300 0.544836 0.000000000000000e+00 1851878480
-0.893704 1.861075 0.609850 0.000000000000000e+00 1851878480
-0.991805 1.920010 0.679808 0.000000000000000e+00 1851878480
-0.889444 1.852657 0.753043 0.000000000000000e+00 1851878480
-0.888192 1.848965 0.825544 0.000000000000000e+00 1851878480
-0.563597 1.640523 0.929543 0.000000000000000e+00 1851878480
-0.104872 1.346259 1.068794 0.000000000000000e+00 1634431585
-0.802420 1.832911 0.163121 0.000000000000000e+00 1701537140
-0.884650 1.880815 0.250222 0.000000000000000e+00 1701537140
-0.944664 1.915136 0.329706 0.000000000000000e+00 1701537140
-0.966759 1.926020 0.402552 0.000000000000000e+00 1701537140
-1.030288 1.962772 0.476242 0.000000000000000e+00 1851878480
-1.076207 1.988688 0.545642 0.000000000000000e+00 1851878480
-0.885035 1.866591 0.610120 0.000000000000000e+00 1851878480
-0.997708 1.934219 0.679948 0.000000000000000e+00 1851878480
-0.917569 1.881228 0.751947 0.000000000000000e+00 1851878480
-0.883332 1.856855 0.825854 0.000000000000000e+00 1851878480
-0.524748 1.628383 0.933161 0.000000000000000e+00 1851878480
-0.049183 1.325379 1.075399 0.000000000000000e+00 1634431585
-0.778362 1.829437 0.160093 0.000000000000000e+00 1701537140
-0.873085 1.884648 0.249550 0.000000000000000e+00 1701537140
-0.925045 1.913741 0.328215 0.000000000000000e+00 1701537140
-0.930719 1.914373 0.399918 0.000000000000000e+00 1701537140
-1.030779 1.973401 0.476885 0.000000000000000e+00 1851878480
-1.079932 2.001125 0.546263 0.000000000000000e+00 1851878480
-0.892033 1.881858 0.610579 0.000000000000000e+00 1851878480
-0.981052 1.934317 0.680435 0.000000000000000e+00 1851878480
-0.911802 1.888419 0.752300 0.000000000000000e+00 1851878480
-0.872990 1.861326 0.826554 0.000000000000000e+00 1851878480
-0.513891 1.634013 0.934038 0.000000000000000e+00 1851878480
0.007414 1.304343 1.082113 0.000000000000000e+00 1634431585
-0.775992 1.839344 0.160908 0.000000000000000e+00 1701537140
-0.857413 1.886029 0.248270 0.000000000000000e+00 1701537140
-0.916387 1.919176 0.328063 0.000000000000000e+00 1701537140
-0.936680 1.928732 0.401241 0.000000000000000e+00 1701537140
-1.016370 1.974838 0.476534 0.000000000000000e+00 1851878480
-1.058022 1.997723 0.545875 0.000000000000000e+00 1851878480
-0.884675 1.888179 0.610867 0.000000000000000e+00 1851878480
-0.980788 1.944636 0.680673 0.000000000000000e+00 1851878480
-0.908115 1.896905 0.752566 0.000000000000000e+00 1851878480
-0.880361 1.876817 0.826010 0.000000000000000e+00 1851878480
-0.520321 1.650417 0.933228 0.000000000000000e+00 1851878480
0.115402 1.251765 1.095269 0.000000000000000e+00 1634431585
-0.741500 1.829777 0.156063 0.000000000000000e+00 1701537140
-0.841335 1.887252 0.246936 0.000000000000000e+00 1701537140
-0.897390 1.918359 0.326661 0.000000000000000e+00 1701537140
-1.025593 1.993505 0.410313 0.000000000000000e+00 1851878480
-1.025638 1.990797 0.477757 0.000000000000000e+00 1851878480
-1.055618 2.006385 0.546256 0.000000000000000e+00 1851878480
-0.881554 1.897114 0.611206 0.000000000000000e+00 1851878480
-0.979473 1.954273 0.680928 0.000000000000000e+00 1851878480
-0.895758 1.900055 0.753205 0.000000000000000e+00 1851878480
-0.880627 1.887833 0.825970 0.000000000000000e+00 1851878480
-0.510275 1.656563 0.934035 0.000000000000000e+00 1851878480
-0.699503 1.815943 0.149923 0.000000000000000e+00 1701537140
-0.808398 1.878412 0.243113 0.000000000000000e+00 1701537140
-0.986088 1.982662 0.338266 0.000000000000000e+00 1851878480
-1.021803 2.001447 0.410689 0.000000000000000e+00 1851878480
-1.006567 1.989474 0.477103 0.000000000000000e+00 1851878480
-1.057666 2.017730 0.546810 0.000000000000000e+00 1851878480
-0.879333 1.906582 0.611557 0.000000000000000e+00 1851878480
-0.955962 1.950362 0.681532 0.000000000000000e+00 1851878480
-0.900882 1.913934 0.753099 0.000000000000000e+00 1851878480
-0.866658 1.890105 0.826935 0.000000000000000e+00 1851878480
-0.496508 1.660467 0.935210 0.000000000000000e+00 1851878480
-0.782631 1.874093 0.240369 0.000000000000000e+00 1701537140
-0.970062 1.983418 0.337202 0.000000000000000e+00 1851878480
-1.004320 2.001159 0.409791 0.000000000000000e+00 1851878480
-1.023940 2.010198 0.478852 0.000000000000000e+00 1851878480
-1.052632 2.024754 0.547089 0.000000000000000e+00 1851878480
-0.885434 1.921055 0.612002 0.000000000000000e+00 1851878480
-0.981294 1.976157 0.681372 0.000000000000000e+00 1851878480
-0.901364 1.924919 0.753193 0.000000000000000e+00 1851878480
-0.841076 1.885400 0.828719 0.000000000000000e+00 1851878480
-0.480136 1.662855 0.936642 0.000000000000000e+00 1851878480
-0.917266 1.965261 0.261265 0.000000000000000e+00 1851878480
-0.969833 1.993672 0.338040 0.000000000000000e+00 1851878480
-1.011658 2.015783 0.411200 0.000000000000000e+00 1851878480
-1.020192 2.018121 0.479207 0.000000000000000e+00 1851878480
-1.064818 2.042090 0.548030 0.000000000000000e+00 1851878480
-0.883690 1.930733 0.612358 0.000000000000000e+00 1851878480
-0.961747 1.974739 0.681919 0.000000000000000e+00 1851878480
-0.880931 1.923270 0.754188 0.000000000000000e+00 1851878480
-0.845552 1.898995 0.828392 0.000000000000000e+00 1851878480
-0.479943 1.675108 0.936499 0.000000000000000e+00 1851878480
-0.925277 1.980561 0.263449 0.000000000000000e+00 1851878480
-0.968380 2.003167 0.338727 0.000000000000000e+00 1851878480
-1.015656 2.028330 0.412292 0.000000000000000e+00 1851878480
-1.004143 2.018737 0.478758 0.000000000000000e+00 1851878480
-1.043242 2.039217 0.547673 0.000000000000000e+00 1851878480
-0.857115 1.925594 0.612439 0.000000000000000e+00 1851878480
-0.967369 1.988464 0.682070 0.000000000000000e+00 1851878480
-0.900489 1.945660 0.753468 0.000000000000000e+00 1851878480
-0.832287 1.901886 0.829317 0.000000000000000e+00 1851878480
-0.479218 1.686999 0.936412 0.000000000000000e+00 1851878480
-0.913519 1.984172 0.262725 0.000000000000000e+00 1851878480
-0.951093 2.003338 0.337521 0.000000000000000e+00 1851878480
-1.007888 2.033887 0.412296 0.000000000000000e+00 1851878480
-0.982285 2.016023 0.477937 0.000000000000000e+00 1851878480
-1.028525 2.040533 0.547585 0.000000000000000e+00 1851878480
-0.855184 1.935213 0.612797 0.000000000000000e+00 1851878480
-0.959660 1.994204 0.682435 0.000000000000000e+00 1851878480
-0.876407 1.941938 0.754626 0.000000000000000e+00 1851878480
-0.835636 1.914731 0.829076 0.000000000000000e+00 1851878480
-0.442818 1.677585 0.939809 0.000000000000000e+00 1851878480
-0.843615 1.956993 0.181071 0.000000000000000e+00 1851878480
-0.906955 1.990864 0.262763 0.000000000000000e+00 1851878480
-0.963714 2.021054 0.339882 0.000000000000000e+00 1851878480
-0.981147 2.028385 0.410560 0.000000000000000e+00 1851878480
-0.984397 2.027483 0.478678 0.000000000000000e+00 1851878480
-1.044394 2.059871 0.548660 0.000000000000000e+00 1851878480
-0.863403 1.950774 0.613265 0.000000000000000e+00 1851878480
-0.958565 2.003864 0.682695 0.000000000000000e+00 1851878480
-0.873390 1.950797 0.754881 0.000000000000000e+00 1851878480
-0.843151 1.929972 0.828545 0.000000000000000e+00 1851878480
-0.437213 1.686655 0.940206 0.000000000000000e+00 1851878480
-0.823034 1.955883 0.178659 0.000000000000000e+00 1851878480
-0.920853 2.009398 0.265783 0.000000000000000e+00 1851878480
-0.938509 2.016727 0.337742 0.000000000000000e+00 1851878480
-0.998047 2.048385 0.412829 0.000000000000000e+00 1851878480
-0.988118 2.039824 0.479520 0.000000000000000e+00 1851878480
-1.023590 2.057687 0.548346 0.000000000000000e+00 1851878480
-0.852356 1.954988 0.613526 0.000000000000000e+00 1851878480
-0.934389 2.000002 0.683331 0.000000000000000e+00 1851878480
-0.877360 1.963735 0.754837 0.000000000000000e+00 1851878480
-0.810321 1.921436 0.830856 0.000000000000000e+00 1851878480
-0.429767 1.694644 0.940787 0.000000000000000e+00 1851878480
-0.830306 1.970855 0.181064 0.000000000000000e+00 1851878480
-0.914558 2.016194 0.265852 0.000000000000000e+00 1851878480
-0.956374 2.037334 0.340710 0.000000000000000e+00 1851878480
-0.979053 2.047532 0.411811 0.000000000000000e+00 1851878480
-0.991521 2.051915 0.480337 0.000000000000000e+00 1851878480
-1.023186 2.067434 0.548804 0.000000000000000e+00 1851878480
-0.841179 1.959178 0.613788 0.000000000000000e+00 1851878480
-0.942484 2.015036 0.683446 0.000000000000000e+00 1851878480
-0.869571 1.969764 0.755302 0.000000000000000e+00 1851878480
-0.832414 1.945139 0.829306 0.000000000000000e+00 1851878480
-0.404678 1.692346 0.943090 0.000000000000000e+00 1851878480
-0.843046 1.988841 0.184397 0.000000000000000e+00 1851878480
-0.896131 2.016090 0.264161 0.000000000000000e+00 1851878480
-0.934312 2.034962 0.338951 0.000000000000000e+00 1851878480
-0.994240 2.066352 0.413909 0.000000000000000e+00 1851878480
-0.984696 2.058080 0.480495 0.000000000000000e+00 1851878480
-1.023520 2.077573 0.549288 0.000000000000000e+00 1851878480
-0.850238 1.975067 0.614263 0.000000000000000e+00 1851878480
-0.936764 2.022003 0.683787 0.000000000000000e+00 1851878480
-0.871245 1.981285 0.755361 0.000000000000000e+00 1851878480
-0.799776 1.936946 0.831610 0.000000000000000e+00 1851878480
-0.407030 1.706121 0.942725 0.000000000000000e+00 1851878480
-0.823305 1.988343 0.182136 0.000000000000000e+00 1851878480
-0.895535 2.026188 0.265058 0.000000000000000e+00 1851878480
-0.944879 2.051232 0.341042 0.000000000000000e+00 1851878480
-0.973148 2.064404 0.412707 0.000000000000000e+00 1851878480
-0.980595 2.065816 0.480828 0.000000000000000e+00 1851878480
-1.030243 2.091319 0.550008 0.000000000000000e+00 1851878480
-0.854584 1.988153 0.614688 0.000000000000000e+00 1851878480
-0.939670 2.033919 0.683988 0.000000000000000e+00 1851878480
-0.849412 1.979269 0.756440 0.000000000000000e+00 1851878480
-0.786364 1.940030 0.832564 0.000000000000000e+00 1851878480
-0.388720 1.707934 0.944375 0.000000000000000e+00 1851878480
-0.823712 1.999265 0.183336 0.000000000000000e+00 1851878480
-0.897849 2.037889 0.266369 0.000000000000000e+00 1851878480
-0.939311 2.058299 0.341228 0.000000000000000e+00 1851878480
-0.970244 2.072851 0.413157 0.000000000000000e+00 1851878480
-0.959442 2.063911 0.480076 0.000000000000000e+00 1851878480
-1.011696 2.090666 0.549792 0.000000000000000e+00 1851878480
-0.829898 1.984691 0.614819 0.000000000000000e+00 1851878480
-0.930345 2.038821 0.684393 0.000000000000000e+00 1851878480
-0.856894 1.994094 0.756253 0.000000000000000e+00 1851878480
-0.808253 1.963334 0.831039 0.000000000000000e+00 1851878480
-0.377485 1.713896 0.945341 0.000000000000000e+00 1851878480
-0.809733 2.002137 0.182071 0.000000000000000e+00 1851878480
-0.881149 2.038929 0.264938 0.000000000000000e+00 1851878480
-0.931998 2.064399 0.341210 0.000000000000000e+00 1851878480
-0.974804 2.085468 0.414278 0.000000000000000e+00 1851878480
-0.966473 2.077960 0.481119 0.000000000000000e+00 1851878480
-0.993587 2.090372 0.549598 0.000000000000000e+00 1851878480
-0.844090 2.003299 0.615342 0.000000000000000e+00 1851878480
-0.929957 2.048810 0.684651 0.000000000000000e+00 1851878480
-0.848368 1.999767 0.756761 0.000000000000000e+00 1851878480
-0.772673 1.953849 0.833559 0.000000000000000e+00 1851878480
-0.351746 1.711667 0.947721 0.000000000000000e+00 1851878480
-0.813541 2.014918 0.183843 0.000000000000000e+00 1851878480
-0.877329 2.047201 0.265362 0.000000000000000e+00 1851878480
-0.928290 2.072524 0.341613 0.000000000000000e+00 1851878480
-0.966982 2.091127 0.414281 0.000000000000000e+00 1851878480
-0.962800 2.085952 0.481480 0.000000000000000e+00 1851878480
-1.015390 2.112477 0.550868 0.000000000000000e+00 1851878480
-0.819470 2.000040 0.615482 0.000000000000000e+00 1851878480
-0.911561 2.048670 0.685213 0.000000000000000e+00 1851878480
-0.843665 2.007618 0.757107 0.000000000000000e+00 1851878480
-0.771133 1.963772 0.833689 0.000000000000000e+00 1851878480
-0.350003 1.723135 0.947772 0.000000000000000e+00 1851878480
-0.789899 2.012565 0.180938 0.000000000000000e+00 1851878480
-0.887828 2.063343 0.267833 0.000000000000000e+00 1851878480
-0.932655 2.085093 0.342954 0.000000000000000e+00 1851878480
-0.948233 2.090780 0.413308 0.000000000000000e+00 1851878480
-0.966209 2.097859 0.482286 0.000000000000000e+00 1851878480
-1.001346 2.114499 0.550826 0.000000000000000e+00 1851878480
-0.812908 2.006974 0.615803 0.000000000000000e+00 1851878480
-0.915558 2.061108 0.685401 0.000000000000000e+00 1851878480
-0.835676 2.013638 0.757597 0.000000000000000e+00 1851878480
-0.786645 1.983204 0.832621 0.000000000000000e+00 1851878480
-0.329477 1.724054 0.949653 0.000000000000000e+00 1851878480
-0.799577 2.028520 0.183698 0.000000000000000e+00 1851878480
-0.873544 2.065835 0.266753 0.000000000000000e+00 1851878480
-0.917213 2.086755 0.341989 0.000000000000000e+00 1851878480
-0.978859 2.117620 0.416748 0.000000000000000e+00 1851878480
-0.943295 2.095243 0.481440 0.000000000000000e+00 1851878480
-1.006129 2.126964 0.551469 0.000000000000000e+00 1851878480
-0.812773 2.017469 0.616187 0.000000000000000e+00 1851878480
-0.912781 2.069736 0.685704 0.000000000000000e+00 1851878480
-0.825438 2.018441 0.758189 0.000000000000000e+00 1851878480
-0.754740 1.976157 0.834894 0.000000000000000e+00 1851878480
-0.295163 1.717423 0.952875 0.000000000000000e+00 1851878480
-0.770077 2.023168 0.179815 0.000000000000000e+00 1851878480
-0.856225 2.066760 0.265247 0.000000000000000e+00 1851878480
-0.910743 2.093379 0.342069 0.000000000000000e+00 1851878480
-0.958788 2.116587 0.415658 0.000000000000000e+00 1851878480
-0.949737 2.108787 0.482434 0.000000000000000e+00 1851878480
-0.975183 2.119828 0.550823 0.000000000000000e+00 1851878480
-0.801024 2.021569 0.616463 0.000000000000000e+00 1851878480
-0.906090 2.076203 0.686076 0.000000000000000e+00 1851878480
-0.813507 2.022357 0.758858 0.000000000000000e+00 1851878480
-0.753847 1.986417 0.834988 0.000000000000000e+00 1851878480
-0.282290 1.722862 0.954020 0.000000000000000e+00 1851878480
-0.771226 2.034474 0.181122 0.000000000000000e+00 1851878480
-0.860358 2.079333 0.266795 0.000000000000000e+00 1851878480
-0.901150 2.098337 0.341788 0.000000000000000e+00 1851878480
-0.950776 2.122197 0.415646 0.000000000000000e+00 1851878480
-0.940969 2.114010 0.482478 0.000000000000000e+00 1851878480
-0.969659 2.126699 0.551098 0.000000000000000e+00 1851878480
-0.790513 2.026398 0.616753 0.000000000000000e+00 1851878480
-0.873007 2.068306 0.686904 0.000000000000000e+00 1851878480
-0.796658 2.023646 0.759745 0.000000000000000e+00 1851878480
-0.730573 1.984400 0.836660 0.000000000000000e+00 1851878480
-0.269904 1.728626 0.955121 0.000000000000000e+00 1851878480
-0.772518 2.045811 0.182447 0.000000000000000e+00 1851878480
-0.853788 2.086119 0.266818 0.000000000000000e+00 1851878480
-0.891156 2.103120 0.341464 0.000000000000000e+00 1851878480
-0.936447 2.124447 0.415078 0.000000000000000e+00 1851878480
-0.939952 2.123436 0.483004 0.000000000000000e+00 1851878480
-0.984529 2.144570 0.552101 0.000000000000000e+00 1851878480
-0.797741 2.040854 0.617207 0.000000000000000e+00 1851878480
-0.858168 2.070504 0.687425 0.000000000000000e+00 1851878480
-0.798010 2.034902 0.759841 0.000000000000000e+00 1851878480
-0.739387 1.999965 0.836077 0.000000000000000e+00 1851878480
-0.240674 1.725274 0.957860 0.000000000000000e+00 1851878480
-0.762899 2.051329 0.181931 0.000000000000000e+00 1851878480
-0.860117 2.099766 0.268664 0.000000000000000e+00 1851878480
-0.901337 2.118673 0.343457 0.000000000000000e+00 1851878480
-0.942628 2.137701 0.416321 0.000000000000000e+00 1851878480
-0.919372 2.122396 0.482321 0.000000000000000e+00 1851878480
-0.976675 2.150137 0.552292 0.000000000000000e+00 1851878480
-0.799914 2.052510 0.617614 0.000000000000000e+00 1851878480
-0.851295 2.077065 0.687810 0.000000000000000e+00 1851878480
-0.785901 2.038866 0.760527 0.000000000000000e+00 1851878480
-0.732178 2.006782 0.836625 0.000000000000000e+00 1851878480
-0.219479 1.726452 0.959824 0.000000000000000e+00 1851878480
-0.745172 2.052628 0.180059 0.000000000000000e+00 1851878480
-0.837802 2.098248 0.266463 0.000000000000000e+00 1851878480
-0.900603 2.128354 0.344190 0.000000000000000e+00 1851878480
-0.919609 2.135433 0.414993 0.000000000000000e+00 1851878480
-0.926567 2.136201 0.483354 0.000000000000000e+00 1851878480
-0.985480 2.164581 0.553072 0.000000000000000e+00 1851878480
-0.776776 2.050643 0.617799 0.000000000000000e+00 1851878480
0.877295 1.165366 0.718357 0.000000000000000e+00 1851878480
-0.782768 2.047687 0.760824 0.000000000000000e+00 1851878480
-0.720868 2.011424 0.837466 0.000000000000000e+00 1851878480
-0.052033 1.649250 0.975970 0.000000000000000e+00 1634431585
-0.721901 2.051138 0.177267 0.000000000000000e+00 1851878480
-0.825316 2.102007 0.265655 0.000000000000000e+00 1851878480
-0.867408 2.121006 0.341216 0.000000000000000e+00 1851878480
-0.917715 2.144402 0.415525 0.000000000000000e+00 1851878480
-0.915229 2.140169 0.483246 0.000000000000000e+00 1851878480
-0.961712 2.161752 0.552706 0.000000000000000e+00 1851878480
-0.753303 2.048745 0.617987 0.000000000000000e+00 1851878480
0.903845 1.168186 0.719269 0.000000000000000e+00 1851878480
-0.783648 2.058627 0.760946 0.000000000000000e+00 1851878480
-0.708146 2.015368 0.838410 0.000000000000000e+00 1851878480
0.000140 1.634728 0.980941 0.000000000000000e+00 1634431585
-0.713851 2.057673 0.177026 0.000000000000000e+00 1851878480
-0.839508 2.119670 0.268592 0.000000000000000e+00 1851878480
-0.875333 2.135262 0.342938 0.000000000000000e+00 1851878480
-0.916836 2.153882 0.416143 0.000000000000000e+00 1851878480
-0.910837 2.147820 0.483565 0.000000000000000e+00 1851878480
-0.953792 2.167370 0.552901 0.000000000000000e+00 1851878480
-0.721181 2.042457 0.618108 0.000000000000000e+00 1851878480
0.884408 1.195330 0.719373 0.000000000000000e+00 1851878480
-0.754560 2.053741 0.762389 0.000000000000000e+00 1851878480
-0.705905 2.024909 0.838618 0.000000000000000e+00 1851878480
0.047090 1.623329 0.985407 0.000000000000000e+00 1634431585
-0.699558 2.061028 0.175747 0.000000000000000e+00 1851878480
-0.827493 2.123697 0.267848 0.000000000000000e+00 1851878480
-0.866542 2.140797 0.342755 0.000000000000000e+00 1851878480
-0.903488 2.156888 0.415674 0.000000000000000e+00 1851878480
-0.894876 2.149475 0.483180 0.000000000000000e+00 1851878480
-0.939080 2.169488 0.552862 0.000000000000000e+00 1851878480
-0.703707 2.044009 0.618362 0.000000000000000e+00 1851878480
0.886338 1.211122 0.719855 0.000000000000000e+00 1851878480
-0.733497 2.053242 0.763483 0.000000000000000e+00 1851878480
-0.698567 2.031761 0.839189 0.000000000000000e+00 1851878480
0.094106 1.612211 0.989884 0.000000000000000e+00 1634431585
-0.684249 2.063941 0.174304 0.000000000000000e+00 1851878480
-0.809948 2.124956 0.266336 0.000000000000000e+00 1851878480
-0.862560 2.148832 0.343117 0.000000000000000e+00 1851878480
-0.913483 2.171950 0.417235 0.000000000000000e+00 1851878480
-0.897241 2.160652 0.483912 0.000000000000000e+00 1851878480
-0.937707 2.178568 0.553288 0.000000000000000e+00 1851878480
-0.697737 2.051607 0.618714 0.000000000000000e+00 1851878480
0.893332 1.224252 0.720431 0.000000000000000e+00 1851878480
-0.746906 2.070766 0.763063 0.000000000000000e+00 1851878480
-0.682017 2.033843 0.840414 0.000000000000000e+00 1851878480
0.166158 1.588354 0.996788 0.000000000000000e+00 1634431585
-0.650589 2.057648 0.169828 0.000000000000000e+00 1851878480
-0.819556 2.140093 0.268611 0.000000000000000e+00 1851878480
-0.845133 2.150030 0.341960 0.000000000000000e+00 1851878480
-0.904769 2.177371 0.417169 0.000000000000000e+00 1851878480
-0.889753 2.166748 0.484046 0.000000000000000e+00 1851878480
-0.885581 2.161647 0.551972 0.000000000000000e+00 1851878480
-0.680026 2.053194 0.618974 0.000000000000000e+00 1851878480
0.892579 1.241368 0.720870 0.000000000000000e+00 1851878480
-0.716071 2.065356 0.764596 0.000000000000000e+00 1851878480
-0.674580 2.040725 0.840999 0.000000000000000e+00 1851878480
-0.795122 2.137985 0.266148 0.000000000000000e+00 1851878480
-0.839733 2.157398 0.342164 0.000000000000000e+00 1851878480
-0.890324 2.179927 0.416610 0.000000000000000e+00 1851878480
-0.880623 2.172037 0.484083 0.000000000000000e+00 1851878480
-0.873232 2.165302 0.552032 0.000000000000000e+00 1851878480
-0.678521 2.063135 0.619367 0.000000000000000e+00 1851878480
0.898427 1.255057 0.721430 0.000000000000000e+00 1851878480
-0.703436 2.069456 0.765330 0.000000000000000e+00 1851878480
-0.660342 2.044143 0.842068 0.000000000000000e+00 1851878480
-0.791373 2.146367 0.266562 0.000000000000000e+00 1851878480
-0.828149 2.161679 0.341673 0.000000000000000e+00 1851878480
-0.876111 2.182680 0.416077 0.000000000000000e+00 1851878480
-0.877078 2.180175 0.484456 0.000000000000000e+00 1851878480
-0.865706 2.171453 0.552260 0.000000000000000e+00 1851878480
-0.672342 2.070692 0.619724 0.000000000000000e+00 1851878480
0.889759 1.276092 0.721728 0.000000000000000e+00 1851878480
-0.711822 2.084293 0.765138 0.000000000000000e+00 1851878480
-0.650752 2.050002 0.842812 0.000000000000000e+00 1851878480
-0.782791 2.152349 0.266306 0.000000000000000e+00 1851878480
-0.829136 2.172266 0.342593 0.000000000000000e+00 1851878480
-0.873198 2.191140 0.416517 0.000000000000000e+00 1851878480
-0.863552 2.183324 0.484234 0.000000000000000e+00 1851878480
-0.848045 2.172557 0.552147 0.000000000000000e+00 1851878480
-0.630058 2.060149 0.619808 0.000000000000000e+00 1851878480
0.910197 1.282376 0.722560 0.000000000000000e+00 1851878480
-0.690852 2.084240 0.766248 0.000000000000000e+00 1851878480
-0.651402 2.061071 0.842837 0.000000000000000e+00 1851878480
-0.750181 2.146538 0.262740 0.000000000000000e+00 1851878480
-0.823154 2.179377 0.342731 0.000000000000000e+00 1851878480
-0.854838 2.191954 0.415636 0.000000000000000e+00 1851878480
-0.873504 2.198183 0.485412 0.000000000000000e+00 1851878480
-0.832192 2.174663 0.552100 0.000000000000000e+00 1851878480
-0.647403 2.079584 0.620350 0.000000000000000e+00 1851878480
0.893181 1.307456 0.722708 0.000000000000000e+00 1851878480
-0.698831 2.098793 0.766078 0.000000000000000e+00 1851878480
-0.635717 2.063914 0.844019 0.000000000000000e+00 1851878480
-0.752029 2.157773 0.263928 0.000000000000000e+00 1851878480
-0.800885 2.178529 0.341054 0.000000000000000e+00 1870292837
-0.856982 2.202938 0.416508 0.000000000000000e+00 1851878480
-0.853122 2.198016 0.484787 0.000000000000000e+00 1851878480
-0.834905 2.186011 0.552679 0.000000000000000e+00 1851878480
-0.629471 2.081423 0.620629 0.000000000000000e+00 1851878480
0.902977 1.319077 0.723351 0.000000000000000e+00 1851878480
-0.672671 2.096306 0.767426 0.000000000000000e+00 1851878480
-0.615278 2.064477 0.845541 0.000000000000000e+00 1851878480
-0.737374 2.160964 0.262847 0.000000000000000e+00 1851878480
-0.821893 2.198843 0.344195 0.000000000000000e+00 1870292837
-0.834902 2.202080 0.415319 0.000000000000000e+00 1851878480
-0.815234 2.189427 0.483134 0.000000000000000e+00 1851878480
-0.833237 2.195166 0.553110 0.000000000000000e+00 1851878480
-0.613892 2.084518 0.620929 0.000000000000000e+00 1851878480
0.902985 1.335535 0.723815 0.000000000000000e+00 1851878480
-0.678566 2.109779 0.767353 0.000000000000000e+00 1851878480
-0.625040 2.080076 0.844932 0.000000000000000e+00 1851878480
-0.731768 2.168586 0.263009 0.000000000000000e+00 1851878480
-0.833477 2.214428 0.346275 0.000000000000000e+00 1870292837
-0.843818 2.216337 0.416764 0.000000000000000e+00 1851878480
-0.809230 2.196536 0.483373 0.000000000000000e+00 1851878480
-0.802025 2.189958 0.552565 0.000000000000000e+00 1851878480
-0.620853 2.098668 0.621394 0.000000000000000e+00 1851878480
0.913988 1.346581 0.724487 0.000000000000000e+00 1851878480
-0.659293 2.110868 0.768404 0.000000000000000e+00 1851878480
-0.598359 2.077709 0.846903 0.000000000000000e+00 1851878480
-0.733699 2.179817 0.264198 0.000000000000000e+00 1851878480
-0.728400 2.174087 0.335455 0.000000000000000e+00 1870292837
-0.815979 2.212872 0.415098 0.000000000000000e+00 1851878480
-0.782198 2.193553 0.482380 0.000000000000000e+00 1851878480
-0.797959 2.198033 0.552922 0.000000000000000e+00 1851878480
-0.587651 2.093336 0.621579 0.000000000000000e+00 1851878480
0.902073 1.368755 0.724730 0.000000000000000e+00 1851878480
-0.637530 2.110862 0.769570 0.000000000000000e+00 1851878480
-0.606588 2.092489 0.846409 0.000000000000000e+00 1851878480
-0.709327 2.178548 0.261801 0.000000000000000e+00 1851878480
-0.744974 2.192242 0.338098 0.000000000000000e+00 1870292837
-0.818234 2.223905 0.415978 0.000000000000000e+00 1870292837
-0.748192 2.187415 0.480990 0.000000000000000e+00 1851878480
-0.783331 2.201059 0.552935 0.000000000000000e+00 1851878480
-0.595811 2.108044 0.622053 0.000000000000000e+00 1851878480
0.886689 1.392460 0.724908 0.000000000000000e+00 1851878480
-0.636714 2.121073 0.769805 0.000000000000000e+00 1851878480
-0.605034 2.102454 0.846609 0.000000000000000e+00 1851878480
-0.702986 2.185902 0.261864 0.000000000000000e+00 1851878480
-0.748151 2.203936 0.339256 0.000000000000000e+00 1870292837
-0.832068 2.240360 0.417824 0.000000000000000e+00 1870292837
-0.746878 2.196971 0.481515 0.000000000000000e+00 1851878480
-0.764585 2.202210 0.552819 0.000000000000000e+00 1851878480
-0.562315 2.102849 0.622250 0.000000000000000e+00 1851878480
0.897896 1.403327 0.725590 0.000000000000000e+00 1851878480
-0.620511 2.123907 0.770731 0.000000000000000e+00 1851878480
-0.586077 2.104063 0.848046 0.000000000000000e+00 1851878480
-0.692111 2.191159 0.261313 0.000000000000000e+00 1851878480
-0.747364 2.213725 0.339974 0.000000000000000e+00 1870292837
-0.824334 2.246580 0.417857 0.000000000000000e+00 1870292837
-0.734934 2.201517 0.481422 0.000000000000000e+00 1851878480
-0.767837 2.213828 0.553419 0.000000000000000e+00 1851878480
-0.552466 2.109029 0.622609 0.000000000000000e+00 1851878480
0.924273 1.407054 0.726569 0.000000000000000e+00 1851878480
-0.609859 2.129462 0.771412 0.000000000000000e+00 1851878480
-0.559728 2.102268 0.850011 0.000000000000000e+00 1851878480
-0.686606 2.198950 0.261490 0.000000000000000e+00 1851878480
-0.747714 2.224017 0.340813 0.000000000000000e+00 1870292837
-0.733460 2.214188 0.410958 0.000000000000000e+00 1870292837
-0.719997 2.204727 0.481161 0.000000000000000e+00 1851878480
-0.742200 2.211898 0.553089 0.000000000000000e+00 1851878480
-0.557427 2.122185 0.623065 0.000000000000000e+00 1851878480
0.904331 1.432669 0.726660 0.000000000000000e+00 1851878480
-0.608013 2.139208 0.771702 0.000000000000000e+00 1851878480
-0.553910 2.110319 0.850525 0.000000000000000e+00 1851878480
-0.657821 2.196073 0.258527 0.000000000000000e+00 1851878480
-0.775615 2.246951 0.344652 0.000000000000000e+00 1870292837
-0.711425 2.214177 0.409825 0.000000000000000e+00 1870292837
-0.705273 2.208116 0.480916 0.000000000000000e+00 1851878480
-0.712967 2.208462 0.552653 0.000000000000000e+00 1851878480
-0.530554 2.120485 0.623323 0.000000000000000e+00 1851878480
0.920761 1.441154 0.727455 0.000000000000000e+00 1851878480
-0.586171 2.139603 0.772894 0.000000000000000e+00 1851878480
-0.520646 2.105537 0.852989 0.000000000000000e+00 1851878480
-0.657146 2.206170 0.259359 0.000000000000000e+00 1851878480
-0.739854 2.240604 0.341549 0.000000000000000e+00 1870292837
-0.743941 2.239253 0.413224 0.000000000000000e+00 1870292837
-0.676191 2.205000 0.479853 0.000000000000000e+00 1851878480
-0.735198 2.228872 0.553862 0.000000000000000e+00 1851878480
-0.523458 2.128067 0.623709 0.000000000000000e+00 1851878480
0.931298 1.452437 0.728141 0.000000000000000e+00 1851878480
-0.574281 2.144737 0.773642 0.000000000000000e+00 1851878480
-0.515319 2.113941 0.853477 0.000000000000000e+00 1851878480
-0.391584 2.096657 0.224649 0.000000000000000e+00 1851878480
-0.721099 2.242188 0.340307 0.000000000000000e+00 1870292837
-0.757374 2.255404 0.415026 0.000000000000000e+00 1870292837
-0.649548 2.203177 0.478941 0.000000000000000e+00 1851878480
-0.695115 2.220670 0.553094 0.000000000000000e+00 1851878480
-0.512145 2.133742 0.624071 0.000000000000000e+00 1851878480
0.924148 1.471860 0.728483 0.000000000000000e+00 1851878480
-0.544885 2.141883 0.775185 0.000000000000000e+00 1851878480
-0.500405 2.117936 0.854649 0.000000000000000e+00 1851878480
-0.384362 2.104739 0.224681 0.000000000000000e+00 1851878480
-0.742964 2.262118 0.343467 0.000000000000000e+00 1870292837
-0.726963 2.251692 0.413206 0.000000000000000e+00 1870292837
-0.661402 2.218894 0.480227 0.000000000000000e+00 1851878480
-0.690612 2.228830 0.553456 0.000000000000000e+00 1851878480
-0.499152 2.138707 0.624428 0.000000000000000e+00 1851878480
0.928270 1.486059 0.729048 0.000000000000000e+00 1851878480
-0.548748 2.154378 0.775230 0.000000000000000e+00 1851878480
-0.494331 2.126051 0.855197 0.000000000000000e+00 1851878480
-0.397517 2.121895 0.227434 0.000000000000000e+00 1851878480
-0.650628 2.231003 0.334290 0.000000000000000e+00 1870292837
-0.742789 2.268820 0.415197 0.000000000000000e+00 1870292837
-0.636240 2.217925 0.479410 0.000000000000000e+00 1851878480
-0.682359 2.235312 0.553703 0.000000000000000e+00 1851878480
-0.468596 2.135834 0.624690 0.000000000000000e+00 1851878480
-0.585695 2.185158 0.699498 0.000000000000000e+00 1851878480
-0.539773 2.161008 0.775858 0.000000000000000e+00 1851878480
-0.474567 2.127971 0.856721 0.000000000000000e+00 1851878480
-0.379718 2.125286 0.226051 0.000000000000000e+00 1851878480
-0.669723 2.249751 0.337152 0.000000000000000e+00 1870292837
-0.740000 2.277562 0.415653 0.000000000000000e+00 1870292837
-0.606842 2.215229 0.478362 0.000000000000000e+00 1851878480
-0.680484 2.244666 0.554149 0.000000000000000e+00 1851878480
-0.482485 2.152992 0.625204 0.000000000000000e+00 1851878480
-0.557216 2.182943 0.700387 0.000000000000000e+00 1851878480
-0.544726 2.173924 0.775857 0.000000000000000e+00 1851878480
-0.451514 2.128525 0.858485 0.000000000000000e+00 1851878480
-0.354707 2.125625 0.223715 0.000000000000000e+00 1851878480
-0.656864 2.254334 0.336570 0.000000000000000e+00 1870292837
-0.730794 2.283478 0.415585 0.000000000000000e+00 1870292837
-0.607697 2.226043 0.479027 0.000000000000000e+00 1851878480
-0.645005 2.239166 0.553559 0.000000000000000e+00 1851878480
-0.490517 2.167427 0.625683 0.000000000000000e+00 1851878480
-0.547685 2.189317 0.700903 0.000000000000000e+00 1851878480
-0.504325 2.166588 0.777920 0.000000000000000e+00 1851878480
-0.427633 2.128846 0.860312 0.000000000000000e+00 1851878480
-0.363812 2.140899 0.225913 0.000000000000000e+00 1851878480
-0.660159 2.266002 0.337722 0.000000000000000e+00 1870292837
-0.724247 2.290592 0.415734 0.000000000000000e+00 1870292837
-0.581171 2.224860 0.478156 0.000000000000000e+00 1851878480
-0.622652 2.239643 0.553383 0.000000000000000e+00 1851878480
-0.475336 2.171580 0.626040 0.000000000000000e+00 1851878480
-0.549878 2.200894 0.701186 0.000000000000000e+00 1851878480
-0.475980 2.164837 0.779442 0.000000000000000e+00 1851878480
-0.427173 2.139678 0.860477 0.000000000000000e+00 1851878480
-0.357469 2.149437 0.226058 0.000000000000000e+00 1851878480
-0.665192 2.278368 0.339053 0.000000000000000e+00 1870292837
-0.686413 2.284206 0.413346 0.000000000000000e+00 1851878480
-0.588705 2.238598 0.479195 0.000000000000000e+00 1851878480
-0.612089 2.245376 0.553574 0.000000000000000e+00 1851878480
-0.446875 2.170028 0.626335 0.000000000000000e+00 1851878480
-0.531135 2.203283 0.701895 0.000000000000000e+00 1851878480
-0.490007 2.181816 0.779038 0.000000000000000e+00 1851878480
-0.403721 2.140387 0.862284 0.000000000000000e+00 1851878480
-0.341494 2.153888 0.224931 0.000000000000000e+00 1851878480
-0.622999 2.270489 0.335350 0.000000000000000e+00 1851878480
-0.691469 2.296446 0.414443 0.000000000000000e+00 1851878480
-0.560149 2.236747 0.478223 0.000000000000000e+00 1851878480
-0.611639 2.255514 0.554075 0.000000000000000e+00 1851878480
-0.423214 2.170725 0.626661 0.000000000000000e+00 1851878480
-0.516005 2.207343 0.702535 0.000000000000000e+00 1851878480
-0.463972 2.181265 0.780464 0.000000000000000e+00 1851878480
-0.384631 2.143135 0.863785 0.000000000000000e+00 1851878480
-0.355603 2.171137 0.227769 0.000000000000000e+00 1851878480
-0.612694 2.276399 0.335053 0.000000000000000e+00 1851878480
-0.658819 2.292600 0.412495 0.000000000000000e+00 1851878480
-0.561418 2.247782 0.478913 0.000000000000000e+00 1851878480
-0.609542 2.264925 0.554526 0.000000000000000e+00 1851878480
-0.437242 2.187711 0.627173 0.000000000000000e+00 1851878480
-0.521191 2.220212 0.702763 0.000000000000000e+00 1851878480
-0.462832 2.191597 0.780757 0.000000000000000e+00 1851878480
-0.352445 2.140333 0.866224 0.000000000000000e+00 1851878480
-0.312685 2.164358 0.223105 0.000000000000000e+00 1851878480
-0.603731 2.282920 0.334901 0.000000000000000e+00 1851878480
-0.656878 2.301901 0.413029 0.000000000000000e+00 1851878480
-0.552142 2.254325 0.479019 0.000000000000000e+00 1851878480
-0.593511 2.268420 0.554559 0.000000000000000e+00 1851878480
-0.407229 2.185855 0.627480 0.000000000000000e+00 1851878480
-0.507320 2.224897 0.703384 0.000000000000000e+00 1851878480
-0.432962 2.189634 0.782370 0.000000000000000e+00 1851878480
-0.339499 2.145975 0.867297 0.000000000000000e+00 1851878480
-0.312727 2.175707 0.224091 0.000000000000000e+00 1851878480
-0.570066 2.279185 0.332141 0.000000000000000e+00 1851878480
-0.631220 2.301280 0.411660 0.000000000000000e+00 1851878480
-0.539398 2.259454 0.478937 0.000000000000000e+00 1851878480
-0.573749 2.270434 0.554487 0.000000000000000e+00 1851878480
-0.384081 2.187078 0.627825 0.000000000000000e+00 1851878480
-0.496655 2.231008 0.703943 0.000000000000000e+00 1851878480
-0.420280 2.195138 0.783200 0.000000000000000e+00 1851878480
-0.324687 2.150886 0.868508 0.000000000000000e+00 1851878480
-0.317461 2.188959 0.225686 0.000000000000000e+00 1851878480
-0.566777 2.288212 0.332597 0.000000000000000e+00 1851878480
-0.626481 2.309482 0.411974 0.000000000000000e+00 1851878480
-0.519329 2.261603 0.478458 0.000000000000000e+00 1851878480
-0.559864 2.275011 0.554594 0.000000000000000e+00 1851878480
-0.392546 2.201644 0.628314 0.000000000000000e+00 1851878480
-0.494382 2.240683 0.704331 0.000000000000000e+00 1851878480
-0.408675 2.201156 0.783985 0.000000000000000e+00 1851878480
-0.303784 2.153307 0.870158 0.000000000000000e+00 1851878480
-0.318007 2.200438 0.226726 0.000000000000000e+00 1851878480
-0.560340 2.295947 0.332720 0.000000000000000e+00 1851878480
-0.603886 2.310358 0.410864 0.000000000000000e+00 1851878480
-0.533638 2.278029 0.479861 0.000000000000000e+00 1851878480
-0.561559 2.286096 0.555165 0.000000000000000e+00 1851878480
-0.359119 2.198768 0.628627 0.000000000000000e+00 1851878480
-0.479214 2.244990 0.704990 0.000000000000000e+00 1851878480
-0.394454 2.206139 0.784895 0.000000000000000e+00 1851878480
-0.271510 2.151096 0.872627 0.000000000000000e+00 1851878480
-0.303921 2.205962 0.225859 0.000000000000000e+00 1851878480
-0.526735 2.292669 0.329995 0.000000000000000e+00 1851878480
-0.576123 2.309263 0.409352 0.000000000000000e+00 1851878480
-0.505925 2.277166 0.478972 0.000000000000000e+00 1851878480
-0.538822 2.287137 0.555019 0.000000000000000e+00 1851878480
-0.360924 2.210572 0.629090 0.000000000000000e+00 1851878480
-0.464085 2.249394 0.705654 0.000000000000000e+00 1851878480
-0.379729 2.210986 0.785832 0.000000000000000e+00 1851878480
-0.239484 2.149188 0.875086 0.000000000000000e+00 1851878480
-0.306772 2.218355 0.227193 0.000000000000000e+00 1851878480
-0.543800 2.309999 0.332583 0.000000000000000e+00 1851878480
-0.574025 2.318699 0.409884 0.000000000000000e+00 1851878480
-0.509192 2.289015 0.479771 0.000000000000000e+00 1851878480
-0.547238 2.300962 0.555787 0.000000000000000e+00 1851878480
-0.343617 2.214552 0.629480 0.000000000000000e+00 1851878480
-0.447924 2.253456 0.706344 0.000000000000000e+00 1851878480
-0.371777 2.218684 0.786461 0.000000000000000e+00 1851878480
-0.215942 2.150960 0.876943 0.000000000000000e+00 1851878480
-0.279236 2.218611 0.224586 0.000000000000000e+00 1851878480
-0.494037 2.300517 0.328189 0.000000000000000e+00 1851878480
-0.566200 2.325833 0.409963 0.000000000000000e+00 1851878480
-0.496962 2.294596 0.479731 0.000000000000000e+00 1851878480
-0.527928 2.303540 0.555750 0.000000000000000e+00 1851878480
-0.341010 2.224562 0.629930 0.000000000000000e+00 1851878480
-0.440686 2.261219 0.706849 0.000000000000000e+00 1851878480
-0.339635 2.216588 0.788215 0.000000000000000e+00 1851878480
-0.173979 2.145367 0.880126 0.000000000000000e+00 1851878480
-0.290975 2.234520 0.227066 0.000000000000000e+00 1851878480
-0.496674 2.312084 0.329269 0.000000000000000e+00 1851878480
-0.554408 2.331422 0.409730 0.000000000000000e+00 1851878480
-0.489177 2.302004 0.479934 0.000000000000000e+00 1851878480
-0.536661 2.317420 0.556524 0.000000000000000e+00 1851878480
-0.334810 2.233125 0.630368 0.000000000000000e+00 1851878480
-0.326586 2.226108 0.709645 0.000000000000000e+00 1851878480
-0.312651 2.216765 0.789737 0.000000000000000e+00 1851878480
-0.147175 2.146160 0.882230 0.000000000000000e+00 1851878480
-0.284143 2.243062 0.227140 0.000000000000000e+00 1851878480
-0.481785 2.316737 0.328527 0.000000000000000e+00 1851878480
-0.543953 2.337595 0.409606 0.000000000000000e+00 1851878480
-0.461872 2.301744 0.479093 0.000000000000000e+00 1851878480
-0.512008 2.318007 0.556342 0.000000000000000e+00 1851878480
-0.179886 2.182697 0.630298 0.000000000000000e+00 1851878480
-0.325015 2.236547 0.710046 0.000000000000000e+00 1851878480
-0.301159 2.223288 0.790544 0.000000000000000e+00 1851878480
-0.105730 2.141251 0.885391 0.000000000000000e+00 1851878480
-0.233367 2.234602 0.221562 0.000000000000000e+00 1851878480
-0.457521 2.317826 0.326818 0.000000000000000e+00 1851878480
-0.516878 2.337340 0.408183 0.000000000000000e+00 1851878480
-0.466877 2.314279 0.479985 0.000000000000000e+00 1851878480
-0.493986 2.321340 0.556356 0.000000000000000e+00 1851878480
-0.169441 2.190141 0.630748 0.000000000000000e+00 1851878480
-0.291558 2.234393 0.711139 0.000000000000000e+00 1851878480
-0.268005 2.221293 0.792366 0.000000000000000e+00 1851878480
-0.087751 2.145914 0.886874 0.000000000000000e+00 1851878480
-0.210885 2.237330 0.219640 0.000000000000000e+00 1851878480
-0.429056 2.317440 0.324685 0.000000000000000e+00 1851878480
-0.495201 2.339332 0.407192 0.000000000000000e+00 1851878480
-0.449611 2.318125 0.479690 0.000000000000000e+00 1851878480
-0.414022 2.300702 0.554628 0.000000000000000e+00 1851878480
-0.162239 2.198895 0.631211 0.000000000000000e+00 1851878480
-0.265753 2.235437 0.712074 0.000000000000000e+00 1851878480
-0.259376 2.229120 0.793051 0.000000000000000e+00 1851878480
-0.201508 2.245173 0.219404 0.000000000000000e+00 1851878480
-0.430443 2.328619 0.325638 0.000000000000000e+00 1851878480
