# .PCD v0.7 - Point Cloud Data file format
VERSION 0.7
FIELDS x y z rgb label
SIZE 4 4 4 4 4
TYPE F F F F U
COUNT 1 1 1 1 1
WIDTH 264
HEIGHT 1
VIEWPOINT 0 0 0 1 0 0 0
POINTS 264
DATA ascii
0.693084 -1.899647 0.170479 0.000000000000000e+00 1851878480
0.619072 -1.905326 0.175297 0.000000000000000e+00 1851878480
0.364024 -2.124712 0.490983 0.000000000000000e+00 1851878480
0.509501 -1.938751 0.181652 0.000000000000000e+00 1851878480
0.363319 -2.075947 0.493211 0.000000000000000e+00 1736094148
0.223771 -2.108959 0.195661 0.000000000000000e+00 1851878480
0.219173 -2.137328 0.497471 0.000000000000000e+00 1736094148
0.071141 -2.178308 0.203800 0.000000000000000e+00 1851878480
0.150913 -2.141109 0.500621 0.000000000000000e+00 1736094148
-0.000849 -2.185887 0.208402 0.000000000000000e+00 1851878480
0.089937 -2.139647 0.503650 0.000000000000000e+00 1736094148
-0.070451 -2.192056 0.212881 0.000000000000000e+00 1851878480
0.028299 -2.139062 0.506669 0.000000000000000e+00 1736094148
-0.129928 -2.190664 0.216906 0.000000000000000e+00 1851878480
-0.035437 -2.140504 0.509696 0.000000000000000e+00 1736094148
-0.187125 -2.187809 0.220816 0.000000000000000e+00 1851878480
0.372709 -1.767833 0.506557 0.000000000000000e+00 1851878480
-0.242261 -2.183635 0.224624 0.000000000000000e+00 1851878480
-0.121195 -2.111251 0.515157 0.000000000000000e+00 1736094148
-0.294227 -2.177220 0.228281 0.000000000000000e+00 1851878480
-0.203498 -2.128585 0.518366 0.000000000000000e+00 1736094148
-0.338653 -2.164968 0.231605 0.000000000000000e+00 1851878480
-0.206016 -2.081995 0.520561 0.000000000000000e+00 1736094148
-0.375450 -2.146704 0.234595 0.000000000000000e+00 1851878480
-0.289697 -2.101217 0.523748 0.000000000000000e+00 1736094148
-0.408402 -2.125412 0.237413 0.000000000000000e+00 1851878480
0.684802 -1.254962 0.514289 0.000000000000000e+00 1701537140
-0.440919 -2.103857 0.240205 0.000000000000000e+00 1851878480
-0.403984 -2.097751 0.529413 0.000000000000000e+00 1851878480
-0.473090 -2.082101 0.242975 0.000000000000000e+00 1851878480
-0.437990 -2.077351 0.531954 0.000000000000000e+00 1851878480
-0.505002 -2.060216 0.245726 0.000000000000000e+00 1851878480
-0.464198 -2.050556 0.534400 0.000000000000000e+00 1851878480
-0.536596 -2.038143 0.248456 0.000000000000000e+00 1851878480
-0.496330 -2.028750 0.536907 0.000000000000000e+00 1700951363
0.574329 -1.157690 0.844570 0.000000000000000e+00 1851878480
-0.567856 -2.015868 0.251165 0.000000000000000e+00 1851878480
-0.531695 -2.009758 0.539444 0.000000000000000e+00 1700951363
0.393963 -1.255219 0.844258 0.000000000000000e+00 1851878480
-0.598773 -1.993375 0.253852 0.000000000000000e+00 1851878480
-0.563651 -1.987990 0.541936 0.000000000000000e+00 1700951363
0.293760 -1.286473 0.845439 0.000000000000000e+00 1851878480
-0.629290 -1.970610 0.256516 0.000000000000000e+00 1851878480
-0.594815 -1.965622 0.544414 0.000000000000000e+00 1700951363
0.218073 -1.297611 0.847068 0.000000000000000e+00 1851878480
-0.659414 -1.947575 0.259156 0.000000000000000e+00 1851878480
-0.625123 -1.942593 0.546877 0.000000000000000e+00 1700951363
0.158153 -1.295753 0.848988 0.000000000000000e+00 1851878480
-0.689060 -1.924184 0.261770 0.000000000000000e+00 1851878480
-0.653353 -1.917831 0.549315 0.000000000000000e+00 1700951363
0.106327 -1.287268 0.851055 0.000000000000000e+00 1851878480
-0.718002 -1.900238 0.264349 0.000000000000000e+00 1851878480
-0.681610 -1.893134 0.551748 0.000000000000000e+00 1700951363
0.059364 -1.274834 0.853209 0.000000000000000e+00 1851878480
-0.745816 -1.875348 0.266875 0.000000000000000e+00 1851878480
-0.709694 -1.868325 0.554176 0.000000000000000e+00 1700951363
0.019026 -1.256836 0.855491 0.000000000000000e+00 1851878480
-0.771871 -1.848943 0.269324 0.000000000000000e+00 1851878480
-0.735625 -1.841660 0.556579 0.000000000000000e+00 1700951363
0.141861 -1.095726 0.861298 0.000000000000000e+00 1851878480
-0.796544 -1.821324 0.271711 0.000000000000000e+00 1851878480
-0.760710 -1.814257 0.558972 0.000000000000000e+00 1700951363
0.078529 -1.097463 0.863109 0.000000000000000e+00 1851878480
-0.820493 -1.793060 0.274065 0.000000000000000e+00 1851878480
-0.783545 -1.784856 0.561342 0.000000000000000e+00 1700951363
0.018307 -1.096830 0.864966 0.000000000000000e+00 1851878480
-0.840724 -1.761445 0.276265 0.000000000000000e+00 1851878480
-0.805879 -1.754986 0.563706 0.000000000000000e+00 1700951363
-0.039287 -1.094207 0.866861 0.000000000000000e+00 1851878480
-0.856079 -1.725365 0.278267 0.000000000000000e+00 1851878480
-0.825932 -1.723029 0.566050 0.000000000000000e+00 1700951363
-0.094427 -1.089707 0.868793 0.000000000000000e+00 1851878480
-0.872273 -1.689949 0.280300 0.000000000000000e+00 1851878480
-0.845096 -1.690213 0.568386 0.000000000000000e+00 1700951363
-0.147431 -1.083585 0.870756 0.000000000000000e+00 1851878480
-0.889251 -1.655149 0.282362 0.000000000000000e+00 1851878480
-0.870782 -1.663288 0.570773 0.000000000000000e+00 1851878480
-0.198459 -1.075948 0.872749 0.000000000000000e+00 1851878480
-0.906836 -1.620824 0.284445 0.000000000000000e+00 1851878480
-0.886618 -1.627320 0.573084 0.000000000000000e+00 1851878480
-0.246993 -1.066293 0.874786 0.000000000000000e+00 1851878480
-0.924885 -1.586840 0.286543 0.000000000000000e+00 1851878480
-0.901777 -1.590622 0.575391 0.000000000000000e+00 1851878480
-0.293000 -1.054547 0.876870 0.000000000000000e+00 1851878480
-0.940578 -1.550581 0.288546 0.000000000000000e+00 1851878480
-0.918031 -1.554830 0.577708 0.000000000000000e+00 1851878480
-0.324114 -1.029209 0.879307 0.000000000000000e+00 1851878480
-0.927118 -1.486855 0.289415 0.000000000000000e+00 1701537140
-0.934336 -1.518982 0.580027 0.000000000000000e+00 1851878480
-0.365175 -1.013191 0.881494 0.000000000000000e+00 1851878480
-0.961203 -1.467573 0.292129 0.000000000000000e+00 1701537140
-0.950157 -1.482575 0.582345 0.000000000000000e+00 1851878480
-0.404430 -0.995637 0.883717 0.000000000000000e+00 1851878480
-0.947033 -1.402558 0.292977 0.000000000000000e+00 1701537140
-0.962372 -1.442644 0.584643 0.000000000000000e+00 1851878480
-0.442200 -0.976820 0.885970 0.000000000000000e+00 1851878480
-0.958586 -1.361659 0.294818 0.000000000000000e+00 1701537140
-0.934686 -1.364545 0.586702 0.000000000000000e+00 1701537140
-0.478395 -0.956625 0.888257 0.000000000000000e+00 1851878480
-0.942073 -1.293619 0.295587 0.000000000000000e+00 1701537140
-0.958611 -1.335295 0.589086 0.000000000000000e+00 1701537140
-0.513219 -0.935224 0.890573 0.000000000000000e+00 1851878480
0.252454 -0.232479 1.238645 0.000000000000000e+00 1851878480
-0.952299 -1.250943 0.297380 0.000000000000000e+00 1701537140
-0.970437 -1.294351 0.591401 0.000000000000000e+00 1701537140
-0.546495 -0.912418 0.892926 0.000000000000000e+00 1851878480
0.154691 -0.267107 1.237354 0.000000000000000e+00 1851878480
-0.952115 -1.197951 0.298779 0.000000000000000e+00 1701537140
-0.969856 -1.241209 0.593654 0.000000000000000e+00 1701537140
-0.578209 -0.888173 0.895316 0.000000000000000e+00 1851878480
0.083415 -0.276987 1.237570 0.000000000000000e+00 1851878480
-0.952737 -1.145434 0.300212 0.000000000000000e+00 1701537140
-0.963931 -1.182535 0.595891 0.000000000000000e+00 1701537140
-0.608111 -0.862212 0.897754 0.000000000000000e+00 1851878480
0.022908 -0.276906 1.238395 0.000000000000000e+00 1851878480
-0.778628 -0.920574 0.295079 0.000000000000000e+00 1701537140
-0.967636 -1.132937 0.598188 0.000000000000000e+00 1701537140
-0.636210 -0.834517 0.900239 0.000000000000000e+00 1851878480
-0.030805 -0.270561 1.239602 0.000000000000000e+00 1851878480
-0.824917 -0.911639 0.298254 0.000000000000000e+00 1701537140
-0.971422 -1.083143 0.600494 0.000000000000000e+00 1701537140
-0.663411 -0.805940 0.902749 0.000000000000000e+00 1851878480
-0.079524 -0.259596 1.241092 0.000000000000000e+00 1851878480
-0.871733 -0.903456 0.301436 0.000000000000000e+00 1701537140
-0.959724 -1.017692 0.602743 0.000000000000000e+00 1701537140
-0.695547 -0.782249 0.905120 0.000000000000000e+00 1851878480
-0.124141 -0.244811 1.242818 0.000000000000000e+00 1851878480
-0.937291 -0.914295 0.305303 0.000000000000000e+00 1701537140
-0.917268 -0.921031 0.604884 0.000000000000000e+00 1851878480
-0.719906 -0.750857 0.907710 0.000000000000000e+00 1851878480
-0.164067 -0.225542 1.244821 0.000000000000000e+00 1851878480
-0.969545 -0.892008 0.307921 0.000000000000000e+00 1701537140
-0.964984 -0.914212 0.607400 0.000000000000000e+00 1851878480
-0.740772 -0.715920 0.910405 0.000000000000000e+00 1851878480
-0.200688 -0.203097 1.247021 0.000000000000000e+00 1851878480
-0.920396 -0.787181 0.307537 0.000000000000000e+00 1851878480
-0.948839 -0.843030 0.609678 0.000000000000000e+00 1851878480
-0.752818 -0.672002 0.913363 0.000000000000000e+00 1851878480
-0.232642 -0.176041 1.249508 0.000000000000000e+00 1851878480
-0.933279 -0.744736 0.309445 0.000000000000000e+00 1851878480
-0.938692 -0.777420 0.611995 0.000000000000000e+00 1851878480
-0.754188 -0.617052 0.916651 0.000000000000000e+00 1851878480
-0.261153 -0.145528 1.252212 0.000000000000000e+00 1851878480
-0.914346 -0.669437 0.310191 0.000000000000000e+00 1851878480
-0.931231 -0.714098 0.614337 0.000000000000000e+00 1851878480
-0.757525 -0.563783 0.919899 0.000000000000000e+00 1851878480
-0.285661 -0.110927 1.255173 0.000000000000000e+00 1851878480
-0.907401 -0.605939 0.311381 0.000000000000000e+00 1851878480
-0.926839 -0.653498 0.616703 0.000000000000000e+00 1851878480
-0.752696 -0.501815 0.923414 0.000000000000000e+00 1851878480
-0.305867 -0.071853 1.258415 0.000000000000000e+00 1851878480
-0.902276 -0.543899 0.312644 0.000000000000000e+00 1851878480
-0.924021 -0.594127 0.619087 0.000000000000000e+00 1851878480
-0.911123 -0.608135 0.921920 0.000000000000000e+00 1768716611
-0.319995 -0.026396 1.262060 0.000000000000000e+00 1851878480
-0.898944 -0.483311 0.313976 0.000000000000000e+00 1851878480
-0.922951 -0.536189 0.621490 0.000000000000000e+00 1851878480
-0.945280 -0.586882 0.924207 0.000000000000000e+00 1768716611
-0.321078 0.032781 1.266564 0.000000000000000e+00 1851878480
-0.897596 -0.424409 0.315383 0.000000000000000e+00 1851878480
-0.923803 -0.479897 0.623908 0.000000000000000e+00 1851878480
-0.975994 -0.562105 0.926599 0.000000000000000e+00 1768716611
-0.896953 -0.365870 0.316820 0.000000000000000e+00 1851878480
-0.925723 -0.424379 0.626341 0.000000000000000e+00 1851878480
-1.004280 -0.534799 0.929067 0.000000000000000e+00 1768716611
-0.896161 -0.306796 0.318256 0.000000000000000e+00 1851878480
-0.927632 -0.368507 0.628785 0.000000000000000e+00 1851878480
-1.026598 -0.501175 0.931728 0.000000000000000e+00 1768716611
-0.894918 -0.246855 0.319679 0.000000000000000e+00 1851878480
-0.928869 -0.311572 0.631241 0.000000000000000e+00 1851878480
-1.037634 -0.455454 0.934762 0.000000000000000e+00 1768716611
-0.893272 -0.186081 0.321093 0.000000000000000e+00 1851878480
-0.929047 -0.253138 0.633707 0.000000000000000e+00 1851878480
-0.748627 -0.088036 0.947737 0.000000000000000e+00 1851878480
-0.891225 -0.124472 0.322497 0.000000000000000e+00 1851878480
-0.928471 -0.193512 0.636187 0.000000000000000e+00 1851878480
-0.747527 -0.026828 0.951319 0.000000000000000e+00 1851878480
-0.888736 -0.061961 0.323890 0.000000000000000e+00 1851878480
-0.927358 -0.132906 0.638680 0.000000000000000e+00 1851878480
-0.745784 0.035484 0.954948 0.000000000000000e+00 1851878480
-0.885814 0.001446 0.325273 0.000000000000000e+00 1851878480
-0.925833 -0.071447 0.641187 0.000000000000000e+00 1851878480
-0.743081 0.099263 0.958634 0.000000000000000e+00 1851878480
-0.882447 0.065788 0.326645 0.000000000000000e+00 1851878480
-0.923969 -0.009197 0.643709 0.000000000000000e+00 1851878480
-0.739353 0.164603 0.962382 0.000000000000000e+00 1851878480
-0.878685 0.131014 0.328010 0.000000000000000e+00 1851878480
-0.921799 0.053815 0.646245 0.000000000000000e+00 1851878480
-0.734444 0.231703 0.966198 0.000000000000000e+00 1851878480
-0.874738 0.196909 0.329373 0.000000000000000e+00 1851878480
-0.919368 0.117556 0.648798 0.000000000000000e+00 1851878480
-0.728817 0.300082 0.970068 0.000000000000000e+00 1851878480
-0.871624 0.262333 0.330770 0.000000000000000e+00 1851878480
-0.916664 0.182042 0.651366 0.000000000000000e+00 1851878480
-0.722775 0.369414 0.973981 0.000000000000000e+00 1851878480
-0.870532 0.325934 0.332241 0.000000000000000e+00 1851878480
-0.913896 0.247053 0.653950 0.000000000000000e+00 1851878480
-0.715653 0.440467 0.977964 0.000000000000000e+00 1851878480
-0.869601 0.389794 0.333723 0.000000000000000e+00 1851878480
-0.911132 0.312524 0.656551 0.000000000000000e+00 1851878480
-0.706034 0.514874 0.982069 0.000000000000000e+00 1851878480
-0.867847 0.455038 0.335182 0.000000000000000e+00 1851878480
-0.909086 0.377638 0.659167 0.000000000000000e+00 1851878480
-0.695892 0.590441 0.986227 0.000000000000000e+00 1851878480
-0.939548 0.436138 0.339098 0.000000000000000e+00 1851878480
-0.907809 0.442334 0.661797 0.000000000000000e+00 1851878480
-0.685987 0.666321 0.990410 0.000000000000000e+00 1851878480
-0.939787 0.499486 0.340621 0.000000000000000e+00 1851878480
-0.905021 0.509226 0.664447 0.000000000000000e+00 1851878480
-0.700610 0.714522 0.993700 0.000000000000000e+00 1851878480
-0.940009 0.563299 0.342148 0.000000000000000e+00 1851878480
-0.891477 0.589113 0.667145 0.000000000000000e+00 1851878480
-0.712855 0.765732 0.997095 0.000000000000000e+00 1851878480
-0.940155 0.627645 0.343678 0.000000000000000e+00 1851878480
-0.946087 0.589923 0.669655 0.000000000000000e+00 1851878480
-0.712728 0.831653 1.000986 0.000000000000000e+00 1851878480
-0.940060 0.692732 0.345204 0.000000000000000e+00 1851878480
-0.945194 0.655728 0.672337 0.000000000000000e+00 1851878480
-0.710695 0.900279 1.004979 0.000000000000000e+00 1851878480
-0.936859 0.761972 0.346634 0.000000000000000e+00 1851878480
-0.944281 0.722028 0.675036 0.000000000000000e+00 1851878480
-0.705981 0.972569 1.009107 0.000000000000000e+00 1851878480
-0.938942 0.825412 0.348241 0.000000000000000e+00 1851878480
-0.943361 0.788815 0.677751 0.000000000000000e+00 1851878480
-0.696303 1.051299 1.013466 0.000000000000000e+00 1851878480
-0.936973 0.894172 0.349722 0.000000000000000e+00 1851878480
-0.942417 0.856121 0.680484 0.000000000000000e+00 1851878480
-0.679644 1.138999 1.018144 0.000000000000000e+00 1851878480
-0.939332 0.958204 0.351348 0.000000000000000e+00 1851878480
-0.941466 0.923927 0.683234 0.000000000000000e+00 1851878480
-0.651745 1.240945 1.023324 0.000000000000000e+00 1851878480
-0.944574 1.019186 0.353070 0.000000000000000e+00 1851878480
-0.940467 0.992291 0.686002 0.000000000000000e+00 1851878480
-0.950299 1.079989 0.354810 0.000000000000000e+00 1851878480
-0.936518 1.064763 0.688804 0.000000000000000e+00 1851878480
-0.959111 1.137408 0.356652 0.000000000000000e+00 1851878480
-0.943048 1.124924 0.691567 0.000000000000000e+00 1851878480
-0.933665 1.237660 0.357422 0.000000000000000e+00 1701537140
-0.948136 1.187275 0.694353 0.000000000000000e+00 1851878480
-0.833839 1.464542 0.014938 0.000000000000000e+00 1701537140
-0.967185 1.265278 0.360045 0.000000000000000e+00 1701537140
-0.953476 1.249747 0.697151 0.000000000000000e+00 1851878480
-0.895796 1.457487 0.019489 0.000000000000000e+00 1701537140
-0.837246 1.498020 0.357594 0.000000000000000e+00 1701537140
-0.960794 1.310180 0.699952 0.000000000000000e+00 1851878480
-0.945810 1.465129 0.023214 0.000000000000000e+00 1701537140
-0.889965 1.502678 0.360825 0.000000000000000e+00 1701537140
-0.970869 1.367556 0.702748 0.000000000000000e+00 1851878480
-0.958411 1.520196 0.024374 0.000000000000000e+00 1701537140
-0.946721 1.501926 0.364168 0.000000000000000e+00 1701537140
-0.979926 1.426595 0.705564 0.000000000000000e+00 1851878480
-0.959020 1.590989 0.024707 0.000000000000000e+00 1701537140
-0.946264 1.573967 0.365753 0.000000000000000e+00 1701537140
-0.986273 1.489492 0.708412 0.000000000000000e+00 1851878480
-0.937350 1.657445 0.367088 0.000000000000000e+00 1701537140
-0.989607 1.556697 0.711300 0.000000000000000e+00 1851878480
-0.963221 1.696602 0.369480 0.000000000000000e+00 1701537140
-0.984667 1.635083 0.714271 0.000000000000000e+00 1851878480
-0.933052 1.808888 0.370191 0.000000000000000e+00 1701537140
-0.971094 1.725316 0.717337 0.000000000000000e+00 1851878480
-0.970591 1.833514 0.372935 0.000000000000000e+00 1701537140
-0.943793 1.834285 0.720552 0.000000000000000e+00 1851878480
-0.941322 1.946210 0.373695 0.000000000000000e+00 1851878480
-0.879900 1.992397 0.724136 0.000000000000000e+00 1851878480
