# .PCD v0.7 - Point Cloud Data file format
VERSION 0.7
FIELDS x y z rgb label
SIZE 4 4 4 4 4
TYPE F F F F U
COUNT 1 1 1 1 1
WIDTH 264
HEIGHT 1
VIEWPOINT 0 0 0 1 0 0 0
POINTS 264
DATA ascii
0.653232 -1.929837 0.172235 0.000000000000000e+00 1851878480
0.580092 -1.935041 0.177009 0.000000000000000e+00 1851878480
0.316270 -2.160999 0.491677 0.000000000000000e+00 1851878480
0.477120 -1.963589 0.183069 0.000000000000000e+00 1851878480
0.306308 -2.119539 0.494028 0.000000000000000e+00 1736094148
0.193227 -2.132534 0.196993 0.000000000000000e+00 1851878480
0.153556 -2.187813 0.498396 0.000000000000000e+00 1736094148
0.041320 -2.201468 0.205097 0.000000000000000e+00 1851878480
0.098579 -2.181625 0.501348 0.000000000000000e+00 1736094148
-0.016830 -2.198375 0.209095 0.000000000000000e+00 1851878480
0.022807 -2.191942 0.504568 0.000000000000000e+00 1736094148
-0.107470 -2.221165 0.214480 0.000000000000000e+00 1851878480
-0.046527 -2.197717 0.507676 0.000000000000000e+00 1736094148
-0.153191 -2.209071 0.217907 0.000000000000000e+00 1851878480
-0.107470 -2.197320 0.510650 0.000000000000000e+00 1736094148
-0.216606 -2.211279 0.222081 0.000000000000000e+00 1851878480
0.317729 -1.811468 0.507273 0.000000000000000e+00 1851878480
-0.273379 -2.208562 0.225954 0.000000000000000e+00 1851878480
-0.180242 -2.158404 0.515913 0.000000000000000e+00 1736094148
-0.327347 -2.203914 0.229692 0.000000000000000e+00 1851878480
-0.255038 -2.169997 0.519015 0.000000000000000e+00 1736094148
-0.362412 -2.184237 0.232613 0.000000000000000e+00 1851878480
-0.254895 -2.121511 0.521165 0.000000000000000e+00 1736094148
-0.398486 -2.165501 0.235569 0.000000000000000e+00 1851878480
-0.342424 -2.144107 0.524388 0.000000000000000e+00 1736094148
-0.440887 -2.152083 0.238782 0.000000000000000e+00 1851878480
0.621434 -1.306824 0.515045 0.000000000000000e+00 1701537140
-0.474274 -2.131409 0.241606 0.000000000000000e+00 1851878480
-0.451484 -2.136867 0.529969 0.000000000000000e+00 1851878480
-0.501848 -2.106003 0.244178 0.000000000000000e+00 1851878480
-0.493423 -2.123281 0.532590 0.000000000000000e+00 1851878480
-0.532310 -2.083051 0.246865 0.000000000000000e+00 1851878480
-0.519715 -2.096837 0.535024 0.000000000000000e+00 1851878480
-0.547957 -2.047702 0.248928 0.000000000000000e+00 1851878480
-0.549018 -2.072942 0.537488 0.000000000000000e+00 1700951363
0.517068 -1.205572 0.843471 0.000000000000000e+00 1851878480
-0.595387 -2.039173 0.252305 0.000000000000000e+00 1851878480
-0.594274 -2.062568 0.540119 0.000000000000000e+00 1700951363
0.336597 -1.303482 0.843140 0.000000000000000e+00 1851878480
-0.646208 -2.033774 0.255809 0.000000000000000e+00 1851878480
-0.617076 -2.033350 0.542501 0.000000000000000e+00 1700951363
0.235732 -1.335593 0.844290 0.000000000000000e+00 1851878480
-0.650544 -1.988822 0.257390 0.000000000000000e+00 1851878480
-0.659728 -2.021074 0.545085 0.000000000000000e+00 1700951363
0.169134 -1.339290 0.846084 0.000000000000000e+00 1851878480
-0.672701 -1.959028 0.259701 0.000000000000000e+00 1851878480
-0.688046 -1.996675 0.547514 0.000000000000000e+00 1700951363
0.104836 -1.341439 0.847900 0.000000000000000e+00 1851878480
-0.705215 -1.938196 0.262430 0.000000000000000e+00 1851878480
-0.705209 -1.962672 0.549827 0.000000000000000e+00 1700951363
0.052670 -1.333526 0.849944 0.000000000000000e+00 1851878480
-0.735029 -1.915096 0.265041 0.000000000000000e+00 1851878480
-0.737250 -1.941540 0.552285 0.000000000000000e+00 1700951363
0.005659 -1.321416 0.852080 0.000000000000000e+00 1851878480
-0.759135 -1.887041 0.267414 0.000000000000000e+00 1851878480
-0.763939 -1.915805 0.554687 0.000000000000000e+00 1700951363
-0.031258 -1.300717 0.854418 0.000000000000000e+00 1851878480
-0.800088 -1.873866 0.270462 0.000000000000000e+00 1851878480
-0.796016 -1.894842 0.557134 0.000000000000000e+00 1700951363
0.094273 -1.137507 0.860267 0.000000000000000e+00 1851878480
-0.833314 -1.853999 0.273189 0.000000000000000e+00 1851878480
-0.815151 -1.862490 0.559459 0.000000000000000e+00 1700951363
0.005124 -1.162304 0.861496 0.000000000000000e+00 1851878480
-0.838008 -1.808720 0.274766 0.000000000000000e+00 1851878480
-0.832904 -1.828852 0.561772 0.000000000000000e+00 1700951363
-0.038333 -1.147165 0.863703 0.000000000000000e+00 1851878480
-0.867371 -1.785413 0.277328 0.000000000000000e+00 1851878480
-0.851747 -1.796119 0.564095 0.000000000000000e+00 1700951363
-0.083140 -1.133416 0.865869 0.000000000000000e+00 1851878480
-0.873717 -1.741327 0.278968 0.000000000000000e+00 1851878480
-0.883329 -1.774813 0.566523 0.000000000000000e+00 1700951363
-0.156221 -1.145292 0.867376 0.000000000000000e+00 1851878480
-0.897219 -1.712660 0.281288 0.000000000000000e+00 1851878480
-0.921038 -1.759145 0.568994 0.000000000000000e+00 1700951363
-0.199248 -1.130478 0.869551 0.000000000000000e+00 1851878480
-0.919623 -1.682969 0.283560 0.000000000000000e+00 1851878480
-0.932553 -1.719697 0.571253 0.000000000000000e+00 1851878480
-0.245318 -1.118612 0.871644 0.000000000000000e+00 1851878480
-0.940328 -1.651686 0.285760 0.000000000000000e+00 1851878480
-0.942510 -1.678670 0.573504 0.000000000000000e+00 1851878480
-0.302060 -1.116734 0.873470 0.000000000000000e+00 1851878480
-0.955432 -1.615158 0.287738 0.000000000000000e+00 1851878480
-0.947306 -1.632704 0.575723 0.000000000000000e+00 1851878480
-0.353660 -1.110448 0.875400 0.000000000000000e+00 1851878480
-0.949872 -1.559249 0.288908 0.000000000000000e+00 1851878480
-0.978013 -1.610608 0.578130 0.000000000000000e+00 1851878480
-0.376247 -1.077542 0.878027 0.000000000000000e+00 1851878480
-0.962950 -1.520477 0.290806 0.000000000000000e+00 1701537140
-0.987554 -1.568768 0.580389 0.000000000000000e+00 1851878480
-0.424797 -1.068803 0.880010 0.000000000000000e+00 1851878480
-1.001368 -1.505487 0.293682 0.000000000000000e+00 1701537140
-1.002452 -1.531793 0.582688 0.000000000000000e+00 1851878480
-0.450181 -1.038570 0.882563 0.000000000000000e+00 1851878480
-0.983155 -1.436863 0.294368 0.000000000000000e+00 1701537140
-1.025367 -1.502291 0.585040 0.000000000000000e+00 1851878480
-0.494041 -1.025761 0.884645 0.000000000000000e+00 1851878480
-0.988895 -1.390617 0.295981 0.000000000000000e+00 1701537140
-0.988674 -1.415974 0.587030 0.000000000000000e+00 1701537140
-0.524732 -1.000634 0.887057 0.000000000000000e+00 1851878480
-0.962283 -1.313046 0.296359 0.000000000000000e+00 1701537140
-1.015635 -1.389943 0.589418 0.000000000000000e+00 1701537140
-0.570205 -0.989675 0.889078 0.000000000000000e+00 1851878480
0.144985 -0.334865 1.232388 0.000000000000000e+00 1851878480
-0.981867 -1.279534 0.298506 0.000000000000000e+00 1701537140
-1.034667 -1.356277 0.591758 0.000000000000000e+00 1701537140
-0.591896 -0.956062 0.891719 0.000000000000000e+00 1851878480
0.055606 -0.362076 1.231541 0.000000000000000e+00 1851878480
-0.977802 -1.222940 0.299753 0.000000000000000e+00 1701537140
-1.025297 -1.294985 0.593949 0.000000000000000e+00 1701537140
-0.623632 -0.932102 0.894094 0.000000000000000e+00 1851878480
-0.004961 -0.362205 1.232348 0.000000000000000e+00 1851878480
-0.973951 -1.166197 0.301012 0.000000000000000e+00 1701537140
-1.009758 -1.227253 0.596123 0.000000000000000e+00 1701537140
-0.660053 -0.912749 0.896338 0.000000000000000e+00 1851878480
-0.068467 -0.365547 1.232955 0.000000000000000e+00 1851878480
-0.786082 -0.927912 0.295359 0.000000000000000e+00 1701537140
-1.014359 -1.178804 0.598413 0.000000000000000e+00 1701537140
-0.681843 -0.879184 0.898979 0.000000000000000e+00 1851878480
-0.121598 -0.359170 1.234156 0.000000000000000e+00 1851878480
-0.843017 -0.929567 0.298931 0.000000000000000e+00 1701537140
-1.026268 -1.137309 0.600744 0.000000000000000e+00 1701537140
-0.718169 -0.859862 0.901218 0.000000000000000e+00 1851878480
-0.174909 -0.353250 1.235329 0.000000000000000e+00 1851878480
-0.886845 -0.918515 0.301999 0.000000000000000e+00 1701537140
-1.012338 -1.069969 0.602969 0.000000000000000e+00 1701537140
-0.743201 -0.829459 0.903771 0.000000000000000e+00 1851878480
-0.211506 -0.331108 1.237500 0.000000000000000e+00 1851878480
-0.960490 -0.937553 0.306164 0.000000000000000e+00 1701537140
-0.973709 -0.977449 0.605113 0.000000000000000e+00 1851878480
-0.757621 -0.788445 0.906629 0.000000000000000e+00 1851878480
-0.257872 -0.318760 1.239069 0.000000000000000e+00 1851878480
-0.988306 -0.910930 0.308615 0.000000000000000e+00 1701537140
-1.024166 -0.973726 0.607625 0.000000000000000e+00 1851878480
-0.787709 -0.762983 0.909043 0.000000000000000e+00 1851878480
-0.285606 -0.287993 1.241775 0.000000000000000e+00 1851878480
-0.946431 -0.813598 0.308495 0.000000000000000e+00 1851878480
-1.016550 -0.911534 0.609917 0.000000000000000e+00 1851878480
-0.803123 -0.722746 0.911885 0.000000000000000e+00 1851878480
-0.330982 -0.274951 1.243388 0.000000000000000e+00 1851878480
-0.960046 -0.772061 0.310425 0.000000000000000e+00 1851878480
-0.993316 -0.833016 0.612174 0.000000000000000e+00 1851878480
-0.809757 -0.673445 0.914998 0.000000000000000e+00 1851878480
-0.354440 -0.239923 1.246364 0.000000000000000e+00 1851878480
-0.940210 -0.695998 0.311134 0.000000000000000e+00 1851878480
-0.989032 -0.773283 0.614511 0.000000000000000e+00 1851878480
-0.801288 -0.608463 0.918582 0.000000000000000e+00 1851878480
-0.382964 -0.209980 1.249028 0.000000000000000e+00 1851878480
-0.929553 -0.628826 0.312186 0.000000000000000e+00 1851878480
-0.974721 -0.702822 0.616835 0.000000000000000e+00 1851878480
-0.805771 -0.556331 0.921797 0.000000000000000e+00 1851878480
-0.389666 -0.157674 1.253084 0.000000000000000e+00 1851878480
-0.929608 -0.572307 0.313632 0.000000000000000e+00 1851878480
-0.972078 -0.643931 0.619207 0.000000000000000e+00 1851878480
-0.953783 -0.652218 0.920604 0.000000000000000e+00 1768716611
-0.414903 -0.124184 1.255977 0.000000000000000e+00 1851878480
-0.915983 -0.501129 0.314589 0.000000000000000e+00 1851878480
-0.960560 -0.575401 0.621573 0.000000000000000e+00 1851878480
-0.984774 -0.627939 0.922975 0.000000000000000e+00 1768716611
-0.406953 -0.056234 1.261020 0.000000000000000e+00 1851878480
-0.940220 -0.469249 0.316911 0.000000000000000e+00 1851878480
-0.963503 -0.521539 0.623986 0.000000000000000e+00 1851878480
-1.028606 -0.617131 0.924938 0.000000000000000e+00 1768716611
-0.928477 -0.399232 0.317945 0.000000000000000e+00 1851878480
-0.988151 -0.490256 0.626447 0.000000000000000e+00 1851878480
-1.053334 -0.586412 0.927500 0.000000000000000e+00 1768716611
-0.920455 -0.332663 0.319119 0.000000000000000e+00 1851878480
-0.989440 -0.434125 0.628873 0.000000000000000e+00 1851878480
-1.075457 -0.552894 0.930149 0.000000000000000e+00 1768716611
-0.924692 -0.278749 0.320732 0.000000000000000e+00 1851878480
-0.975565 -0.361447 0.631294 0.000000000000000e+00 1851878480
-1.088376 -0.509491 0.933103 0.000000000000000e+00 1768716611
-0.906806 -0.200667 0.321569 0.000000000000000e+00 1851878480
-0.996428 -0.325539 0.633767 0.000000000000000e+00 1851878480
-0.800100 -0.143184 0.946034 0.000000000000000e+00 1851878480
-0.926940 -0.163194 0.323748 0.000000000000000e+00 1851878480
-0.969150 -0.237487 0.636212 0.000000000000000e+00 1851878480
-0.794882 -0.077872 0.949735 0.000000000000000e+00 1851878480
-0.927328 -0.104055 0.325236 0.000000000000000e+00 1851878480
-0.968846 -0.178027 0.638694 0.000000000000000e+00 1851878480
-0.791150 -0.013711 0.953412 0.000000000000000e+00 1851878480
-0.891396 -0.004679 0.325467 0.000000000000000e+00 1851878480
-0.984027 -0.135121 0.641190 0.000000000000000e+00 1851878480
-0.792939 0.044867 0.956927 0.000000000000000e+00 1851878480
-0.908015 0.037562 0.327529 0.000000000000000e+00 1851878480
-0.976008 -0.066481 0.643697 0.000000000000000e+00 1851878480
-0.785293 0.114179 0.960791 0.000000000000000e+00 1851878480
-0.906248 0.100399 0.328957 0.000000000000000e+00 1851878480
-0.969663 0.000808 0.646221 0.000000000000000e+00 1851878480
-0.777633 0.184011 0.964685 0.000000000000000e+00 1851878480
-0.903480 0.164792 0.330357 0.000000000000000e+00 1851878480
-0.967262 0.064191 0.648760 0.000000000000000e+00 1851878480
-0.772900 0.251107 0.968506 0.000000000000000e+00 1851878480
-0.891264 0.240254 0.331439 0.000000000000000e+00 1851878480
-0.982324 0.108439 0.651296 0.000000000000000e+00 1851878480
-0.766037 0.321059 0.972431 0.000000000000000e+00 1851878480
-0.896753 0.296275 0.333130 0.000000000000000e+00 1851878480
-0.964807 0.189637 0.653882 0.000000000000000e+00 1851878480
-0.770877 0.378366 0.975963 0.000000000000000e+00 1851878480
-0.902762 0.352059 0.334841 0.000000000000000e+00 1851878480
-0.969988 0.245744 0.656455 0.000000000000000e+00 1851878480
-0.734333 0.482857 0.981032 0.000000000000000e+00 1851878480
-0.904338 0.413261 0.336406 0.000000000000000e+00 1851878480
-0.961490 0.317817 0.659066 0.000000000000000e+00 1851878480
-0.756785 0.521129 0.983972 0.000000000000000e+00 1851878480
-0.959074 0.413647 0.339750 0.000000000000000e+00 1851878480
-0.963905 0.377907 0.661673 0.000000000000000e+00 1851878480
-0.732352 0.613224 0.988674 0.000000000000000e+00 1851878480
-0.961858 0.473909 0.341355 0.000000000000000e+00 1851878480
-0.961307 0.444188 0.664306 0.000000000000000e+00 1851878480
-0.741898 0.666952 0.992137 0.000000000000000e+00 1851878480
-0.951392 0.550028 0.342525 0.000000000000000e+00 1851878480
-0.950398 0.520615 0.666980 0.000000000000000e+00 1851878480
-0.768446 0.701290 0.994968 0.000000000000000e+00 1851878480
-0.969561 0.593150 0.344645 0.000000000000000e+00 1851878480
-0.998103 0.529082 0.669494 0.000000000000000e+00 1851878480
-0.761646 0.774601 0.999093 0.000000000000000e+00 1851878480
-0.973510 0.653254 0.346298 0.000000000000000e+00 1851878480
-0.993512 0.598868 0.672174 0.000000000000000e+00 1851878480
-0.754088 0.849360 1.003282 0.000000000000000e+00 1851878480
-0.960358 0.734068 0.347399 0.000000000000000e+00 1851878480
-0.993516 0.663733 0.674854 0.000000000000000e+00 1851878480
-0.756691 0.912701 1.007102 0.000000000000000e+00 1851878480
-0.958893 0.801576 0.348887 0.000000000000000e+00 1851878480
-0.984825 0.739422 0.677586 0.000000000000000e+00 1851878480
-0.736553 1.003486 1.011857 0.000000000000000e+00 1851878480
-0.961688 0.864462 0.350518 0.000000000000000e+00 1851878480
-0.998494 0.788910 0.680244 0.000000000000000e+00 1851878480
-0.736028 1.071612 1.015866 0.000000000000000e+00 1851878480
-0.966633 0.925188 0.352222 0.000000000000000e+00 1851878480
-0.994496 0.859976 0.682991 0.000000000000000e+00 1851878480
-0.697618 1.185784 1.021451 0.000000000000000e+00 1851878480
-0.956677 1.004457 0.353455 0.000000000000000e+00 1851878480
-0.982791 0.940938 0.685795 0.000000000000000e+00 1851878480
-0.985219 1.037236 0.355917 0.000000000000000e+00 1851878480
-0.984941 1.005646 0.688552 0.000000000000000e+00 1851878480
-0.972918 1.120399 0.357087 0.000000000000000e+00 1851878480
-0.991370 1.065568 0.691301 0.000000000000000e+00 1851878480
-0.976088 1.185077 0.358752 0.000000000000000e+00 1701537140
-0.993109 1.131692 0.694091 0.000000000000000e+00 1851878480
-0.828369 1.471383 0.014564 0.000000000000000e+00 1701537140
-0.983974 1.244341 0.360568 0.000000000000000e+00 1701537140
-0.994950 1.198173 0.696897 0.000000000000000e+00 1851878480
-0.891925 1.462359 0.019225 0.000000000000000e+00 1701537140
-0.866621 1.461158 0.358504 0.000000000000000e+00 1701537140
-1.006118 1.253469 0.699660 0.000000000000000e+00 1851878480
-0.942338 1.469525 0.022977 0.000000000000000e+00 1701537140
-0.911192 1.475876 0.361480 0.000000000000000e+00 1701537140
-1.009699 1.318668 0.702486 0.000000000000000e+00 1851878480
-0.964699 1.512185 0.024803 0.000000000000000e+00 1701537140
-0.971982 1.469833 0.364942 0.000000000000000e+00 1701537140
-1.026531 1.367558 0.705234 0.000000000000000e+00 1851878480
-0.953867 1.597594 0.024356 0.000000000000000e+00 1701537140
-0.970879 1.542500 0.366503 0.000000000000000e+00 1701537140
-1.032329 1.430785 0.708071 0.000000000000000e+00 1851878480
-0.958451 1.630304 0.367727 0.000000000000000e+00 1701537140
-1.039929 1.492154 0.710911 0.000000000000000e+00 1851878480
-0.990927 1.660741 0.370314 0.000000000000000e+00 1701537140
-1.028221 1.578872 0.713920 0.000000000000000e+00 1851878480
-0.947542 1.790017 0.370625 0.000000000000000e+00 1701537140
-1.017500 1.665051 0.716948 0.000000000000000e+00 1851878480
-0.989940 1.808156 0.373511 0.000000000000000e+00 1701537140
-0.982130 1.784188 0.720218 0.000000000000000e+00 1851878480
-0.958731 1.923253 0.374210 0.000000000000000e+00 1851878480
-0.933170 1.922348 0.723655 0.000000000000000e+00 1851878480
