# .PCD v0.7 - Point Cloud Data file format
VERSION 0.7
FIELDS x y z rgb label
SIZE 4 4 4 4 4
TYPE F F F F U
COUNT 1 1 1 1 1
WIDTH 777
HEIGHT 1
VIEWPOINT 0 0 0 1 0 0 0
POINTS 777
DATA ascii
-3.055908 0.142576 0.093730 0.000000000000000e+00 1851878480
-3.190944 0.223237 0.097872 0.000000000000000e+00 1851878480
-3.877345 0.361908 0.118925 0.000000000000000e+00 1634431585
-3.041338 -0.427675 0.102465 0.000000000000000e+00 1851878480
-2.996102 -0.350039 0.100941 0.000000000000000e+00 1851878480
-2.981878 -0.278353 0.100462 0.000000000000000e+00 1851878480
-2.979043 -0.208433 0.100366 0.000000000000000e+00 1851878480
-2.982279 -0.139155 0.100475 0.000000000000000e+00 1851878480
-2.989670 -0.069451 0.100724 0.000000000000000e+00 1851878480
-3.001412 0.000000 0.101120 0.000000000000000e+00 1851878480
-3.017891 0.070106 0.101675 0.000000000000000e+00 1851878480
-3.049942 0.142312 0.102755 0.000000000000000e+00 1851878480
-3.184678 0.222821 0.107294 0.000000000000000e+00 1851878480
-3.827624 0.357302 0.128956 0.000000000000000e+00 1634431585
-3.038510 -0.427322 0.111545 0.000000000000000e+00 1851878480
-2.994339 -0.349870 0.109924 0.000000000000000e+00 1851878480
-2.980241 -0.278230 0.109406 0.000000000000000e+00 1851878480
-2.977331 -0.208335 0.109299 0.000000000000000e+00 1851878480
-2.980591 -0.139091 0.109419 0.000000000000000e+00 1851878480
-2.988394 -0.069428 0.109706 0.000000000000000e+00 1851878480
-3.000609 0.000000 0.110154 0.000000000000000e+00 1851878480
-3.016208 0.070075 0.110727 0.000000000000000e+00 1851878480
-3.044176 0.142058 0.111753 0.000000000000000e+00 1851878480
-3.178604 0.222419 0.116688 0.000000000000000e+00 1851878480
-3.795143 0.354308 0.139322 0.000000000000000e+00 1634431585
-3.035756 -0.426984 0.120612 0.000000000000000e+00 1851878480
-2.992685 -0.349717 0.118901 0.000000000000000e+00 1851878480
-2.978637 -0.278112 0.118343 0.000000000000000e+00 1851878480
-2.975847 -0.208256 0.118232 0.000000000000000e+00 1851878480
-2.979038 -0.139034 0.118359 0.000000000000000e+00 1851878480
-2.987145 -0.069407 0.118681 0.000000000000000e+00 1851878480
-2.999915 0.000000 0.119188 0.000000000000000e+00 1851878480
-3.014734 0.070048 0.119777 0.000000000000000e+00 1851878480
-3.039312 0.141847 0.120753 0.000000000000000e+00 1851878480
-3.172718 0.222033 0.126054 0.000000000000000e+00 1851878480
-3.763914 0.351433 0.149542 0.000000000000000e+00 1634431585
-3.033287 -0.426690 0.129678 0.000000000000000e+00 1851878480
-2.991246 -0.349593 0.127881 0.000000000000000e+00 1851878480
-2.977286 -0.278021 0.127284 0.000000000000000e+00 1851878480
-2.974397 -0.208180 0.127160 0.000000000000000e+00 1851878480
-2.977541 -0.138982 0.127295 0.000000000000000e+00 1851878480
-2.985974 -0.069389 0.127655 0.000000000000000e+00 1851878480
-2.999182 0.000000 0.128220 0.000000000000000e+00 1851878480
-3.013994 0.070040 0.128853 0.000000000000000e+00 1851878480
-3.040388 0.141915 0.129981 0.000000000000000e+00 1851878480
-3.167033 0.221663 0.135396 0.000000000000000e+00 1851878480
-3.737082 0.348971 0.159766 0.000000000000000e+00 1634431585
-3.031204 -0.426454 0.138749 0.000000000000000e+00 1851878480
-2.989855 -0.349477 0.136856 0.000000000000000e+00 1851878480
-2.975942 -0.277932 0.136219 0.000000000000000e+00 1851878480
-2.973197 -0.208124 0.136094 0.000000000000000e+00 1851878480
-2.976261 -0.138940 0.136234 0.000000000000000e+00 1851878480
-2.984835 -0.069372 0.136626 0.000000000000000e+00 1851878480
-2.998574 0.000000 0.137255 0.000000000000000e+00 1851878480
-3.013275 0.070033 0.137928 0.000000000000000e+00 1851878480
-3.036648 0.141759 0.138998 0.000000000000000e+00 1851878480
-3.161562 0.221309 0.144716 0.000000000000000e+00 1851878480
-3.710845 0.346567 0.169858 0.000000000000000e+00 1634431585
-3.029466 -0.426270 0.147827 0.000000000000000e+00 1851878480
-2.988589 -0.349379 0.145832 0.000000000000000e+00 1851878480
-2.974764 -0.277862 0.145157 0.000000000000000e+00 1851878480
-2.972001 -0.208070 0.145022 0.000000000000000e+00 1851878480
-2.975003 -0.138902 0.145169 0.000000000000000e+00 1851878480
-2.983845 -0.069359 0.145600 0.000000000000000e+00 1851878480
-2.997901 0.000000 0.146286 0.000000000000000e+00 1851878480
-3.012942 0.070035 0.147020 0.000000000000000e+00 1851878480
-3.035676 0.141734 0.148130 0.000000000000000e+00 1851878480
-3.156159 0.220963 0.154009 0.000000000000000e+00 1851878480
-3.691708 0.344829 0.180141 0.000000000000000e+00 1634431585
-3.028001 -0.426129 0.156911 0.000000000000000e+00 1851878480
-2.987367 -0.349289 0.154805 0.000000000000000e+00 1851878480
-2.973594 -0.277795 0.154091 0.000000000000000e+00 1851878480
-2.970949 -0.208028 0.153954 0.000000000000000e+00 1851878480
-2.973991 -0.138875 0.154112 0.000000000000000e+00 1851878480
-2.982918 -0.069347 0.154574 0.000000000000000e+00 1851878480
-2.997329 0.000000 0.155321 0.000000000000000e+00 1851878480
-3.012649 0.070039 0.156115 0.000000000000000e+00 1851878480
-3.035732 0.141758 0.157311 0.000000000000000e+00 1851878480
-3.151018 0.220636 0.163285 0.000000000000000e+00 1851878480
-3.675394 0.343357 0.190458 0.000000000000000e+00 1634431585
-3.026843 -0.426034 0.166006 0.000000000000000e+00 1851878480
-2.986246 -0.349214 0.163779 0.000000000000000e+00 1851878480
-2.972545 -0.277741 0.163028 0.000000000000000e+00 1851878480
-2.969921 -0.207989 0.162884 0.000000000000000e+00 1851878480
-2.972989 -0.138851 0.163052 0.000000000000000e+00 1851878480
-2.982152 -0.069341 0.163555 0.000000000000000e+00 1851878480
-2.996776 0.000000 0.164357 0.000000000000000e+00 1851878480
-3.012489 0.070046 0.165218 0.000000000000000e+00 1851878480
-3.036133 0.141800 0.166515 0.000000000000000e+00 1851878480
-3.146083 0.220326 0.172545 0.000000000000000e+00 1851878480
-3.659235 0.341903 0.200689 0.000000000000000e+00 1634431585
-3.026265 -0.426025 0.175130 0.000000000000000e+00 1851878480
-2.985199 -0.349151 0.172754 0.000000000000000e+00 1851878480
-2.971515 -0.277692 0.171962 0.000000000000000e+00 1851878480
-2.968993 -0.207960 0.171816 0.000000000000000e+00 1851878480
-2.972117 -0.138834 0.171996 0.000000000000000e+00 1851878480
-2.981475 -0.069337 0.172538 0.000000000000000e+00 1851878480
-2.996305 0.000000 0.173396 0.000000000000000e+00 1851878480
-3.012424 0.070057 0.174329 0.000000000000000e+00 1851878480
-3.036578 0.141845 0.175727 0.000000000000000e+00 1851878480
-3.141251 0.220025 0.181784 0.000000000000000e+00 1851878480
-3.643061 0.340449 0.210824 0.000000000000000e+00 1634431585
-3.027833 -0.426322 0.184383 0.000000000000000e+00 1851878480
-2.984312 -0.349110 0.181733 0.000000000000000e+00 1851878480
-2.970620 -0.277658 0.180899 0.000000000000000e+00 1851878480
-2.968091 -0.207934 0.180745 0.000000000000000e+00 1851878480
-2.971281 -0.138820 0.180940 0.000000000000000e+00 1851878480
-2.980941 -0.069337 0.181528 0.000000000000000e+00 1851878480
-2.995956 0.000000 0.182442 0.000000000000000e+00 1851878480
-3.012369 0.070068 0.183442 0.000000000000000e+00 1851878480
-3.037301 0.141904 0.184960 0.000000000000000e+00 1851878480
-3.136631 0.219741 0.191009 0.000000000000000e+00 1851878480
-3.632326 0.339507 0.221195 0.000000000000000e+00 1634431585
-3.030411 -0.426766 0.193716 0.000000000000000e+00 1851878480
-2.983840 -0.349120 0.190739 0.000000000000000e+00 1851878480
-2.969811 -0.277635 0.189842 0.000000000000000e+00 1851878480
-2.967288 -0.207917 0.189681 0.000000000000000e+00 1851878480
-2.970526 -0.138810 0.189888 0.000000000000000e+00 1851878480
-2.980511 -0.069340 0.190526 0.000000000000000e+00 1851878480
-2.995649 0.000000 0.191494 0.000000000000000e+00 1851878480
-3.012372 0.070081 0.192563 0.000000000000000e+00 1851878480
-3.038103 0.141968 0.194207 0.000000000000000e+00 1851878480
-3.132077 0.219463 0.200215 0.000000000000000e+00 1851878480
-3.504745 0.327644 0.224037 0.000000000000000e+00 1851878480
-3.032999 -0.427215 0.203068 0.000000000000000e+00 1851878480
-2.984867 -0.349309 0.199845 0.000000000000000e+00 1851878480
-2.969303 -0.277642 0.198803 0.000000000000000e+00 1851878480
-2.966534 -0.207905 0.198618 0.000000000000000e+00 1851878480
-2.969821 -0.138805 0.198838 0.000000000000000e+00 1851878480
-2.980132 -0.069345 0.199528 0.000000000000000e+00 1851878480
-2.995543 0.000000 0.200560 0.000000000000000e+00 1851878480
-3.012438 0.070097 0.201691 0.000000000000000e+00 1851878480
-3.038916 0.142034 0.203464 0.000000000000000e+00 1851878480
-3.127703 0.219200 0.209409 0.000000000000000e+00 1851878480
-3.494819 0.326780 0.233988 0.000000000000000e+00 1851878480
-2.986632 -0.349588 0.209013 0.000000000000000e+00 1851878480
-2.969891 -0.277755 0.207842 0.000000000000000e+00 1851878480
-2.965970 -0.207908 0.207567 0.000000000000000e+00 1851878480
-2.969183 -0.138804 0.207792 0.000000000000000e+00 1851878480
-2.979858 -0.069353 0.208539 0.000000000000000e+00 1851878480
-2.995474 0.000000 0.209632 0.000000000000000e+00 1851878480
-3.012561 0.070114 0.210828 0.000000000000000e+00 1851878480
-3.039902 0.142110 0.212741 0.000000000000000e+00 1851878480
-3.123503 0.218951 0.218592 0.000000000000000e+00 1851878480
-3.485883 0.326012 0.243952 0.000000000000000e+00 1851878480
-2.988400 -0.349870 0.218196 0.000000000000000e+00 1851878480
-2.971409 -0.277957 0.216956 0.000000000000000e+00 1851878480
-2.966134 -0.207964 0.216570 0.000000000000000e+00 1851878480
-2.968613 -0.138807 0.216751 0.000000000000000e+00 1851878480
-2.979611 -0.069362 0.217554 0.000000000000000e+00 1851878480
-2.995584 0.000000 0.218721 0.000000000000000e+00 1851878480
-3.012740 0.070133 0.219973 0.000000000000000e+00 1851878480
-3.041015 0.142192 0.222038 0.000000000000000e+00 1851878480
-3.119691 0.218731 0.227782 0.000000000000000e+00 1851878480
-3.477166 0.325267 0.253883 0.000000000000000e+00 1851878480
-3.223716 -0.454372 0.245154 0.000000000000000e+00 1701537140
-3.132175 -0.366785 0.238193 0.000000000000000e+00 1701537140
-2.972939 -0.278162 0.226084 0.000000000000000e+00 1851878480
-2.967522 -0.208109 0.225672 0.000000000000000e+00 1851878480
-2.968173 -0.138818 0.225721 0.000000000000000e+00 1851878480
-2.979458 -0.069374 0.226579 0.000000000000000e+00 1851878480
-2.995745 0.000000 0.227818 0.000000000000000e+00 1851878480
-3.013078 0.070157 0.229136 0.000000000000000e+00 1851878480
-3.042157 0.142278 0.231347 0.000000000000000e+00 1851878480
-3.116303 0.218542 0.236986 0.000000000000000e+00 1851878480
-3.468616 0.324540 0.263778 0.000000000000000e+00 1851878480
-3.194956 -0.450424 0.252661 0.000000000000000e+00 1701537140
-3.114633 -0.364816 0.246309 0.000000000000000e+00 1701537140
-2.974472 -0.278371 0.235225 0.000000000000000e+00 1851878480
-2.969005 -0.208261 0.234793 0.000000000000000e+00 1851878480
-2.968059 -0.138845 0.234718 0.000000000000000e+00 1851878480
-2.979327 -0.069387 0.235609 0.000000000000000e+00 1851878480
-2.996029 0.000000 0.236930 0.000000000000000e+00 1851878480
-3.013484 0.070183 0.238310 0.000000000000000e+00 1851878480
-3.043426 0.142370 0.240678 0.000000000000000e+00 1851878480
-3.113317 0.218384 0.246205 0.000000000000000e+00 1851878480
-3.460232 0.323831 0.273640 0.000000000000000e+00 1851878480
-3.169360 -0.446924 0.260258 0.000000000000000e+00 1701537140
-3.097908 -0.362946 0.254391 0.000000000000000e+00 1701537140
-3.078350 -0.288162 0.252784 0.000000000000000e+00 1701537140
-2.970489 -0.208416 0.243927 0.000000000000000e+00 1851878480
-2.969168 -0.138930 0.243819 0.000000000000000e+00 1851878480
-2.979299 -0.069403 0.244651 0.000000000000000e+00 1851878480
-2.996342 0.000000 0.246050 0.000000000000000e+00 1851878480
-3.014047 0.070213 0.247504 0.000000000000000e+00 1851878480
-3.044806 0.142470 0.250030 0.000000000000000e+00 1851878480
-3.110371 0.218230 0.255414 0.000000000000000e+00 1851878480
-3.452009 0.323140 0.283468 0.000000000000000e+00 1851878480
-3.148077 -0.444035 0.268070 0.000000000000000e+00 1701537140
-3.082159 -0.361192 0.262457 0.000000000000000e+00 1701537140
-3.064116 -0.286902 0.260920 0.000000000000000e+00 1701537140
-3.074167 -0.215745 0.261776 0.000000000000000e+00 1701537140
-2.970606 -0.139033 0.252957 0.000000000000000e+00 1851878480
-2.979333 -0.069422 0.253701 0.000000000000000e+00 1851878480
-2.996777 0.000000 0.255186 0.000000000000000e+00 1851878480
-3.014690 0.070246 0.256711 0.000000000000000e+00 1851878480
-3.046212 0.142571 0.259396 0.000000000000000e+00 1851878480
-3.107410 0.218078 0.264607 0.000000000000000e+00 1851878480
-3.444113 0.322482 0.293278 0.000000000000000e+00 1851878480
-3.129306 -0.441502 0.275980 0.000000000000000e+00 1701537140
-3.067547 -0.359573 0.270534 0.000000000000000e+00 1701537140
-3.050913 -0.285741 0.269067 0.000000000000000e+00 1701537140
-3.060758 -0.214860 0.269935 0.000000000000000e+00 1701537140
-2.972045 -0.139136 0.262111 0.000000000000000e+00 1851878480
-2.979559 -0.069445 0.262774 0.000000000000000e+00 1851878480
-2.997217 0.000000 0.264331 0.000000000000000e+00 1851878480
-3.015508 0.070283 0.265944 0.000000000000000e+00 1851878480
-3.047755 0.142681 0.268788 0.000000000000000e+00 1851878480
-3.104407 0.217924 0.273784 0.000000000000000e+00 1851878480
-3.436442 0.321848 0.303067 0.000000000000000e+00 1851878480
-3.111607 -0.439124 0.283879 0.000000000000000e+00 1701537140
-3.054048 -0.358088 0.278628 0.000000000000000e+00 1701537140
-3.038352 -0.284641 0.277196 0.000000000000000e+00 1701537140
-3.048110 -0.214030 0.278086 0.000000000000000e+00 1701537140
-3.081851 -0.144316 0.281165 0.000000000000000e+00 1701537140
-2.980412 -0.069484 0.271910 0.000000000000000e+00 1851878480
-2.997773 0.000000 0.273494 0.000000000000000e+00 1851878480
-3.016420 0.070323 0.275195 0.000000000000000e+00 1851878480
-3.049353 0.142794 0.278200 0.000000000000000e+00 1851878480
-3.101423 0.217773 0.282950 0.000000000000000e+00 1851878480
-3.429140 0.321251 0.312849 0.000000000000000e+00 1851878480
-3.094812 -0.436876 0.291761 0.000000000000000e+00 1701537140
-3.041255 -0.356688 0.286712 0.000000000000000e+00 1701537140
-3.026162 -0.283579 0.285289 0.000000000000000e+00 1701537140
-3.035908 -0.213233 0.286208 0.000000000000000e+00 1701537140
-3.068865 -0.143748 0.289315 0.000000000000000e+00 1701537140
-2.981986 -0.069540 0.281125 0.000000000000000e+00 1851878480
-2.998356 0.000000 0.282668 0.000000000000000e+00 1851878480
-3.017475 0.070368 0.284471 0.000000000000000e+00 1851878480
-3.050988 0.142911 0.287630 0.000000000000000e+00 1851878480
-3.100243 0.217751 0.292273 0.000000000000000e+00 1851878480
-3.422199 0.320691 0.322626 0.000000000000000e+00 1851878480
-4.141053 0.486411 0.390395 0.000000000000000e+00 1634431585
-3.249547 -0.536403 0.316240 0.000000000000000e+00 1701537140
-3.079463 -0.434835 0.299687 0.000000000000000e+00 1701537140
-3.028867 -0.355337 0.294763 0.000000000000000e+00 1701537140
-3.014200 -0.282539 0.293336 0.000000000000000e+00 1701537140
-3.023989 -0.212457 0.294289 0.000000000000000e+00 1701537140
-3.056576 -0.143214 0.297460 0.000000000000000e+00 1701537140
-2.983564 -0.069597 0.290355 0.000000000000000e+00 1851878480
-2.999017 0.000000 0.291858 0.000000000000000e+00 1851878480
-3.018642 0.070415 0.293768 0.000000000000000e+00 1851878480
-3.052793 0.143037 0.297092 0.000000000000000e+00 1851878480
-3.101545 0.217906 0.301836 0.000000000000000e+00 1851878480
-3.415759 0.320180 0.332415 0.000000000000000e+00 1851878480
-4.075029 0.478794 0.396574 0.000000000000000e+00 1634431585
-3.207819 -0.529673 0.321948 0.000000000000000e+00 1701537140
-3.065478 -0.432989 0.307662 0.000000000000000e+00 1701537140
-3.016724 -0.354018 0.302769 0.000000000000000e+00 1701537140
-3.006160 -0.281870 0.301709 0.000000000000000e+00 1701537140
-3.012257 -0.211696 0.302321 0.000000000000000e+00 1701537140
-3.044691 -0.142700 0.305576 0.000000000000000e+00 1701537140
-2.985143 -0.069654 0.299599 0.000000000000000e+00 1851878480
-2.999769 0.000000 0.301067 0.000000000000000e+00 1851878480
-3.019974 0.070467 0.303095 0.000000000000000e+00 1851878480
-3.054580 0.143163 0.306568 0.000000000000000e+00 1851878480
-3.103508 0.218109 0.311479 0.000000000000000e+00 1851878480
-3.409512 0.319690 0.342191 0.000000000000000e+00 1851878480
-4.003040 0.470476 0.401759 0.000000000000000e+00 1634431585
-3.177481 -0.524825 0.328586 0.000000000000000e+00 1701537140
-3.052329 -0.431264 0.315644 0.000000000000000e+00 1701537140
-3.008588 -0.353172 0.311120 0.000000000000000e+00 1701537140
-3.005158 -0.281862 0.310766 0.000000000000000e+00 1701537140
-3.010350 -0.211627 0.311303 0.000000000000000e+00 1701537140
-3.033058 -0.142198 0.313651 0.000000000000000e+00 1701537140
-3.097913 -0.072308 0.320358 0.000000000000000e+00 1701537140
-3.000707 0.000000 0.310305 0.000000000000000e+00 1851878480
-3.021371 0.070521 0.312442 0.000000000000000e+00 1851878480
-3.056473 0.143296 0.316072 0.000000000000000e+00 1851878480
-3.105616 0.218324 0.321154 0.000000000000000e+00 1851878480
-3.403355 0.319210 0.351944 0.000000000000000e+00 1851878480
-3.957291 0.465242 0.409227 0.000000000000000e+00 1634431585
-3.154240 -0.521151 0.335799 0.000000000000000e+00 1701537140
-3.039641 -0.429608 0.323599 0.000000000000000e+00 1701537140
-3.007716 -0.353181 0.320200 0.000000000000000e+00 1701537140
-3.003717 -0.281816 0.319774 0.000000000000000e+00 1701537140
-3.009133 -0.211608 0.320351 0.000000000000000e+00 1701537140
-3.022561 -0.141751 0.321780 0.000000000000000e+00 1701537140
-3.085347 -0.072037 0.328465 0.000000000000000e+00 1701537140
-3.002174 0.000000 0.319610 0.000000000000000e+00 1851878480
-3.022982 0.070581 0.321825 0.000000000000000e+00 1851878480
-3.058444 0.143434 0.325601 0.000000000000000e+00 1851878480
-3.108032 0.218563 0.330880 0.000000000000000e+00 1851878480
-3.397353 0.318748 0.361681 0.000000000000000e+00 1851878480
-3.920468 0.461059 0.417371 0.000000000000000e+00 1634431585
-3.133203 -0.517844 0.343119 0.000000000000000e+00 1701537140
-3.027221 -0.427992 0.331513 0.000000000000000e+00 1701537140
-3.006425 -0.353145 0.329236 0.000000000000000e+00 1701537140
-3.002384 -0.281783 0.328793 0.000000000000000e+00 1701537140
-3.007651 -0.211573 0.329370 0.000000000000000e+00 1701537140
-3.022006 -0.141771 0.330942 0.000000000000000e+00 1701537140
-3.073391 -0.071782 0.336569 0.000000000000000e+00 1701537140
-3.004196 0.000000 0.328992 0.000000000000000e+00 1851878480
-3.024618 0.070643 0.331228 0.000000000000000e+00 1851878480
-3.060502 0.143577 0.335158 0.000000000000000e+00 1851878480
-3.110507 0.218808 0.340634 0.000000000000000e+00 1851878480
-3.391301 0.318284 0.371384 0.000000000000000e+00 1851878480
-3.887909 0.457379 0.425768 0.000000000000000e+00 1634431585
-3.115008 -0.515009 0.350637 0.000000000000000e+00 1701537140
-3.020382 -0.427168 0.339986 0.000000000000000e+00 1701537140
-3.005289 -0.353130 0.338287 0.000000000000000e+00 1701537140
-3.002656 -0.281903 0.337991 0.000000000000000e+00 1701537140
-3.006943 -0.211594 0.338473 0.000000000000000e+00 1701537140
-3.021085 -0.141775 0.340065 0.000000000000000e+00 1701537140
-3.061778 -0.071534 0.344646 0.000000000000000e+00 1701537140
-3.006252 0.000000 0.338395 0.000000000000000e+00 1851878480
-3.026389 0.070708 0.340662 0.000000000000000e+00 1851878480
-3.062571 0.143722 0.344735 0.000000000000000e+00 1851878480
-3.113105 0.219064 0.350423 0.000000000000000e+00 1851878480
-3.385552 0.317851 0.381091 0.000000000000000e+00 1851878480
-3.857580 0.453963 0.434224 0.000000000000000e+00 1634431585
-3.099178 -0.512568 0.358324 0.000000000000000e+00 1701537140
-3.019969 -0.427256 0.349166 0.000000000000000e+00 1701537140
-3.005496 -0.353275 0.347493 0.000000000000000e+00 1701537140
-3.007263 -0.282433 0.347697 0.000000000000000e+00 1701537140
-3.009235 -0.211828 0.347925 0.000000000000000e+00 1701537140
-3.019958 -0.141771 0.349165 0.000000000000000e+00 1701537140
-3.050373 -0.071292 0.352681 0.000000000000000e+00 1701537140
-3.008313 0.000000 0.347819 0.000000000000000e+00 1851878480
-3.028234 0.070775 0.350122 0.000000000000000e+00 1851878480
-3.064766 0.143875 0.354346 0.000000000000000e+00 1851878480
-3.115751 0.219326 0.360240 0.000000000000000e+00 1851878480
-3.380030 0.317442 0.390796 0.000000000000000e+00 1851878480
-3.833110 0.451239 0.443181 0.000000000000000e+00 1634431585
-3.084969 -0.510398 0.366113 0.000000000000000e+00 1701537140
-3.019160 -0.427293 0.358303 0.000000000000000e+00 1701537140
-3.009314 -0.353849 0.357135 0.000000000000000e+00 1701537140
-3.038065 -0.285426 0.360547 0.000000000000000e+00 1701537140
-3.016973 -0.212448 0.358044 0.000000000000000e+00 1701537140
-3.019562 -0.141803 0.358351 0.000000000000000e+00 1701537140
-3.043579 -0.071159 0.361201 0.000000000000000e+00 1701537140
-3.013819 0.000000 0.357669 0.000000000000000e+00 1851878480
-3.030152 0.070845 0.359608 0.000000000000000e+00 1851878480
-3.067002 0.144030 0.363981 0.000000000000000e+00 1851878480
-3.118570 0.219602 0.370101 0.000000000000000e+00 1851878480
-3.374965 0.317078 0.400529 0.000000000000000e+00 1851878480
-3.810674 0.448756 0.452237 0.000000000000000e+00 1634431585
-3.071572 -0.508366 0.373921 0.000000000000000e+00 1701537140
-3.018368 -0.427336 0.367444 0.000000000000000e+00 1701537140
-3.018872 -0.355102 0.367506 0.000000000000000e+00 1701537140
-3.046173 -0.286292 0.370829 0.000000000000000e+00 1701537140
-3.046213 -0.214584 0.370834 0.000000000000000e+00 1701537140
-3.021800 -0.141959 0.367862 0.000000000000000e+00 1701537140
-3.043640 -0.071186 0.370521 0.000000000000000e+00 1701537140
-3.144057 0.000000 0.382745 0.000000000000000e+00 1701537140
-3.032113 0.070916 0.369118 0.000000000000000e+00 1851878480
-3.069230 0.144187 0.373636 0.000000000000000e+00 1851878480
-3.121411 0.219882 0.379988 0.000000000000000e+00 1851878480
-3.370065 0.316733 0.410259 0.000000000000000e+00 1851878480
-3.788126 0.446262 0.461152 0.000000000000000e+00 1634431585
-3.058647 -0.506415 0.381713 0.000000000000000e+00 1701537140
-3.018679 -0.427539 0.376725 0.000000000000000e+00 1701537140
-3.219820 -0.378880 0.401827 0.000000000000000e+00 1701537140
-3.047747 -0.286546 0.380352 0.000000000000000e+00 1701537140
-3.047290 -0.214740 0.380295 0.000000000000000e+00 1701537140
-3.028758 -0.142339 0.377983 0.000000000000000e+00 1701537140
-3.043403 -0.071207 0.379810 0.000000000000000e+00 1701537140
-3.131029 0.000000 0.390746 0.000000000000000e+00 1701537140
-3.034150 0.070990 0.378656 0.000000000000000e+00 1851878480
-3.071510 0.144348 0.383318 0.000000000000000e+00 1851878480
-3.124401 0.220174 0.389919 0.000000000000000e+00 1851878480
-3.365449 0.316416 0.420001 0.000000000000000e+00 1851878480
-3.773363 0.444688 0.470908 0.000000000000000e+00 1634431585
-3.046003 -0.504514 0.389467 0.000000000000000e+00 1701537140
-3.021499 -0.428101 0.386334 0.000000000000000e+00 1701537140
-3.224927 -0.379625 0.412344 0.000000000000000e+00 1701537140
-3.049506 -0.286821 0.389915 0.000000000000000e+00 1701537140
-3.048045 -0.214875 0.389728 0.000000000000000e+00 1701537140
-3.058407 -0.143787 0.391053 0.000000000000000e+00 1701537140
-3.043015 -0.071225 0.389085 0.000000000000000e+00 1701537140
-3.119181 0.000000 0.398823 0.000000000000000e+00 1701537140
-3.036347 0.071069 0.388232 0.000000000000000e+00 1851878480
-3.073926 0.144517 0.393037 0.000000000000000e+00 1851878480
-3.127409 0.220470 0.399875 0.000000000000000e+00 1851878480
-3.361140 0.316132 0.429761 0.000000000000000e+00 1851878480
-3.760455 0.443336 0.480818 0.000000000000000e+00 1634431585
-3.045937 -0.504700 0.398799 0.000000000000000e+00 1701537140
-3.027803 -0.429162 0.396424 0.000000000000000e+00 1701537140
-3.230064 -0.380378 0.422906 0.000000000000000e+00 1701537140
-3.053119 -0.287273 0.399739 0.000000000000000e+00 1701537140
-3.049269 -0.215045 0.399235 0.000000000000000e+00 1701537140
-3.238795 -0.152327 0.424049 0.000000000000000e+00 1701537140
-3.043124 -0.071255 0.398430 0.000000000000000e+00 1701537140
-3.107972 0.000000 0.406921 0.000000000000000e+00 1701537140
-3.038871 0.071156 0.397873 0.000000000000000e+00 1851878480
-3.076413 0.144690 0.402789 0.000000000000000e+00 1851878480
-3.130617 0.220782 0.409886 0.000000000000000e+00 1851878480
-3.357282 0.315892 0.439562 0.000000000000000e+00 1851878480
-3.747646 0.441998 0.490672 0.000000000000000e+00 1634431585
-3.046723 -0.505032 0.408252 0.000000000000000e+00 1701537140
-3.058139 -0.433635 0.409781 0.000000000000000e+00 1701537140
-3.235234 -0.381139 0.433512 0.000000000000000e+00 1701537140
-3.236930 -0.304690 0.433739 0.000000000000000e+00 1701537140
-3.051025 -0.215255 0.408828 0.000000000000000e+00 1701537140
-3.244009 -0.152633 0.434687 0.000000000000000e+00 1701537140
-3.045057 -0.071329 0.408028 0.000000000000000e+00 1701537140
-3.097194 0.000000 0.415015 0.000000000000000e+00 1701537140
-3.041697 0.071250 0.407578 0.000000000000000e+00 1851878480
-3.078935 0.144866 0.412568 0.000000000000000e+00 1851878480
-3.133872 0.221100 0.419929 0.000000000000000e+00 1851878480
-3.353758 0.315686 0.449393 0.000000000000000e+00 1851878480
-3.734933 0.440675 0.500470 0.000000000000000e+00 1634431585
-3.047227 -0.505322 0.417678 0.000000000000000e+00 1701537140
-3.063175 -0.434526 0.419864 0.000000000000000e+00 1701537140
-3.240440 -0.381909 0.444162 0.000000000000000e+00 1701537140
-3.242043 -0.305296 0.444382 0.000000000000000e+00 1701537140
-3.053063 -0.215487 0.418478 0.000000000000000e+00 1701537140
-3.249258 -0.152943 0.445370 0.000000000000000e+00 1701537140
-3.049985 -0.071474 0.418056 0.000000000000000e+00 1701537140
-3.086628 0.000000 0.423079 0.000000000000000e+00 1701537140
-3.044586 0.071347 0.417316 0.000000000000000e+00 1851878480
-3.081511 0.145047 0.422378 0.000000000000000e+00 1851878480
-3.137282 0.221431 0.430022 0.000000000000000e+00 1851878480
-3.350645 0.315522 0.459267 0.000000000000000e+00 1851878480
-3.724863 0.439667 0.510561 0.000000000000000e+00 1634431585
-3.047672 -0.505607 0.427108 0.000000000000000e+00 1701537140
-3.065011 -0.434969 0.429538 0.000000000000000e+00 1701537140
-3.245685 -0.382687 0.454858 0.000000000000000e+00 1701537140
-3.247182 -0.305907 0.455068 0.000000000000000e+00 1701537140
-3.057825 -0.215913 0.428531 0.000000000000000e+00 1701537140
-3.254544 -0.153256 0.456099 0.000000000000000e+00 1701537140
-3.057992 -0.071691 0.428554 0.000000000000000e+00 1701537140
-3.082131 0.000000 0.431937 0.000000000000000e+00 1701537140
-3.047509 0.071446 0.427085 0.000000000000000e+00 1851878480
-3.084134 0.145231 0.432218 0.000000000000000e+00 1851878480
-3.140712 0.221766 0.440147 0.000000000000000e+00 1851878480
-3.348028 0.315408 0.469200 0.000000000000000e+00 1851878480
-3.717155 0.438940 0.520931 0.000000000000000e+00 1634431585
-3.048532 -0.505966 0.436607 0.000000000000000e+00 1701537140
-3.076942 -0.436849 0.440676 0.000000000000000e+00 1701537140
-3.250972 -0.383474 0.465600 0.000000000000000e+00 1701537140
-3.252347 -0.306525 0.465797 0.000000000000000e+00 1701537140
-3.255432 -0.229965 0.466239 0.000000000000000e+00 1701537140
-3.259872 -0.153572 0.466875 0.000000000000000e+00 1701537140
-3.086836 -0.072398 0.442093 0.000000000000000e+00 1701537140
-3.083395 0.000000 0.441600 0.000000000000000e+00 1701537140
-3.050499 0.071546 0.436889 0.000000000000000e+00 1851878480
-3.086809 0.145419 0.442089 0.000000000000000e+00 1851878480
-3.144258 0.222111 0.450317 0.000000000000000e+00 1851878480
-3.345847 0.315337 0.479188 0.000000000000000e+00 1851878480
-3.709485 0.438222 0.531268 0.000000000000000e+00 1634431585
-3.050804 -0.506564 0.446327 0.000000000000000e+00 1701537140
-3.099601 -0.440258 0.453466 0.000000000000000e+00 1701537140
-3.256306 -0.384271 0.476391 0.000000000000000e+00 1701537140
-3.246136 -0.306073 0.474903 0.000000000000000e+00 1701537140
-3.260674 -0.230436 0.477030 0.000000000000000e+00 1701537140
-3.265245 -0.153893 0.477699 0.000000000000000e+00 1701537140
-3.412696 -0.080076 0.499271 0.000000000000000e+00 1701537140
-3.084798 0.000000 0.451300 0.000000000000000e+00 1701537140
-3.053536 0.071649 0.446726 0.000000000000000e+00 1851878480
-3.089562 0.145613 0.451997 0.000000000000000e+00 1851878480
-3.147902 0.222466 0.460532 0.000000000000000e+00 1851878480
-3.344119 0.315312 0.489238 0.000000000000000e+00 1851878480
-3.701854 0.437511 0.541574 0.000000000000000e+00 1634431585
-3.054592 -0.507419 0.456293 0.000000000000000e+00 1701537140
-3.090715 -0.439191 0.461689 0.000000000000000e+00 1701537140
-3.122761 -0.368676 0.466476 0.000000000000000e+00 1701537140
-3.230381 -0.304723 0.482553 0.000000000000000e+00 1701537140
-3.259452 -0.230452 0.486895 0.000000000000000e+00 1701537140
-3.270664 -0.154217 0.488570 0.000000000000000e+00 1701537140
-3.417463 -0.080224 0.510499 0.000000000000000e+00 1701537140
-3.086161 0.000000 0.461009 0.000000000000000e+00 1701537140
-3.062007 0.071880 0.457401 0.000000000000000e+00 1851878480
-3.092383 0.145810 0.461939 0.000000000000000e+00 1851878480
-3.151631 0.222829 0.470789 0.000000000000000e+00 1851878480
-3.342871 0.315335 0.499356 0.000000000000000e+00 1851878480
-3.694261 0.436809 0.551847 0.000000000000000e+00 1634431585
-3.059867 -0.508527 0.466520 0.000000000000000e+00 1701537140
-3.083688 -0.438392 0.470152 0.000000000000000e+00 1701537140
-3.110171 -0.367357 0.474190 0.000000000000000e+00 1701537140
-3.214955 -0.303406 0.490165 0.000000000000000e+00 1701537140
-3.245294 -0.229555 0.494791 0.000000000000000e+00 1701537140
-3.276135 -0.154545 0.499493 0.000000000000000e+00 1701537140
-3.145543 -0.073874 0.479583 0.000000000000000e+00 1701537140
-3.087518 0.000000 0.470736 0.000000000000000e+00 1701537140
-3.447980 0.080977 0.525693 0.000000000000000e+00 1851878480
-3.095397 0.146019 0.471937 0.000000000000000e+00 1851878480
-3.155452 0.223200 0.481093 0.000000000000000e+00 1851878480
-3.341983 0.315394 0.509533 0.000000000000000e+00 1851878480
-3.563247 0.421509 0.543267 0.000000000000000e+00 1851878480
-3.066145 -0.509807 0.476944 0.000000000000000e+00 1701537140
-3.080203 -0.438100 0.479131 0.000000000000000e+00 1701537140
-3.098248 -0.366118 0.481938 0.000000000000000e+00 1701537140
-3.200435 -0.302176 0.497833 0.000000000000000e+00 1701537140
-3.231022 -0.228652 0.502591 0.000000000000000e+00 1701537140
-3.281661 -0.154878 0.510468 0.000000000000000e+00 1701537140
-3.131095 -0.073569 0.487047 0.000000000000000e+00 1701537140
-3.089197 0.000000 0.480530 0.000000000000000e+00 1701537140
-3.437176 0.080761 0.534659 0.000000000000000e+00 1851878480
-3.098489 0.146233 0.481975 0.000000000000000e+00 1851878480
-3.159405 0.223584 0.491451 0.000000000000000e+00 1851878480
-3.341698 0.315514 0.519807 0.000000000000000e+00 1851878480
-3.559968 0.421317 0.553759 0.000000000000000e+00 1851878480
-3.073627 -0.511293 0.487607 0.000000000000000e+00 1701537140
-3.078947 -0.438129 0.488451 0.000000000000000e+00 1701537140
-3.091000 -0.365435 0.490363 0.000000000000000e+00 1701537140
-3.170345 -0.299477 0.502950 0.000000000000000e+00 1701537140
-3.217779 -0.227823 0.510475 0.000000000000000e+00 1701537140
-3.287243 -0.155215 0.521495 0.000000000000000e+00 1701537140
-3.117893 -0.073294 0.494629 0.000000000000000e+00 1701537140
-3.091848 0.000000 0.490497 0.000000000000000e+00 1701537140
-3.426426 0.080546 0.543576 0.000000000000000e+00 1851878480
-3.101750 0.146456 0.492068 0.000000000000000e+00 1851878480
-3.163481 0.223978 0.501861 0.000000000000000e+00 1851878480
-3.342059 0.315698 0.530191 0.000000000000000e+00 1851878480
-3.557609 0.421237 0.564387 0.000000000000000e+00 1851878480
-3.082948 -0.513092 0.498622 0.000000000000000e+00 1701537140
-3.080574 -0.438573 0.498238 0.000000000000000e+00 1701537140
-3.091719 -0.365697 0.500041 0.000000000000000e+00 1701537140
-3.155320 -0.298202 0.510327 0.000000000000000e+00 1701537140
-3.205284 -0.227048 0.518408 0.000000000000000e+00 1701537140
-3.163333 -0.149436 0.511623 0.000000000000000e+00 1701537140
-3.110890 -0.073164 0.503141 0.000000000000000e+00 1701537140
-3.095259 0.000000 0.500613 0.000000000000000e+00 1701537140
-3.415725 0.080334 0.552444 0.000000000000000e+00 1851878480
-3.105171 0.146688 0.502216 0.000000000000000e+00 1851878480
-3.167616 0.224380 0.512316 0.000000000000000e+00 1851878480
-3.342778 0.315918 0.540646 0.000000000000000e+00 1851878480
-3.555790 0.421225 0.575098 0.000000000000000e+00 1851878480
-3.107507 -0.517434 0.512216 0.000000000000000e+00 1701537140
-3.421669 -0.487373 0.564000 0.000000000000000e+00 1701537140
-3.120895 -0.369330 0.514423 0.000000000000000e+00 1701537140
-3.140544 -0.296952 0.517662 0.000000000000000e+00 1701537140
-3.175420 -0.225043 0.523411 0.000000000000000e+00 1701537140
-3.148710 -0.148819 0.519008 0.000000000000000e+00 1701537140
-3.109026 -0.073156 0.512467 0.000000000000000e+00 1701537140
-3.099673 0.000000 0.510925 0.000000000000000e+00 1701537140
-3.404693 0.080114 0.561202 0.000000000000000e+00 1851878480
-3.108772 0.146931 0.512425 0.000000000000000e+00 1851878480
-3.171788 0.224786 0.522812 0.000000000000000e+00 1851878480
-3.343874 0.316177 0.551177 0.000000000000000e+00 1851878480
-3.554273 0.421253 0.585858 0.000000000000000e+00 1851878480
-3.112833 -0.518581 0.522742 0.000000000000000e+00 1701537140
-3.419517 -0.487311 0.574244 0.000000000000000e+00 1701537140
-3.114333 -0.368738 0.522994 0.000000000000000e+00 1701537140
-3.127295 -0.295847 0.525171 0.000000000000000e+00 1701537140
-3.161631 -0.224178 0.530937 0.000000000000000e+00 1701537140
-3.134365 -0.148215 0.526358 0.000000000000000e+00 1701537140
-3.114053 -0.073311 0.522947 0.000000000000000e+00 1701537140
-3.104891 0.000000 0.521409 0.000000000000000e+00 1701537140
-3.393738 0.079896 0.569915 0.000000000000000e+00 1851878480
-3.112614 0.147186 0.522706 0.000000000000000e+00 1851878480
-3.176108 0.225205 0.533368 0.000000000000000e+00 1851878480
-3.345648 0.316504 0.561839 0.000000000000000e+00 1851878480
-3.553238 0.421342 0.596700 0.000000000000000e+00 1851878480
-4.441759 0.632990 0.745911 0.000000000000000e+00 1851878480
-3.119849 -0.520015 0.533599 0.000000000000000e+00 1701537140
-3.413522 -0.486705 0.583827 0.000000000000000e+00 1701537140
-3.114139 -0.368903 0.532622 0.000000000000000e+00 1701537140
-3.120073 -0.295315 0.533637 0.000000000000000e+00 1701537140
-3.148230 -0.223342 0.538453 0.000000000000000e+00 1701537140
-3.123922 -0.147797 0.534295 0.000000000000000e+00 1701537140
-3.140008 -0.073960 0.537047 0.000000000000000e+00 1701537140
-3.110567 0.000000 0.532011 0.000000000000000e+00 1701537140
-3.382840 0.079680 0.578579 0.000000000000000e+00 1851878480
-3.116750 0.147457 0.533069 0.000000000000000e+00 1851878480
-3.180852 0.225657 0.544032 0.000000000000000e+00 1851878480
-3.347773 0.316867 0.572581 0.000000000000000e+00 1851878480
-3.552469 0.421466 0.607591 0.000000000000000e+00 1851878480
-4.421652 0.630446 0.756251 0.000000000000000e+00 1851878480
-3.143414 -0.524216 0.547392 0.000000000000000e+00 1701537140
-3.406130 -0.485904 0.593141 0.000000000000000e+00 1701537140
-3.306939 -0.391947 0.575868 0.000000000000000e+00 1701537140
-3.134000 -0.296788 0.545753 0.000000000000000e+00 1701537140
-3.137559 -0.222701 0.546373 0.000000000000000e+00 1701537140
-3.122242 -0.147794 0.543705 0.000000000000000e+00 1701537140
-3.131620 -0.073801 0.545338 0.000000000000000e+00 1701537140
-3.116525 0.000000 0.542710 0.000000000000000e+00 1701537140
-3.371996 0.079466 0.587197 0.000000000000000e+00 1851878480
-3.121241 0.147747 0.543531 0.000000000000000e+00 1851878480
-3.186343 0.226164 0.554868 0.000000000000000e+00 1851878480
-3.350252 0.317267 0.583411 0.000000000000000e+00 1851878480
-3.552052 0.421636 0.618552 0.000000000000000e+00 1851878480
-4.398304 0.627444 0.765918 0.000000000000000e+00 1851878480
-3.154391 -0.526325 0.559111 0.000000000000000e+00 1701537140
-3.398406 -0.485059 0.602362 0.000000000000000e+00 1701537140
-3.312864 -0.392857 0.587200 0.000000000000000e+00 1701537140
-3.139851 -0.297499 0.556534 0.000000000000000e+00 1701537140
-3.132951 -0.222492 0.555311 0.000000000000000e+00 1701537140
-3.145113 -0.148955 0.557466 0.000000000000000e+00 1701537140
-3.127459 -0.073742 0.554337 0.000000000000000e+00 1701537140
-3.122569 0.000000 0.553471 0.000000000000000e+00 1701537140
-3.360985 0.079248 0.595729 0.000000000000000e+00 1851878480
-3.125892 0.148045 0.554060 0.000000000000000e+00 1851878480
-3.192078 0.226691 0.565791 0.000000000000000e+00 1851878480
-3.353037 0.317699 0.594321 0.000000000000000e+00 1851878480
-3.551854 0.421836 0.629561 0.000000000000000e+00 1851878480
-4.376136 0.624612 0.775663 0.000000000000000e+00 1851878480
-3.156746 -0.527003 0.569354 0.000000000000000e+00 1701537140
-3.390504 -0.484193 0.611514 0.000000000000000e+00 1701537140
-3.318841 -0.393778 0.598589 0.000000000000000e+00 1701537140
-3.142457 -0.297907 0.566776 0.000000000000000e+00 1701537140
-3.151474 -0.223928 0.568403 0.000000000000000e+00 1701537140
-3.138803 -0.148737 0.566117 0.000000000000000e+00 1701537140
-3.127371 -0.073780 0.564055 0.000000000000000e+00 1701537140
-3.128621 0.000000 0.564281 0.000000000000000e+00 1701537140
-3.349865 0.079029 0.604185 0.000000000000000e+00 1851878480
-3.130676 0.148352 0.564652 0.000000000000000e+00 1851878480
-3.197822 0.227221 0.576762 0.000000000000000e+00 1851878480
-3.356374 0.318186 0.605359 0.000000000000000e+00 1851878480
-3.551960 0.422076 0.640635 0.000000000000000e+00 1851878480
-4.354503 0.621860 0.785382 0.000000000000000e+00 1851878480
-3.156406 -0.527235 0.579127 0.000000000000000e+00 1701537140
-3.382624 -0.483332 0.620633 0.000000000000000e+00 1701537140
-3.324864 -0.394709 0.610035 0.000000000000000e+00 1701537140
-3.136903 -0.297544 0.575549 0.000000000000000e+00 1701537140
-3.142968 -0.223446 0.576661 0.000000000000000e+00 1701537140
-3.143622 -0.149047 0.576781 0.000000000000000e+00 1701537140
-3.140763 -0.074136 0.576257 0.000000000000000e+00 1701537140
-3.134573 0.000000 0.575121 0.000000000000000e+00 1701537140
-3.338888 0.078813 0.612608 0.000000000000000e+00 1851878480
-3.135945 0.148683 0.575373 0.000000000000000e+00 1851878480
-3.203750 0.227768 0.587814 0.000000000000000e+00 1851878480
-3.359740 0.318680 0.616434 0.000000000000000e+00 1851878480
-3.552516 0.422374 0.651804 0.000000000000000e+00 1851878480
-4.333327 0.619175 0.795065 0.000000000000000e+00 1851878480
-3.155147 -0.527319 0.588738 0.000000000000000e+00 1701537140
-3.374665 -0.482464 0.629699 0.000000000000000e+00 1701537140
-3.193521 -0.379329 0.595898 0.000000000000000e+00 1701537140
-3.142174 -0.298210 0.586317 0.000000000000000e+00 1701537140
-3.161021 -0.224855 0.589834 0.000000000000000e+00 1701537140
-3.340064 -0.158449 0.623242 0.000000000000000e+00 1701537140
-3.377198 -0.079762 0.630172 0.000000000000000e+00 1701537140
-3.140257 0.000000 0.585959 0.000000000000000e+00 1701537140
-3.328057 0.078601 0.621002 0.000000000000000e+00 1851878480
-3.141988 0.149053 0.586282 0.000000000000000e+00 1851878480
-3.209925 0.228334 0.598959 0.000000000000000e+00 1851878480
-3.363632 0.319228 0.627640 0.000000000000000e+00 1851878480
-3.553376 0.422712 0.663046 0.000000000000000e+00 1851878480
-4.312713 0.616574 0.804735 0.000000000000000e+00 1851878480
-3.153560 -0.527353 0.598290 0.000000000000000e+00 1701537140
-3.366510 -0.481572 0.638690 0.000000000000000e+00 1701537140
-3.178828 -0.377798 0.603083 0.000000000000000e+00 1701537140
-3.147684 -0.298902 0.597175 0.000000000000000e+00 1701537140
-3.155090 -0.224561 0.598580 0.000000000000000e+00 1701537140
-3.346190 -0.158830 0.634835 0.000000000000000e+00 1701537140
-3.368676 -0.079606 0.639101 0.000000000000000e+00 1701537140
-3.145774 0.000000 0.596812 0.000000000000000e+00 1701537140
-3.317281 0.078391 0.629350 0.000000000000000e+00 1851878480
-3.148283 0.149436 0.597288 0.000000000000000e+00 1851878480
-3.216375 0.228923 0.610207 0.000000000000000e+00 1851878480
-3.367696 0.319795 0.638915 0.000000000000000e+00 1851878480
-3.554654 0.423104 0.674385 0.000000000000000e+00 1851878480
-4.176575 0.597450 0.792375 0.000000000000000e+00 1634431585
-3.156441 -0.528139 0.608704 0.000000000000000e+00 1701537140
-3.358379 -0.480686 0.647647 0.000000000000000e+00 1701537140
-3.166047 -0.376496 0.610557 0.000000000000000e+00 1701537140
-3.166773 -0.300889 0.610697 0.000000000000000e+00 1701537140
-3.169245 -0.225698 0.611173 0.000000000000000e+00 1701537140
-3.449237 -0.163816 0.665168 0.000000000000000e+00 1701537140
-3.360037 -0.079447 0.647967 0.000000000000000e+00 1701537140
-3.151108 0.000000 0.607676 0.000000000000000e+00 1701537140
-3.306323 0.078177 0.637608 0.000000000000000e+00 1851878480
-3.154839 0.149834 0.608395 0.000000000000000e+00 1851878480
-3.223189 0.229540 0.621576 0.000000000000000e+00 1851878480
-3.371965 0.320385 0.650267 0.000000000000000e+00 1851878480
-3.556292 0.423543 0.685813 0.000000000000000e+00 1851878480
-4.122083 0.589995 0.794923 0.000000000000000e+00 1634431585
-3.161852 -0.529355 0.619643 0.000000000000000e+00 1701537140
-3.183118 -0.455868 0.623810 0.000000000000000e+00 1701537140
-3.160636 -0.376073 0.619404 0.000000000000000e+00 1701537140
-3.166980 -0.301085 0.620648 0.000000000000000e+00 1701537140
-3.164252 -0.225475 0.620113 0.000000000000000e+00 1701537140
-3.438517 -0.163402 0.673862 0.000000000000000e+00 1701537140
-3.351200 -0.079285 0.656750 0.000000000000000e+00 1701537140
-3.156210 0.000000 0.618537 0.000000000000000e+00 1701537140
-3.295311 0.077963 0.645797 0.000000000000000e+00 1851878480
-3.161723 0.150249 0.619617 0.000000000000000e+00 1851878480
-3.230296 0.230181 0.633056 0.000000000000000e+00 1851878480
-3.376525 0.321006 0.661713 0.000000000000000e+00 1851878480
-3.558268 0.424027 0.697330 0.000000000000000e+00 1851878480
-4.087232 0.585350 0.800994 0.000000000000000e+00 1634431585
-3.167425 -0.530604 0.630661 0.000000000000000e+00 1701537140
-3.168548 -0.454052 0.630884 0.000000000000000e+00 1701537140
-3.178869 -0.378468 0.632939 0.000000000000000e+00 1701537140
-3.182922 -0.302781 0.633746 0.000000000000000e+00 1701537140
-3.181164 -0.226815 0.633396 0.000000000000000e+00 1701537140
-3.210449 -0.152655 0.639227 0.000000000000000e+00 1701537140
-3.342399 -0.079124 0.665499 0.000000000000000e+00 1701537140
-3.161229 0.000000 0.629427 0.000000000000000e+00 1701537140
-3.284354 0.077750 0.653942 0.000000000000000e+00 1851878480
-3.168988 0.150684 0.630972 0.000000000000000e+00 1851878480
-3.237605 0.230839 0.644634 0.000000000000000e+00 1851878480
-3.381247 0.321647 0.673234 0.000000000000000e+00 1851878480
-3.560745 0.424575 0.708974 0.000000000000000e+00 1851878480
-4.054701 0.581037 0.807325 0.000000000000000e+00 1634431585
-3.173024 -0.531864 0.641731 0.000000000000000e+00 1701537140
-3.157777 -0.452782 0.638647 0.000000000000000e+00 1701537140
-3.172104 -0.377891 0.641544 0.000000000000000e+00 1701537140
-3.175349 -0.302243 0.642201 0.000000000000000e+00 1701537140
-3.367114 -0.240219 0.680984 0.000000000000000e+00 1701537140
-3.196392 -0.152079 0.646457 0.000000000000000e+00 1701537140
-3.333576 -0.078963 0.674201 0.000000000000000e+00 1701537140
-3.166266 0.000000 0.640364 0.000000000000000e+00 1701537140
-3.273795 0.077547 0.662111 0.000000000000000e+00 1851878480
-3.176622 0.151138 0.642458 0.000000000000000e+00 1851878480
-3.245088 0.231513 0.656305 0.000000000000000e+00 1851878480
-3.386109 0.322304 0.684826 0.000000000000000e+00 1851878480
-3.563443 0.425154 0.720691 0.000000000000000e+00 1851878480
-4.018045 0.576133 0.812633 0.000000000000000e+00 1634431585
-3.161114 -0.530193 0.649252 0.000000000000000e+00 1701537140
-3.154569 -0.452600 0.647908 0.000000000000000e+00 1701537140
-3.172867 -0.378214 0.651666 0.000000000000000e+00 1701537140
-3.197703 -0.304558 0.656767 0.000000000000000e+00 1701537140
-3.441830 -0.245700 0.706907 0.000000000000000e+00 1701537140
-3.185064 -0.151633 0.654171 0.000000000000000e+00 1701537140
-3.252406 -0.077088 0.668002 0.000000000000000e+00 1701537140
-3.171381 0.000000 0.651361 0.000000000000000e+00 1701537140
-3.263289 0.077345 0.670237 0.000000000000000e+00 1851878480
-3.184552 0.151609 0.654066 0.000000000000000e+00 1851878480
-3.252736 0.232201 0.668070 0.000000000000000e+00 1851878480
-3.391178 0.322985 0.696504 0.000000000000000e+00 1851878480
-3.566540 0.425785 0.732521 0.000000000000000e+00 1851878480
-3.981709 0.571274 0.817791 0.000000000000000e+00 1634431585
-3.161913 -0.530658 0.659361 0.000000000000000e+00 1701537140
-3.162657 -0.454044 0.659516 0.000000000000000e+00 1701537140
-3.391238 -0.404497 0.707182 0.000000000000000e+00 1701537140
-3.192711 -0.304273 0.665783 0.000000000000000e+00 1701537140
-3.430717 -0.245060 0.715415 0.000000000000000e+00 1701537140
-3.180142 -0.151493 0.663162 0.000000000000000e+00 1701537140
-3.237986 -0.076794 0.675224 0.000000000000000e+00 1701537140
-3.176758 0.000000 0.662456 0.000000000000000e+00 1701537140
-3.252690 0.077142 0.678291 0.000000000000000e+00 1851878480
-3.192756 0.152094 0.665792 0.000000000000000e+00 1851878480
-3.260440 0.232897 0.679907 0.000000000000000e+00 1851878480
-3.396477 0.323692 0.708275 0.000000000000000e+00 1851878480
-3.569817 0.426443 0.744422 0.000000000000000e+00 1851878480
-3.957528 0.568159 0.825272 0.000000000000000e+00 1634431585
-3.165064 -0.531524 0.669985 0.000000000000000e+00 1701537140
-3.187360 -0.457881 0.674705 0.000000000000000e+00 1701537140
-3.381045 -0.403537 0.715704 0.000000000000000e+00 1701537140
-3.192683 -0.304463 0.675831 0.000000000000000e+00 1701537140
-3.419589 -0.244420 0.723863 0.000000000000000e+00 1701537140
-3.182008 -0.151678 0.673572 0.000000000000000e+00 1701537140
-3.224146 -0.076514 0.682492 0.000000000000000e+00 1701537140
-3.182685 0.000000 0.673715 0.000000000000000e+00 1701537140
-3.241958 0.076937 0.686262 0.000000000000000e+00 1851878480
-3.201143 0.152590 0.677622 0.000000000000000e+00 1851878480
-3.268250 0.233602 0.691828 0.000000000000000e+00 1851878480
-3.401754 0.324400 0.720088 0.000000000000000e+00 1851878480
-3.573311 0.427130 0.756403 0.000000000000000e+00 1851878480
-3.935723 0.565387 0.833119 0.000000000000000e+00 1634431585
-3.168943 -0.532517 0.680798 0.000000000000000e+00 1701537140
-3.183798 -0.457663 0.683990 0.000000000000000e+00 1701537140
-3.370797 -0.402573 0.724164 0.000000000000000e+00 1701537140
-3.195208 -0.304900 0.686441 0.000000000000000e+00 1701537140
-3.408518 -0.243785 0.732267 0.000000000000000e+00 1701537140
-3.213459 -0.153276 0.690362 0.000000000000000e+00 1701537140
-3.216237 -0.076375 0.690959 0.000000000000000e+00 1701537140
-3.189852 0.000000 0.685290 0.000000000000000e+00 1701537140
-3.231846 0.076746 0.694312 0.000000000000000e+00 1851878480
-3.209724 0.153098 0.689559 0.000000000000000e+00 1851878480
-3.276067 0.234312 0.703812 0.000000000000000e+00 1851878480
-3.407403 0.325148 0.732028 0.000000000000000e+00 1851878480
-3.577007 0.427847 0.768464 0.000000000000000e+00 1851878480
-3.916159 0.562938 0.841326 0.000000000000000e+00 1634431585
-3.173723 -0.533669 0.691844 0.000000000000000e+00 1701537140
-3.186901 -0.458408 0.694716 0.000000000000000e+00 1701537140
-3.360598 -0.401616 0.732581 0.000000000000000e+00 1701537140
-3.198856 -0.305447 0.697323 0.000000000000000e+00 1701537140
-3.397455 -0.243152 0.740616 0.000000000000000e+00 1701537140
-3.204255 -0.152937 0.698500 0.000000000000000e+00 1701537140
-3.217236 -0.076449 0.701329 0.000000000000000e+00 1701537140
-3.199316 0.000000 0.697423 0.000000000000000e+00 1701537140
-3.222061 0.076564 0.702381 0.000000000000000e+00 1851878480
-3.218428 0.153613 0.701589 0.000000000000000e+00 1851878480
-3.283862 0.235023 0.715853 0.000000000000000e+00 1851878480
-3.413173 0.325911 0.744042 0.000000000000000e+00 1851878480
-3.581028 0.428608 0.780633 0.000000000000000e+00 1851878480
-3.901527 0.561201 0.850499 0.000000000000000e+00 1634431585
-3.179939 -0.535068 0.703252 0.000000000000000e+00 1701537140
-3.202860 -0.461009 0.708321 0.000000000000000e+00 1701537140
-3.350333 -0.400655 0.740935 0.000000000000000e+00 1701537140
-3.203398 -0.306083 0.708440 0.000000000000000e+00 1701537140
-3.386360 -0.242519 0.748903 0.000000000000000e+00 1701537140
-3.199171 -0.152795 0.707505 0.000000000000000e+00 1701537140
-3.225491 -0.076696 0.713326 0.000000000000000e+00 1701537140
