# .PCD v0.7 - Point Cloud Data file format
VERSION 0.7
FIELDS x y z rgb label
SIZE 4 4 4 4 4
TYPE F F F F U
COUNT 1 1 1 1 1
WIDTH 762
HEIGHT 1
VIEWPOINT 0 0 0 1 0 0 0
POINTS 762
DATA ascii
-0.484086 -0.645717 -4.568944 0.000000000000000e+00 1851878480
-0.500421 -0.554583 -4.723122 0.000000000000000e+00 1851878480
-0.510052 -0.451640 -4.814024 0.000000000000000e+00 1851878480
-0.500454 -0.332143 -4.723429 0.000000000000000e+00 1851878480
-0.490901 -0.217278 -4.633271 0.000000000000000e+00 1851878480
-0.504653 -0.111203 -4.763060 0.000000000000000e+00 1851878480
-0.528783 0.000000 -4.990806 0.000000000000000e+00 1851878480
-0.548121 0.120782 -5.173330 0.000000000000000e+00 1851878480
-0.512094 -0.776427 -4.698013 0.000000000000000e+00 1851878480
-0.496532 -0.643990 -4.555246 0.000000000000000e+00 1851878480
-0.517432 -0.557567 -4.746987 0.000000000000000e+00 1851878480
-0.520581 -0.448206 -4.775873 0.000000000000000e+00 1851878480
-0.512772 -0.330901 -4.704239 0.000000000000000e+00 1851878480
-0.502853 -0.216408 -4.613236 0.000000000000000e+00 1851878480
-0.516953 -0.110761 -4.742593 0.000000000000000e+00 1851878480
-0.540676 0.000000 -4.960233 0.000000000000000e+00 1851878480
-0.555036 0.118921 -5.091975 0.000000000000000e+00 1851878480
-0.522614 -0.771048 -4.663912 0.000000000000000e+00 1851878480
-0.509436 -0.642941 -4.546312 0.000000000000000e+00 1851878480
-0.536477 -0.562528 -4.787633 0.000000000000000e+00 1851878480
-0.530183 -0.444186 -4.731465 0.000000000000000e+00 1851878480
-0.525423 -0.329938 -4.688982 0.000000000000000e+00 1851878480
-0.513191 -0.214912 -4.579824 0.000000000000000e+00 1851878480
-0.527337 -0.109945 -4.706062 0.000000000000000e+00 1851878480
-0.554278 0.000000 -4.946487 0.000000000000000e+00 1851878480
-0.565770 0.117958 -5.049053 0.000000000000000e+00 1851878480
-0.534838 -0.768406 -4.646335 0.000000000000000e+00 1851878480
-0.526907 -0.647564 -4.577432 0.000000000000000e+00 1851878480
-0.544488 -0.555966 -4.730166 0.000000000000000e+00 1851878480
-0.541175 -0.441514 -4.701389 0.000000000000000e+00 1851878480
-0.535755 -0.327610 -4.654304 0.000000000000000e+00 1851878480
-0.523767 -0.213594 -4.550159 0.000000000000000e+00 1851878480
-0.535906 -0.108803 -4.655608 0.000000000000000e+00 1851878480
-0.573173 0.000000 -4.979363 0.000000000000000e+00 1851878480
-0.572944 0.116323 -4.977371 0.000000000000000e+00 1851878480
-0.545478 -0.763686 -4.616171 0.000000000000000e+00 1851878480
-0.543436 -0.650829 -4.598889 0.000000000000000e+00 1851878480
-0.557534 -0.554755 -4.718198 0.000000000000000e+00 1851878480
-0.553033 -0.439670 -4.680107 0.000000000000000e+00 1851878480
-0.546049 -0.325380 -4.621002 0.000000000000000e+00 1851878480
-0.537947 -0.213776 -4.552440 0.000000000000000e+00 1851878480
-0.549894 -0.108793 -4.653545 0.000000000000000e+00 1851878480
-0.584920 0.000000 -4.949959 0.000000000000000e+00 1851878480
-0.588832 0.116497 -4.983061 0.000000000000000e+00 1851878480
-0.556632 -0.759910 -4.591691 0.000000000000000e+00 1851878480
-0.555797 -0.649069 -4.584800 0.000000000000000e+00 1851878480
-0.568863 -0.551942 -4.692582 0.000000000000000e+00 1851878480
-0.564126 -0.437330 -4.653513 0.000000000000000e+00 1851878480
-0.557179 -0.323751 -4.596203 0.000000000000000e+00 1851878480
-0.548978 -0.212731 -4.528556 0.000000000000000e+00 1851878480
-0.559636 -0.107965 -4.616467 0.000000000000000e+00 1851878480
-0.596724 0.000000 -4.922417 0.000000000000000e+00 1851878480
-0.601404 0.116024 -4.961022 0.000000000000000e+00 1851878480
-0.564759 -0.752293 -4.543984 0.000000000000000e+00 1851878480
-0.568658 -0.647973 -4.575361 0.000000000000000e+00 1851878480
-0.581252 -0.550277 -4.676690 0.000000000000000e+00 1851878480
-0.574037 -0.434212 -4.618634 0.000000000000000e+00 1851878480
-0.569205 -0.322712 -4.579756 0.000000000000000e+00 1851878480
-0.558287 -0.211088 -4.491910 0.000000000000000e+00 1851878480
-0.570320 -0.107356 -4.588727 0.000000000000000e+00 1851878480
-0.608062 0.000000 -4.892395 0.000000000000000e+00 1851878480
-0.613727 0.115527 -4.937979 0.000000000000000e+00 1851878480
-0.575984 -0.749072 -4.522811 0.000000000000000e+00 1851878480
-0.578606 -0.643690 -4.543400 0.000000000000000e+00 1851878480
-0.590563 -0.545848 -4.637293 0.000000000000000e+00 1851878480
-0.586149 -0.432872 -4.602629 0.000000000000000e+00 1851878480
-0.579886 -0.320980 -4.553455 0.000000000000000e+00 1851878480
-0.569896 -0.210373 -4.475010 0.000000000000000e+00 1851878480
-0.582324 -0.107020 -4.572594 0.000000000000000e+00 1851878480
-0.619571 0.000000 -4.865074 0.000000000000000e+00 1851878480
-0.623825 0.114647 -4.898472 0.000000000000000e+00 1851878480
-0.588482 -0.747624 -4.512315 0.000000000000000e+00 1851878480
-0.589786 -0.640952 -4.522311 0.000000000000000e+00 1851878480
-0.601432 -0.543036 -4.611608 0.000000000000000e+00 1851878480
-0.596218 -0.430123 -4.571627 0.000000000000000e+00 1851878480
-0.590249 -0.319159 -4.525861 0.000000000000000e+00 1851878480
-0.582595 -0.210087 -4.467175 0.000000000000000e+00 1851878480
-0.591259 -0.106148 -4.533607 0.000000000000000e+00 1851878480
-0.628239 0.000000 -4.817153 0.000000000000000e+00 1851878480
-0.637656 0.114478 -4.889361 0.000000000000000e+00 1851878480
-0.599089 -0.743900 -4.488050 0.000000000000000e+00 1851878480
-0.599449 -0.636731 -4.490742 0.000000000000000e+00 1851878480
-0.613025 -0.540995 -4.592447 0.000000000000000e+00 1851878480
-0.606343 -0.427543 -4.542392 0.000000000000000e+00 1851878480
-0.601813 -0.318058 -4.508451 0.000000000000000e+00 1851878480
-0.593516 -0.209188 -4.446296 0.000000000000000e+00 1851878480
-0.604418 -0.106059 -4.527968 0.000000000000000e+00 1851878480
-0.639606 0.000000 -4.791576 0.000000000000000e+00 1851878480
-0.646392 0.113424 -4.842418 0.000000000000000e+00 1851878480
-0.611315 -0.742313 -4.476656 0.000000000000000e+00 1851878480
-0.611714 -0.635406 -4.479578 0.000000000000000e+00 1851878480
-0.619739 -0.534839 -4.538347 0.000000000000000e+00 1851878480
-0.620973 -0.428186 -4.547378 0.000000000000000e+00 1851878480
-0.613430 -0.317036 -4.492140 0.000000000000000e+00 1851878480
-0.602905 -0.207803 -4.415068 0.000000000000000e+00 1851878480
-0.614849 -0.105506 -4.502534 0.000000000000000e+00 1851878480
-0.649589 0.000000 -4.756935 0.000000000000000e+00 1851878480
-0.660933 0.113414 -4.840008 0.000000000000000e+00 1851878480
-0.619084 -0.735506 -4.433753 0.000000000000000e+00 1851878480
-0.622425 -0.632564 -4.457685 0.000000000000000e+00 1851878480
-0.635941 -0.536964 -4.554480 0.000000000000000e+00 1851878480
-0.625805 -0.422196 -4.481890 0.000000000000000e+00 1851878480
-0.621432 -0.314234 -4.450573 0.000000000000000e+00 1851878480
-0.612556 -0.206568 -4.387004 0.000000000000000e+00 1851878480
-0.625819 -0.105068 -4.481990 0.000000000000000e+00 1851878480
-0.661566 0.000000 -4.738002 0.000000000000000e+00 1851878480
-0.669277 0.112364 -4.793229 0.000000000000000e+00 1851878480
-0.629463 -0.732029 -4.410916 0.000000000000000e+00 1851878480
-0.635057 -0.631759 -4.450111 0.000000000000000e+00 1851878480
-0.645386 -0.533420 -4.522491 0.000000000000000e+00 1851878480
-0.638169 -0.421436 -4.471917 0.000000000000000e+00 1851878480
-0.632041 -0.312842 -4.428981 0.000000000000000e+00 1851878480
-0.623929 -0.205956 -4.372133 0.000000000000000e+00 1851878480
-0.635786 -0.104485 -4.455218 0.000000000000000e+00 1851878480
-0.672245 0.000000 -4.710705 0.000000000000000e+00 1851878480
-0.680286 0.111798 -4.767054 0.000000000000000e+00 1851878480
-0.642448 -0.731670 -4.406836 0.000000000000000e+00 1851878480
-0.641389 -0.624856 -4.399575 0.000000000000000e+00 1851878480
-0.653595 -0.529028 -4.483303 0.000000000000000e+00 1851878480
-0.648284 -0.419258 -4.446874 0.000000000000000e+00 1851878480
-0.642260 -0.311322 -4.405550 0.000000000000000e+00 1851878480
-0.636684 -0.205818 -4.367299 0.000000000000000e+00 1851878480
-0.647442 -0.104199 -4.441098 0.000000000000000e+00 1851878480
-0.682880 0.000000 -4.684182 0.000000000000000e+00 1851878480
-0.691446 0.111281 -4.742939 0.000000000000000e+00 1851878480
-0.651234 -0.726647 -4.374639 0.000000000000000e+00 1851878480
-0.653479 -0.623733 -4.389719 0.000000000000000e+00 1851878480
-0.662787 -0.525596 -4.452244 0.000000000000000e+00 1851878480
-0.659374 -0.417789 -4.429320 0.000000000000000e+00 1851878480
-0.656166 -0.311618 -4.407767 0.000000000000000e+00 1851878480
-0.646469 -0.204746 -4.342631 0.000000000000000e+00 1851878480
-0.657966 -0.103747 -4.419861 0.000000000000000e+00 1851878480
-0.691241 0.000000 -4.643381 0.000000000000000e+00 1851878480
-0.699504 0.110297 -4.698888 0.000000000000000e+00 1851878480
-0.662631 -0.724685 -4.360851 0.000000000000000e+00 1851878480
-0.664016 -0.621208 -4.369964 0.000000000000000e+00 1851878480
-0.675879 -0.525338 -4.448035 0.000000000000000e+00 1851878480
-0.671308 -0.416906 -4.417953 0.000000000000000e+00 1851878480
-0.660701 -0.307542 -4.348145 0.000000000000000e+00 1851878480
-0.654077 -0.203043 -4.304555 0.000000000000000e+00 1851878480
-0.668035 -0.103243 -4.396413 0.000000000000000e+00 1851878480
-0.703163 0.000000 -4.627596 0.000000000000000e+00 1851878480
-0.711603 0.109977 -4.683136 0.000000000000000e+00 1851878480
-0.671540 -0.720138 -4.331481 0.000000000000000e+00 1851878480
-0.673970 -0.618252 -4.347156 0.000000000000000e+00 1851878480
-0.683893 -0.521223 -4.411156 0.000000000000000e+00 1851878480
-0.678744 -0.413322 -4.377949 0.000000000000000e+00 1851878480
-0.674692 -0.307944 -4.351810 0.000000000000000e+00 1851878480
-0.665406 -0.202541 -4.291915 0.000000000000000e+00 1851878480
-0.675935 -0.102432 -4.359828 0.000000000000000e+00 1851878480
-0.711786 0.000000 -4.591071 0.000000000000000e+00 1851878480
-0.722189 0.109441 -4.658167 0.000000000000000e+00 1851878480
-0.783111 0.238368 -5.051119 0.000000000000000e+00 1851878480
-0.681372 -0.716743 -4.309025 0.000000000000000e+00 1851878480
-0.683669 -0.615185 -4.323550 0.000000000000000e+00 1851878480
-0.696279 -0.520541 -4.403299 0.000000000000000e+00 1851878480
-0.688683 -0.411374 -4.355257 0.000000000000000e+00 1851878480
-0.684572 -0.306493 -4.329260 0.000000000000000e+00 1851878480
-0.677064 -0.202158 -4.281781 0.000000000000000e+00 1851878480
-0.684367 -0.101731 -4.327964 0.000000000000000e+00 1851878480
-0.721586 0.000000 -4.563341 0.000000000000000e+00 1851878480
-0.734686 0.109211 -4.646185 0.000000000000000e+00 1851878480
-0.786759 0.234910 -4.975493 0.000000000000000e+00 1851878480
-0.695299 -0.717707 -4.312745 0.000000000000000e+00 1851878480
-0.690265 -0.609498 -4.281521 0.000000000000000e+00 1851878480
-0.704075 -0.516519 -4.367178 0.000000000000000e+00 1851878480
-0.698147 -0.409224 -4.330407 0.000000000000000e+00 1851878480
-0.691428 -0.303770 -4.288736 0.000000000000000e+00 1851878480
-0.687757 -0.201508 -4.265961 0.000000000000000e+00 1851878480
-0.697004 -0.101671 -4.323319 0.000000000000000e+00 1851878480
-0.735521 0.000000 -4.562227 0.000000000000000e+00 1851878480
-0.741126 0.108107 -4.596995 0.000000000000000e+00 1851878480
-0.796749 0.233442 -4.942010 0.000000000000000e+00 1851878480
-0.700150 -0.709446 -4.261009 0.000000000000000e+00 1851878480
-0.701860 -0.608358 -4.271414 0.000000000000000e+00 1851878480
-0.716010 -0.515631 -4.357529 0.000000000000000e+00 1851878480
-0.711164 -0.409201 -4.328041 0.000000000000000e+00 1851878480
-0.703427 -0.303368 -4.280954 0.000000000000000e+00 1851878480
-0.696189 -0.200234 -4.236904 0.000000000000000e+00 1851878480
-0.706860 -0.101215 -4.301842 0.000000000000000e+00 1851878480
-0.742308 0.000000 -4.517579 0.000000000000000e+00 1851878480
-0.753299 0.107865 -4.584466 0.000000000000000e+00 1851878480
-0.807998 0.232391 -4.917356 0.000000000000000e+00 1851878480
-0.713646 -0.710092 -4.262757 0.000000000000000e+00 1851878480
-0.712188 -0.606188 -4.254046 0.000000000000000e+00 1851878480
-0.725097 -0.512767 -4.331153 0.000000000000000e+00 1851878480
-0.719167 -0.406349 -4.295732 0.000000000000000e+00 1851878480
-0.712257 -0.301641 -4.254457 0.000000000000000e+00 1851878480
-0.702781 -0.198488 -4.197857 0.000000000000000e+00 1851878480
-0.717158 -0.100840 -4.283734 0.000000000000000e+00 1851878480
-0.752531 0.000000 -4.495020 0.000000000000000e+00 1851878480
-0.764594 0.107510 -4.567077 0.000000000000000e+00 1851878480
-0.815017 0.230186 -4.868261 0.000000000000000e+00 1851878480
-0.723072 -0.706741 -4.240482 0.000000000000000e+00 1851878480
-0.721904 -0.603586 -4.233634 0.000000000000000e+00 1851878480
-0.736677 -0.511739 -4.320272 0.000000000000000e+00 1851878480
-0.728168 -0.404156 -4.270370 0.000000000000000e+00 1851878480
-0.720891 -0.299896 -4.227693 0.000000000000000e+00 1851878480
-0.712920 -0.197789 -4.180949 0.000000000000000e+00 1851878480
-0.728202 -0.100581 -4.270569 0.000000000000000e+00 1851878480
-0.760979 0.000000 -4.462793 0.000000000000000e+00 1851878480
-0.772164 0.106653 -4.528389 0.000000000000000e+00 1851878480
-0.825102 0.228912 -4.838846 0.000000000000000e+00 1851878480
-0.734628 -0.705561 -4.231202 0.000000000000000e+00 1851878480
-0.730593 -0.600238 -4.207959 0.000000000000000e+00 1851878480
-0.744530 -0.508207 -4.288230 0.000000000000000e+00 1851878480
-0.740565 -0.403895 -4.265395 0.000000000000000e+00 1851878480
-0.730666 -0.298681 -4.208381 0.000000000000000e+00 1851878480
-0.725565 -0.197799 -4.178999 0.000000000000000e+00 1851878480
-0.738243 -0.100196 -4.252018 0.000000000000000e+00 1851878480
-0.770004 0.000000 -4.434952 0.000000000000000e+00 1851878480
-0.779451 0.105789 -4.489367 0.000000000000000e+00 1851878480
-0.838048 0.228464 -4.826861 0.000000000000000e+00 1851878480
-0.745019 -0.703326 -4.215574 0.000000000000000e+00 1851878480
-0.739744 -0.597381 -4.185724 0.000000000000000e+00 1851878480
-0.754613 -0.506298 -4.269860 0.000000000000000e+00 1851878480
-0.751237 -0.402721 -4.250756 0.000000000000000e+00 1851878480
-0.741299 -0.297855 -4.194525 0.000000000000000e+00 1851878480
-0.735942 -0.197203 -4.164212 0.000000000000000e+00 1851878480
-0.746776 -0.099624 -4.225516 0.000000000000000e+00 1851878480
-0.783143 0.000000 -4.431292 0.000000000000000e+00 1851878480
-0.789155 0.105278 -4.465308 0.000000000000000e+00 1851878480
-0.848295 0.227310 -4.799943 0.000000000000000e+00 1851878480
-0.748431 -0.694696 -4.161608 0.000000000000000e+00 1851878480
-0.746875 -0.593023 -4.152955 0.000000000000000e+00 1851878480
-0.763175 -0.503453 -4.243589 0.000000000000000e+00 1851878480
-0.755267 -0.398090 -4.199618 0.000000000000000e+00 1851878480
-0.748386 -0.295659 -4.161357 0.000000000000000e+00 1851878480
-0.745678 -0.196461 -4.146300 0.000000000000000e+00 1851878480
-0.754129 -0.098918 -4.193289 0.000000000000000e+00 1851878480
-0.793654 0.000000 -4.413068 0.000000000000000e+00 1851878480
-0.803001 0.105328 -4.465038 0.000000000000000e+00 1851878480
-0.861264 0.226914 -4.789007 0.000000000000000e+00 1851878480
-0.761580 -0.695244 -4.162613 0.000000000000000e+00 1851878480
-0.755199 -0.589745 -4.127739 0.000000000000000e+00 1851878480
-0.772000 -0.500878 -4.219571 0.000000000000000e+00 1851878480
-0.767295 -0.397761 -4.193852 0.000000000000000e+00 1851878480
-0.761377 -0.295831 -4.161504 0.000000000000000e+00 1851878480
-0.754982 -0.195632 -4.126554 0.000000000000000e+00 1851878480
-0.768124 -0.099092 -4.198384 0.000000000000000e+00 1851878480
-0.799917 0.000000 -4.372156 0.000000000000000e+00 1851878480
-0.811790 0.104725 -4.437051 0.000000000000000e+00 1851878480
-0.873525 0.226349 -4.774482 0.000000000000000e+00 1851878480
-0.772128 -0.693445 -4.149534 0.000000000000000e+00 1851878480
-0.765186 -0.587856 -4.112226 0.000000000000000e+00 1851878480
-0.786133 -0.501778 -4.224801 0.000000000000000e+00 1851878480
-0.777462 -0.396498 -4.178204 0.000000000000000e+00 1851878480
-0.767718 -0.293458 -4.125834 0.000000000000000e+00 1851878480
-0.763985 -0.194755 -4.105773 0.000000000000000e+00 1851878480
-0.775440 -0.098414 -4.167335 0.000000000000000e+00 1851878480
-0.812334 0.000000 -4.365606 0.000000000000000e+00 1851878480
-0.825127 0.104720 -4.434361 0.000000000000000e+00 1851878480
-0.881765 0.224780 -4.738744 0.000000000000000e+00 1851878480
-0.779845 -0.689209 -4.121849 0.000000000000000e+00 1851878480
-0.774341 -0.585404 -4.092754 0.000000000000000e+00 1851878480
-0.787897 -0.494885 -4.164408 0.000000000000000e+00 1851878480
-0.785941 -0.394431 -4.154068 0.000000000000000e+00 1851878480
-0.777906 -0.292611 -4.111598 0.000000000000000e+00 1851878480
-0.771379 -0.193505 -4.077102 0.000000000000000e+00 1851878480
-0.783073 -0.097798 -4.138906 0.000000000000000e+00 1851878480
-0.823750 0.000000 -4.353905 0.000000000000000e+00 1851878480
-0.831717 0.103873 -4.396018 0.000000000000000e+00 1851878480
-0.890415 0.223366 -4.706260 0.000000000000000e+00 1851878480
-0.788596 -0.686010 -4.100362 0.000000000000000e+00 1851878480
-0.782901 -0.582591 -4.070750 0.000000000000000e+00 1851878480
-0.800126 -0.494683 -4.160314 0.000000000000000e+00 1851878480
-0.794284 -0.392365 -4.129940 0.000000000000000e+00 1851878480
-0.788244 -0.291850 -4.098533 0.000000000000000e+00 1851878480
-0.786165 -0.194121 -4.087725 0.000000000000000e+00 1851878480
-0.792359 -0.097406 -4.119931 0.000000000000000e+00 1851878480
-0.832564 0.000000 -4.328979 0.000000000000000e+00 1851878480
-0.842021 0.103511 -4.378151 0.000000000000000e+00 1851878480
-0.902602 0.222871 -4.693145 0.000000000000000e+00 1851878480
-0.800098 -0.685274 -4.093563 0.000000000000000e+00 1851878480
-0.796516 -0.583574 -4.075233 0.000000000000000e+00 1851878480
-0.809051 -0.492480 -4.139369 0.000000000000000e+00 1851878480
-0.802606 -0.390356 -4.106391 0.000000000000000e+00 1851878480
-0.801984 -0.292353 -4.103209 0.000000000000000e+00 1851878480
-0.790911 -0.192278 -4.046557 0.000000000000000e+00 1851878480
-0.801006 -0.096949 -4.098207 0.000000000000000e+00 1851878480
-0.838928 0.000000 -4.292227 0.000000000000000e+00 1851878480
-0.848376 0.102682 -4.340566 0.000000000000000e+00 1851878480
-0.912348 0.221800 -4.667866 0.000000000000000e+00 1851878480
-0.810140 -0.683332 -4.079543 0.000000000000000e+00 1851878480
-0.802157 -0.578779 -4.039344 0.000000000000000e+00 1851878480
-0.819114 -0.491031 -4.124734 0.000000000000000e+00 1851878480
-0.816651 -0.391153 -4.112334 0.000000000000000e+00 1851878480
-0.809290 -0.290535 -4.075264 0.000000000000000e+00 1851878480
-0.800255 -0.191594 -4.029765 0.000000000000000e+00 1851878480
-0.815919 -0.097253 -4.108644 0.000000000000000e+00 1851878480
-0.850003 0.000000 -4.280279 0.000000000000000e+00 1851878480
-0.856759 0.102121 -4.314299 0.000000000000000e+00 1851878480
-0.921283 0.220570 -4.639218 0.000000000000000e+00 1851878480
-0.821016 -0.682150 -4.070029 0.000000000000000e+00 1851878480
-0.813263 -0.578017 -4.031592 0.000000000000000e+00 1851878480
-0.826336 -0.487952 -4.096402 0.000000000000000e+00 1851878480
-0.819039 -0.386430 -4.060227 0.000000000000000e+00 1851878480
-0.817317 -0.289029 -4.051692 0.000000000000000e+00 1851878480
-0.806148 -0.190119 -3.996320 0.000000000000000e+00 1851878480
-0.822091 -0.096524 -4.075356 0.000000000000000e+00 1851878480
-0.859249 0.000000 -4.259559 0.000000000000000e+00 1851878480
-0.866145 0.101696 -4.293745 0.000000000000000e+00 1851878480
-0.930826 0.219522 -4.614389 0.000000000000000e+00 1851878480
-0.827443 -0.677366 -4.039003 0.000000000000000e+00 1851878480
-0.820599 -0.574641 -4.005595 0.000000000000000e+00 1851878480
-0.833909 -0.485172 -4.070567 0.000000000000000e+00 1851878480
-0.835297 -0.388298 -4.077345 0.000000000000000e+00 1851878480
-0.823175 -0.286813 -4.018172 0.000000000000000e+00 1851878480
-0.820807 -0.190725 -4.006610 0.000000000000000e+00 1851878480
-0.827435 -0.095720 -4.038966 0.000000000000000e+00 1851878480
-0.866967 0.000000 -4.231934 0.000000000000000e+00 1851878480
-0.878804 0.101663 -4.289712 0.000000000000000e+00 1851878480
-0.939327 0.218265 -4.585144 0.000000000000000e+00 1851878480
-0.841804 -0.679127 -4.046985 0.000000000000000e+00 1851878480
-0.830087 -0.572855 -3.990655 0.000000000000000e+00 1851878480
-0.848011 -0.486221 -4.076828 0.000000000000000e+00 1851878480
-0.842228 -0.385841 -4.049026 0.000000000000000e+00 1851878480
-0.835643 -0.286935 -4.017367 0.000000000000000e+00 1851878480
-0.830720 -0.190229 -3.993700 0.000000000000000e+00 1851878480
-0.840969 -0.095875 -4.042970 0.000000000000000e+00 1851878480
-0.782634 0.000000 -3.762524 0.000000000000000e+00 1768716611
-0.881489 0.100495 -4.237772 0.000000000000000e+00 1851878480
-0.947504 0.216972 -4.555141 0.000000000000000e+00 1851878480
-0.848351 -0.674630 -4.017648 0.000000000000000e+00 1851878480
-0.835412 -0.568293 -3.956373 0.000000000000000e+00 1851878480
-0.858231 -0.485050 -4.064436 0.000000000000000e+00 1851878480
-0.850220 -0.383937 -4.026499 0.000000000000000e+00 1851878480
-0.843521 -0.285501 -3.994774 0.000000000000000e+00 1851878480
-0.835959 -0.188694 -3.958964 0.000000000000000e+00 1851878480
-0.845504 -0.095015 -4.004166 0.000000000000000e+00 1851878480
-0.791708 0.000000 -3.749398 0.000000000000000e+00 1768716611
-0.893851 0.100448 -4.233129 0.000000000000000e+00 1851878480
-0.959408 0.216558 -4.543595 0.000000000000000e+00 1851878480
-0.858534 -0.673117 -4.006068 0.000000000000000e+00 1851878480
-0.847026 -0.568082 -3.952373 0.000000000000000e+00 1851878480
-0.863220 -0.481002 -4.027934 0.000000000000000e+00 1851878480
-0.857929 -0.381965 -4.003245 0.000000000000000e+00 1851878480
-0.850039 -0.283657 -3.966429 0.000000000000000e+00 1851878480
-0.843320 -0.187675 -3.935078 0.000000000000000e+00 1851878480
-0.855732 -0.094811 -3.992996 0.000000000000000e+00 1851878480
-0.795758 0.000000 -3.713143 0.000000000000000e+00 1768716611
-0.901940 0.099930 -4.208611 0.000000000000000e+00 1851878480
-0.972013 0.216315 -4.535580 0.000000000000000e+00 1851878480
-0.872667 -0.674706 -4.012908 0.000000000000000e+00 1851878480
-0.852939 -0.564111 -3.922189 0.000000000000000e+00 1851878480
-0.876578 -0.481669 -4.030892 0.000000000000000e+00 1851878480
-0.866868 -0.380590 -3.986241 0.000000000000000e+00 1851878480
-0.862468 -0.283812 -3.966010 0.000000000000000e+00 1851878480
-0.853093 -0.187217 -3.922901 0.000000000000000e+00 1851878480
-0.863907 -0.094388 -3.972629 0.000000000000000e+00 1851878480
-0.810051 0.000000 -3.724973 0.000000000000000e+00 1768716611
-0.915716 0.100049 -4.210868 0.000000000000000e+00 1851878480
-0.977325 0.214480 -4.494174 0.000000000000000e+00 1851878480
-0.880819 -0.671697 -3.992371 0.000000000000000e+00 1851878480
-0.860041 -0.561030 -3.898190 0.000000000000000e+00 1851878480
-0.885410 -0.479869 -4.013180 0.000000000000000e+00 1851878480
-0.873304 -0.378172 -3.958305 0.000000000000000e+00 1851878480
-0.868821 -0.281993 -3.937988 0.000000000000000e+00 1851878480
-0.861651 -0.186509 -3.905490 0.000000000000000e+00 1851878480
-0.872221 -0.093994 -3.953400 0.000000000000000e+00 1851878480
-0.818630 0.000000 -3.710493 0.000000000000000e+00 1768716611
-0.922291 0.099389 -4.180344 0.000000000000000e+00 1851878480
-0.987548 0.213760 -4.476128 0.000000000000000e+00 1851878480
-0.871264 -0.761935 -3.949061 0.000000000000000e+00 1851878480
-0.888802 -0.668647 -3.971585 0.000000000000000e+00 1851878480
-0.876307 -0.563935 -3.915753 0.000000000000000e+00 1851878480
-0.892032 -0.476941 -3.986019 0.000000000000000e+00 1851878480
-0.880700 -0.376234 -3.935382 0.000000000000000e+00 1851878480
-0.877276 -0.280899 -3.920082 0.000000000000000e+00 1851878480
-0.871884 -0.186180 -3.895988 0.000000000000000e+00 1851878480
-0.881820 -0.093747 -3.940387 0.000000000000000e+00 1851878480
-0.829152 0.000000 -3.705039 0.000000000000000e+00 1768716611
-0.927752 0.098630 -4.145634 0.000000000000000e+00 1851878480
-1.001116 0.213776 -4.473456 0.000000000000000e+00 1851878480
-0.880915 -0.759990 -3.936343 0.000000000000000e+00 1851878480
-0.898790 -0.667173 -3.960135 0.000000000000000e+00 1851878480
-0.876664 -0.556665 -3.862645 0.000000000000000e+00 1851878480
-0.902163 -0.475946 -3.974998 0.000000000000000e+00 1851878480
-0.891947 -0.375974 -3.929985 0.000000000000000e+00 1851878480
-0.884954 -0.279591 -3.899172 0.000000000000000e+00 1851878480
-0.880141 -0.185444 -3.877965 0.000000000000000e+00 1851878480
-0.889684 -0.093326 -3.920015 0.000000000000000e+00 1851878480
-0.840158 0.000000 -3.701799 0.000000000000000e+00 1768716611
-0.939282 0.098528 -4.138545 0.000000000000000e+00 1851878480
-1.007947 0.212373 -4.441087 0.000000000000000e+00 1851878480
-0.893558 -0.760650 -3.937082 0.000000000000000e+00 1851878480
-0.911168 -0.667494 -3.959312 0.000000000000000e+00 1851878480
-0.887112 -0.555915 -3.854778 0.000000000000000e+00 1851878480
-0.906547 -0.471988 -3.939230 0.000000000000000e+00 1851878480
-0.903902 -0.376018 -3.927738 0.000000000000000e+00 1851878480
-0.894443 -0.278884 -3.886636 0.000000000000000e+00 1851878480
-0.885764 -0.184183 -3.848922 0.000000000000000e+00 1851878480
-0.902000 -0.093377 -3.919473 0.000000000000000e+00 1851878480
-0.848093 0.000000 -3.685230 0.000000000000000e+00 1768716611
-0.948529 0.098194 -4.121655 0.000000000000000e+00 1851878480
-1.016821 0.211434 -4.418404 0.000000000000000e+00 1851878480
-0.893851 -0.750924 -3.884064 0.000000000000000e+00 1851878480
-0.915282 -0.661837 -3.923012 0.000000000000000e+00 1851878480
-0.895616 -0.553987 -3.838725 0.000000000000000e+00 1851878480
-0.916091 -0.470790 -3.926481 0.000000000000000e+00 1851878480
-0.914959 -0.375695 -3.921628 0.000000000000000e+00 1851878480
-0.903245 -0.277987 -3.871423 0.000000000000000e+00 1851878480
-0.896246 -0.183952 -3.841423 0.000000000000000e+00 1851878480
-0.905582 -0.092536 -3.881436 0.000000000000000e+00 1851878480
-0.856966 0.000000 -3.673063 0.000000000000000e+00 1768716611
-0.954705 0.097555 -4.091988 0.000000000000000e+00 1851878480
-1.023995 0.210172 -4.388972 0.000000000000000e+00 1851878480
-0.905884 -0.751192 -3.882734 0.000000000000000e+00 1851878480
-0.926869 -0.661666 -3.919224 0.000000000000000e+00 1851878480
-0.901938 -0.550780 -3.813804 0.000000000000000e+00 1851878480
-0.925901 -0.469761 -3.915129 0.000000000000000e+00 1851878480
-0.912174 -0.369774 -3.857086 0.000000000000000e+00 1851878480
-0.914396 -0.277829 -3.866480 0.000000000000000e+00 1851878480
-0.908131 -0.184014 -3.839988 0.000000000000000e+00 1851878480
-0.913488 -0.092153 -3.862640 0.000000000000000e+00 1851878480
-0.871591 0.000000 -3.685480 0.000000000000000e+00 1768716611
-0.962941 0.097142 -4.071749 0.000000000000000e+00 1851878480
-1.035152 0.209752 -4.377093 0.000000000000000e+00 1851878480
-0.911891 -0.746527 -3.855890 0.000000000000000e+00 1851878480
-0.934819 -0.658941 -3.900277 0.000000000000000e+00 1851878480
-0.914290 -0.551295 -3.814626 0.000000000000000e+00 1851878480
-0.936279 -0.469047 -3.906370 0.000000000000000e+00 1851878480
-0.929303 -0.371976 -3.877266 0.000000000000000e+00 1851878480
-0.920117 -0.276048 -3.838937 0.000000000000000e+00 1851878480
-0.912793 -0.182630 -3.808381 0.000000000000000e+00 1851878480
-0.923781 -0.092018 -3.854224 0.000000000000000e+00 1851878480
-0.886355 0.000000 -3.698077 0.000000000000000e+00 1768716611
-0.970563 0.096678 -4.049411 0.000000000000000e+00 1851878480
-1.045824 0.209247 -4.363415 0.000000000000000e+00 1851878480
-0.925459 -0.748097 -3.861228 0.000000000000000e+00 1851878480
-0.942496 -0.656099 -3.880634 0.000000000000000e+00 1851878480
-0.919118 -0.547321 -3.784378 0.000000000000000e+00 1851878480
-0.940713 -0.465414 -3.873294 0.000000000000000e+00 1851878480
-0.939594 -0.371423 -3.868684 0.000000000000000e+00 1851878480
-0.924820 -0.274012 -3.807856 0.000000000000000e+00 1851878480
-0.923988 -0.182574 -3.804429 0.000000000000000e+00 1851878480
-0.937485 -0.092223 -3.860001 0.000000000000000e+00 1851878480
-0.896646 0.000000 -3.691852 0.000000000000000e+00 1768716611
-0.984598 0.096858 -4.053985 0.000000000000000e+00 1851878480
-1.051104 0.207691 -4.327816 0.000000000000000e+00 1851878480
-0.931363 -0.743517 -3.834796 0.000000000000000e+00 1851878480
-0.954489 -0.656301 -3.878965 0.000000000000000e+00 1851878480
-0.927027 -0.545262 -3.767362 0.000000000000000e+00 1851878480
-0.952975 -0.465700 -3.872813 0.000000000000000e+00 1851878480
-0.943313 -0.368321 -3.833548 0.000000000000000e+00 1851878480
-0.939509 -0.274951 -3.818090 0.000000000000000e+00 1851878480
-0.930906 -0.181685 -3.783126 0.000000000000000e+00 1851878480
-0.941423 -0.091475 -3.825868 0.000000000000000e+00 1851878480
-0.901819 0.000000 -3.664918 0.000000000000000e+00 1768716611
-0.993438 0.096529 -4.037250 0.000000000000000e+00 1851878480
-1.064335 0.207727 -4.325371 0.000000000000000e+00 1851878480
-0.939713 -0.740984 -3.818917 0.000000000000000e+00 1851878480
-0.961693 -0.653251 -3.858057 0.000000000000000e+00 1851878480
-0.932828 -0.542034 -3.742260 0.000000000000000e+00 1851878480
-0.955558 -0.461310 -3.833448 0.000000000000000e+00 1851878480
-0.954267 -0.368088 -3.828267 0.000000000000000e+00 1851878480
-0.950434 -0.274782 -3.812890 0.000000000000000e+00 1851878480
-0.940519 -0.181340 -3.773115 0.000000000000000e+00 1851878480
-0.950119 -0.091203 -3.811628 0.000000000000000e+00 1851878480
-0.914937 0.000000 -3.670487 0.000000000000000e+00 1768716611
-0.998950 0.095890 -4.007522 0.000000000000000e+00 1851878480
-1.075859 0.207434 -4.316063 0.000000000000000e+00 1851878480
-0.947068 -0.737746 -3.799388 0.000000000000000e+00 1851878480
-0.967503 -0.649344 -3.832082 0.000000000000000e+00 1851878480
-0.943833 -0.541875 -3.738331 0.000000000000000e+00 1851878480
-0.965388 -0.460486 -3.823707 0.000000000000000e+00 1851878480
-0.961037 -0.366270 -3.806473 0.000000000000000e+00 1851878480
-0.957153 -0.273417 -3.791088 0.000000000000000e+00 1851878480
-0.948247 -0.180645 -3.755813 0.000000000000000e+00 1851878480
-0.956902 -0.090756 -3.790094 0.000000000000000e+00 1851878480
-0.926101 0.000000 -3.668097 0.000000000000000e+00 1768716611
-1.006514 0.095461 -3.986598 0.000000000000000e+00 1851878480
-1.075469 0.204881 -4.259713 0.000000000000000e+00 1851878480
-0.953513 -0.733890 -3.776672 0.000000000000000e+00 1851878480
-0.982654 -0.651731 -3.843220 0.000000000000000e+00 1851878480
-0.949768 -0.538847 -3.714599 0.000000000000000e+00 1851878480
-0.975152 -0.459655 -3.813879 0.000000000000000e+00 1851878480
-0.968560 -0.364781 -3.788095 0.000000000000000e+00 1851878480
-0.963102 -0.271870 -3.766749 0.000000000000000e+00 1851878480
-0.954497 -0.179690 -3.733095 0.000000000000000e+00 1851878480
-0.966604 -0.090594 -3.780448 0.000000000000000e+00 1851878480
-0.938791 0.000000 -3.671669 0.000000000000000e+00 1768716611
-1.012959 0.094939 -3.961745 0.000000000000000e+00 1851878480
-1.085189 0.204293 -4.244240 0.000000000000000e+00 1851878480
-0.966034 -0.734753 -3.778215 0.000000000000000e+00 1851878480
-0.982163 -0.643814 -3.793594 0.000000000000000e+00 1851878480
-0.957887 -0.537121 -3.699826 0.000000000000000e+00 1851878480
-0.981267 -0.457147 -3.790131 0.000000000000000e+00 1851878480
-0.979809 -0.364718 -3.784501 0.000000000000000e+00 1851878480
-0.972900 -0.271436 -3.757814 0.000000000000000e+00 1851878480
-0.963185 -0.179212 -3.720291 0.000000000000000e+00 1851878480
-0.968262 -0.089692 -3.739899 0.000000000000000e+00 1768716611
-0.949305 0.000000 -3.666680 0.000000000000000e+00 1768716611
-1.018635 0.094358 -3.934465 0.000000000000000e+00 1851878480
-1.096344 0.203988 -4.234614 0.000000000000000e+00 1851878480
-0.972934 -0.731378 -3.757946 0.000000000000000e+00 1851878480
-0.990306 -0.641680 -3.778047 0.000000000000000e+00 1851878480
-0.962947 -0.533743 -3.673672 0.000000000000000e+00 1851878480
-0.990535 -0.456153 -3.778919 0.000000000000000e+00 1851878480
-0.985618 -0.362657 -3.760161 0.000000000000000e+00 1851878480
-0.980454 -0.270395 -3.740461 0.000000000000000e+00 1851878480
-0.971079 -0.178601 -3.704693 0.000000000000000e+00 1851878480
-0.977181 -0.089477 -3.727974 0.000000000000000e+00 1768716611
-0.970658 0.000000 -3.703087 0.000000000000000e+00 1768716611
-1.029842 0.094299 -3.928878 0.000000000000000e+00 1851878480
-1.107245 0.203645 -4.224173 0.000000000000000e+00 1851878480
-0.982606 -0.730147 -3.748672 0.000000000000000e+00 1851878480
-0.996342 -0.638250 -3.754864 0.000000000000000e+00 1851878480
-0.974058 -0.533763 -3.670884 0.000000000000000e+00 1851878480
-0.999114 -0.454872 -3.765310 0.000000000000000e+00 1851878480
-0.992482 -0.361030 -3.740317 0.000000000000000e+00 1851878480
-0.987039 -0.269115 -3.719804 0.000000000000000e+00 1851878480
-0.980114 -0.178213 -3.693705 0.000000000000000e+00 1851878480
-0.990998 -0.089710 -3.734725 0.000000000000000e+00 1851878480
-0.979675 0.000000 -3.692054 0.000000000000000e+00 1768716611
-1.040996 0.094236 -3.923148 0.000000000000000e+00 1851878480
-1.117443 0.203184 -4.211253 0.000000000000000e+00 1851878480
-0.992631 -0.729208 -3.740877 0.000000000000000e+00 1851878480
-1.004966 -0.636542 -3.741806 0.000000000000000e+00 1851878480
-0.980177 -0.531082 -3.649507 0.000000000000000e+00 1851878480
-1.004414 -0.452148 -3.739747 0.000000000000000e+00 1851878480
-0.997116 -0.358641 -3.712576 0.000000000000000e+00 1851878480
-0.991302 -0.267241 -3.690929 0.000000000000000e+00 1851878480
-0.988070 -0.177642 -3.678895 0.000000000000000e+00 1851878480
-0.993745 -0.088948 -3.700023 0.000000000000000e+00 1851878480
-0.989172 0.000000 -3.682999 0.000000000000000e+00 1768716611
-1.048902 0.093885 -3.905393 0.000000000000000e+00 1851878480
-1.128554 0.202899 -4.201961 0.000000000000000e+00 1851878480
-0.997149 -0.724299 -3.712700 0.000000000000000e+00 1851878480
-1.009809 -0.632510 -3.715075 0.000000000000000e+00 1851878480
-0.988330 -0.529555 -3.636053 0.000000000000000e+00 1851878480
-1.013097 -0.450995 -3.727173 0.000000000000000e+00 1851878480
-1.009215 -0.358964 -3.712892 0.000000000000000e+00 1851878480
-1.002992 -0.267392 -3.689997 0.000000000000000e+00 1851878480
-0.993243 -0.176590 -3.654127 0.000000000000000e+00 1851878480
-1.007199 -0.089152 -3.705473 0.000000000000000e+00 1851878480
-1.009336 0.000000 -3.713336 0.000000000000000e+00 1768716611
-1.055243 0.093404 -3.882226 0.000000000000000e+00 1851878480
-1.134292 0.201667 -4.173046 0.000000000000000e+00 1851878480
-1.004959 -0.721869 -3.697232 0.000000000000000e+00 1851878480
-1.014415 -0.628425 -3.688039 0.000000000000000e+00 1851878480
-0.994807 -0.527179 -3.616752 0.000000000000000e+00 1851878480
-1.014680 -0.446745 -3.689003 0.000000000000000e+00 1851878480
-1.015304 -0.357168 -3.691272 0.000000000000000e+00 1851878480
-1.009008 -0.266045 -3.668382 0.000000000000000e+00 1851878480
-1.000085 -0.175856 -3.635942 0.000000000000000e+00 1851878480
-1.012982 -0.088680 -3.682829 0.000000000000000e+00 1851878480
-1.022283 0.000000 -3.716644 0.000000000000000e+00 1768716611
-1.068523 0.093542 -3.884757 0.000000000000000e+00 1851878480
-1.147730 0.201818 -4.172724 0.000000000000000e+00 1851878480
-1.016006 -0.721798 -3.693823 0.000000000000000e+00 1851878480
-1.026329 -0.628913 -3.687820 0.000000000000000e+00 1851878480
-0.997942 -0.523106 -3.585820 0.000000000000000e+00 1851878480
-1.028063 -0.447730 -3.694052 0.000000000000000e+00 1851878480
-1.020255 -0.355019 -3.665998 0.000000000000000e+00 1851878480
-1.013020 -0.264207 -3.640001 0.000000000000000e+00 1851878480
-1.008687 -0.175445 -3.624429 0.000000000000000e+00 1851878480
-1.020142 -0.088339 -3.665592 0.000000000000000e+00 1851878480
-1.060557 0.000000 -3.810812 0.000000000000000e+00 1851878480
-1.069201 0.092587 -3.841869 0.000000000000000e+00 1851878480
-1.158961 0.201583 -4.164396 0.000000000000000e+00 1851878480
-1.017798 -0.715232 -3.657167 0.000000000000000e+00 1851878480
-1.032916 -0.626166 -3.668617 0.000000000000000e+00 1851878480
-1.007302 -0.522354 -3.577644 0.000000000000000e+00 1851878480
-1.028581 -0.443155 -3.653220 0.000000000000000e+00 1851878480
-1.026417 -0.353335 -3.645535 0.000000000000000e+00 1851878480
-1.020753 -0.263371 -3.625418 0.000000000000000e+00 1851878480
-1.019195 -0.175373 -3.619884 0.000000000000000e+00 1851878480
-1.025656 -0.087864 -3.642831 0.000000000000000e+00 1851878480
-1.072380 0.000000 -3.808782 0.000000000000000e+00 1851878480
-1.074420 0.092042 -3.816027 0.000000000000000e+00 1851878480
-1.166932 0.200794 -4.144602 0.000000000000000e+00 1851878480
-1.024766 -0.712412 -3.639671 0.000000000000000e+00 1851878480
-1.033048 -0.619613 -3.627121 0.000000000000000e+00 1851878480
-1.005164 -0.515724 -3.529216 0.000000000000000e+00 1851878480
-1.038684 -0.442767 -3.646908 0.000000000000000e+00 1851878480
-1.036273 -0.352949 -3.638445 0.000000000000000e+00 1851878480
-1.033050 -0.263720 -3.627128 0.000000000000000e+00 1851878480
-1.024217 -0.174371 -3.596115 0.000000000000000e+00 1851878480
-1.036618 -0.087863 -3.639656 0.000000000000000e+00 1851878480
-1.077320 0.000000 -3.782564 0.000000000000000e+00 1851878480
-1.081239 0.091645 -3.796323 0.000000000000000e+00 1851878480
-1.178118 0.200572 -4.136473 0.000000000000000e+00 1851878480
-1.035439 -0.712206 -3.635514 0.000000000000000e+00 1851878480
-1.039412 -0.616900 -3.608122 0.000000000000000e+00 1851878480
-1.016554 -0.516105 -3.528774 0.000000000000000e+00 1851878480
-1.039850 -0.438621 -3.609643 0.000000000000000e+00 1851878480
-1.044938 -0.352173 -3.627305 0.000000000000000e+00 1851878480
-1.033183 -0.260991 -3.586500 0.000000000000000e+00 1851878480
-1.032274 -0.173901 -3.583342 0.000000000000000e+00 1851878480
-1.045393 -0.087678 -3.628882 0.000000000000000e+00 1851878480
-1.089233 0.000000 -3.781065 0.000000000000000e+00 1851878480
-1.093327 0.091698 -3.795276 0.000000000000000e+00 1851878480
-1.190918 0.200627 -4.134048 0.000000000000000e+00 1851878480
-1.041561 -0.708914 -3.615583 0.000000000000000e+00 1851878480
-1.044536 -0.613520 -3.585222 0.000000000000000e+00 1851878480
-1.018434 -0.511705 -3.495631 0.000000000000000e+00 1851878480
-1.046117 -0.436695 -3.590650 0.000000000000000e+00 1851878480
-1.042803 -0.347813 -3.579275 0.000000000000000e+00 1851878480
-1.044949 -0.261230 -3.586640 0.000000000000000e+00 1851878480
-1.039962 -0.173382 -3.569525 0.000000000000000e+00 1851878480
-1.047773 -0.086968 -3.596333 0.000000000000000e+00 1851878480
-1.092451 0.000000 -3.749684 0.000000000000000e+00 1851878480
-1.104297 0.091659 -3.790345 0.000000000000000e+00 1851878480
-1.201819 0.200367 -4.125074 0.000000000000000e+00 1851878480
-1.049585 -0.706977 -3.602554 0.000000000000000e+00 1851878480
-1.052508 -0.611872 -3.572433 0.000000000000000e+00 1851878480
-1.024689 -0.509575 -3.478009 0.000000000000000e+00 1851878480
-1.051438 -0.434421 -3.568800 0.000000000000000e+00 1851878480
-1.054585 -0.348141 -3.579484 0.000000000000000e+00 1851878480
-1.049312 -0.259634 -3.561583 0.000000000000000e+00 1851878480
-1.045985 -0.172601 -3.550294 0.000000000000000e+00 1851878480
-1.061995 -0.087246 -3.604633 0.000000000000000e+00 1851878480
-1.106692 0.000000 -3.756344 0.000000000000000e+00 1851878480
-1.107328 0.090970 -3.758505 0.000000000000000e+00 1851878480
-1.221269 0.201525 -4.145241 0.000000000000000e+00 1851878480
-1.053902 -0.702614 -3.577163 0.000000000000000e+00 1851878480
-1.064615 -0.612641 -3.573730 0.000000000000000e+00 1851878480
-1.042516 -0.513189 -3.499549 0.000000000000000e+00 1851878480
-1.063598 -0.434994 -3.570318 0.000000000000000e+00 1851878480
-1.058968 -0.346047 -3.554774 0.000000000000000e+00 1851878480
-1.056762 -0.258829 -3.547372 0.000000000000000e+00 1851878480
-1.056006 -0.172489 -3.544831 0.000000000000000e+00 1851878480
-1.062940 -0.086439 -3.568110 0.000000000000000e+00 1851878480
-1.111113 0.000000 -3.729817 0.000000000000000e+00 1851878480
-1.116391 0.090785 -3.747533 0.000000000000000e+00 1851878480
-1.226598 0.200354 -4.117480 0.000000000000000e+00 1851878480
-1.062247 -0.701005 -3.565781 0.000000000000000e+00 1851878480
-1.078413 -0.614365 -3.580547 0.000000000000000e+00 1851878480
-1.048177 -0.510807 -3.480158 0.000000000000000e+00 1851878480
-1.078162 -0.436533 -3.579714 0.000000000000000e+00 1851878480
-1.063893 -0.344173 -3.532337 0.000000000000000e+00 1851878480
-1.062900 -0.257724 -3.529041 0.000000000000000e+00 1851878480
-1.065603 -0.172313 -3.538014 0.000000000000000e+00 1851878480
-1.064300 -0.085682 -3.533687 0.000000000000000e+00 1851878480
-1.122192 0.000000 -3.725901 0.000000000000000e+00 1851878480
-1.129622 0.090941 -3.750569 0.000000000000000e+00 1851878480
-1.242087 0.200851 -4.123978 0.000000000000000e+00 1851878480
-1.076722 -0.703439 -3.574933 0.000000000000000e+00 1851878480
-1.089001 -0.614248 -3.576601 0.000000000000000e+00 1851878480
-1.044189 -0.503821 -3.429425 0.000000000000000e+00 1701537140
-1.093192 -0.438233 -3.590367 0.000000000000000e+00 1851878480
-1.074680 -0.344218 -3.529567 0.000000000000000e+00 1851878480
-1.070909 -0.257093 -3.517181 0.000000000000000e+00 1851878480
-1.069760 -0.171271 -3.513407 0.000000000000000e+00 1851878480
-1.081044 -0.086168 -3.550469 0.000000000000000e+00 1851878480
-1.130889 0.000000 -3.714174 0.000000000000000e+00 1851878480
-1.140064 0.090872 -3.744306 0.000000000000000e+00 1851878480
-1.260912 0.201875 -4.141207 0.000000000000000e+00 1851878480
-1.078838 -0.697837 -3.543222 0.000000000000000e+00 1851878480
-1.066724 -0.595785 -3.465892 0.000000000000000e+00 1701537140
-1.041076 -0.497394 -3.382557 0.000000000000000e+00 1701537140
-1.081110 -0.429141 -3.512635 0.000000000000000e+00 1701537140
-1.085968 -0.344424 -3.528418 0.000000000000000e+00 1851878480
-1.071272 -0.254659 -3.480667 0.000000000000000e+00 1851878480
-1.080943 -0.171365 -3.512091 0.000000000000000e+00 1851878480
-1.079261 -0.085182 -3.506624 0.000000000000000e+00 1851878480
-1.135699 0.000000 -3.689998 0.000000000000000e+00 1851878480
-1.148204 0.090624 -3.730628 0.000000000000000e+00 1851878480
-1.270908 0.201480 -4.129304 0.000000000000000e+00 1851878480
-1.095265 -0.701517 -3.558624 0.000000000000000e+00 1851878480
-1.072210 -0.593040 -3.446707 0.000000000000000e+00 1701537140
-1.055918 -0.499592 -3.394336 0.000000000000000e+00 1701537140
-1.085552 -0.426724 -3.489597 0.000000000000000e+00 1701537140
-1.097673 -0.344759 -3.528558 0.000000000000000e+00 1851878480
-1.082667 -0.254872 -3.480322 0.000000000000000e+00 1851878480
-1.078900 -0.169382 -3.468212 0.000000000000000e+00 1851878480
-1.091789 -0.085335 -3.509644 0.000000000000000e+00 1851878480
-1.145567 0.000000 -3.682518 0.000000000000000e+00 1851878480
-1.158569 0.090555 -3.724315 0.000000000000000e+00 1851878480
-1.279814 0.200924 -4.114065 0.000000000000000e+00 1851878480
-1.102442 -0.699265 -3.543889 0.000000000000000e+00 1851878480
-1.085188 -0.594458 -3.451688 0.000000000000000e+00 1701537140
-1.092857 -0.512106 -3.476081 0.000000000000000e+00 1701537140
-1.088520 -0.423784 -3.462286 0.000000000000000e+00 1701537140
-1.114014 -0.346533 -3.543376 0.000000000000000e+00 1851878480
-1.084415 -0.252833 -3.449230 0.000000000000000e+00 1851878480
-1.091610 -0.169733 -3.472115 0.000000000000000e+00 1851878480
-1.099790 -0.085136 -3.498133 0.000000000000000e+00 1851878480
-1.152212 0.000000 -3.664872 0.000000000000000e+00 1851878480
-1.171497 0.090687 -3.726215 0.000000000000000e+00 1851878480
-1.297795 0.201792 -4.127934 0.000000000000000e+00 1851878480
-1.068097 -0.670978 -3.397325 0.000000000000000e+00 1701537140
-1.100753 -0.597258 -3.464642 0.000000000000000e+00 1701537140
-1.080115 -0.501329 -3.399683 0.000000000000000e+00 1701537140
-1.095916 -0.422612 -3.449418 0.000000000000000e+00 1701537140
-1.094646 -0.337275 -3.445421 0.000000000000000e+00 1701537140
-1.091264 -0.252014 -3.434777 0.000000000000000e+00 1851878480
-1.093306 -0.168382 -3.441201 0.000000000000000e+00 1851878480
-1.103991 -0.084649 -3.474835 0.000000000000000e+00 1851878480
-1.157005 0.000000 -3.641697 0.000000000000000e+00 1851878480
-1.188566 0.091134 -3.741035 0.000000000000000e+00 1851878480
-1.308155 0.201471 -4.117443 0.000000000000000e+00 1851878480
-1.082164 -0.673359 -3.406134 0.000000000000000e+00 1701537140
-1.101738 -0.592174 -3.431842 0.000000000000000e+00 1701537140
-1.084611 -0.498684 -3.378492 0.000000000000000e+00 1701537140
-1.110934 -0.424376 -3.460485 0.000000000000000e+00 1701537140
-1.099766 -0.335668 -3.425700 0.000000000000000e+00 1701537140
-1.094659 -0.250421 -3.409791 0.000000000000000e+00 1851878480
-1.098617 -0.167609 -3.422120 0.000000000000000e+00 1851878480
-1.108646 -0.084207 -3.453359 0.000000000000000e+00 1851878480
-1.176390 0.000000 -3.664378 0.000000000000000e+00 1851878480
-1.198755 0.091051 -3.734042 0.000000000000000e+00 1851878480
-1.327014 0.202455 -4.133563 0.000000000000000e+00 1851878480
-1.085934 -0.669354 -3.382611 0.000000000000000e+00 1701537140
-1.122310 -0.597619 -3.460031 0.000000000000000e+00 1701537140
-1.094453 -0.498528 -3.374150 0.000000000000000e+00 1701537140
-1.121925 -0.424588 -3.458845 0.000000000000000e+00 1701537140
-1.105332 -0.334228 -3.407687 0.000000000000000e+00 1701537140
-1.119579 -0.253740 -3.451612 0.000000000000000e+00 1851878480
-1.102519 -0.166640 -3.399017 0.000000000000000e+00 1851878480
-1.116637 -0.084025 -3.442540 0.000000000000000e+00 1851878480
-1.175148 0.000000 -3.622927 0.000000000000000e+00 1851878480
-1.203153 0.090535 -3.709266 0.000000000000000e+00 1851878480
-1.332369 0.201381 -4.107634 0.000000000000000e+00 1851878480
-1.076571 -0.741664 -3.319020 0.000000000000000e+00 1701537140
-1.101234 -0.672470 -3.395055 0.000000000000000e+00 1701537140
-1.125636 -0.593871 -3.434952 0.000000000000000e+00 1701537140
-1.108917 -0.500466 -3.383933 0.000000000000000e+00 1701537140
-1.139711 -0.427348 -3.477904 0.000000000000000e+00 1701537140
-1.114929 -0.334026 -3.402279 0.000000000000000e+00 1701537140
-1.131334 -0.254043 -3.452340 0.000000000000000e+00 1851878480
-1.108388 -0.165984 -3.382317 0.000000000000000e+00 1851878480
-1.118512 -0.083391 -3.413211 0.000000000000000e+00 1851878480
-1.191111 0.000000 -3.634752 0.000000000000000e+00 1851878480
-1.220809 0.091018 -3.725380 0.000000000000000e+00 1851878480
-1.348440 0.201933 -4.114852 0.000000000000000e+00 1851878480
-1.079274 -0.736680 -3.293474 0.000000000000000e+00 1701537140
-1.109243 -0.671123 -3.384926 0.000000000000000e+00 1701537140
-1.149031 -0.600689 -3.470936 0.000000000000000e+00 1701537140
-1.113922 -0.498142 -3.364881 0.000000000000000e+00 1701537140
-1.151310 -0.427762 -3.477819 0.000000000000000e+00 1701537140
-1.122887 -0.333343 -3.391960 0.000000000000000e+00 1701537140
-1.143167 -0.254360 -3.453223 0.000000000000000e+00 1851878480
-1.110075 -0.164722 -3.353260 0.000000000000000e+00 1851878480
-1.125011 -0.083111 -3.398376 0.000000000000000e+00 1851878480
-1.197301 0.000000 -3.616747 0.000000000000000e+00 1851878480
-1.232062 0.091020 -3.721751 0.000000000000000e+00 1851878480
-1.363822 0.202375 -4.119765 0.000000000000000e+00 1851878480
-1.084077 -0.733214 -3.274726 0.000000000000000e+00 1701537140
-1.120390 -0.671690 -3.384419 0.000000000000000e+00 1701537140
-1.170858 -0.606576 -3.501439 0.000000000000000e+00 1701537140
-1.099553 -0.487279 -3.288200 0.000000000000000e+00 1701537140
-1.164579 -0.428787 -3.482661 0.000000000000000e+00 1701537140
-1.181594 -0.347606 -3.533545 0.000000000000000e+00 1701537140
-1.153870 -0.254425 -3.450637 0.000000000000000e+00 1851878480
-1.122013 -0.164991 -3.355367 0.000000000000000e+00 1851878480
-1.132807 -0.082932 -3.387645 0.000000000000000e+00 1851878480
-1.211119 0.000000 -3.621839 0.000000000000000e+00 1851878480
-1.239934 0.090775 -3.708009 0.000000000000000e+00 1851878480
-1.379048 0.202788 -4.124029 0.000000000000000e+00 1851878480
-1.091060 -0.731278 -3.262801 0.000000000000000e+00 1701537140
-1.114307 -0.662014 -3.332322 0.000000000000000e+00 1701537140
-1.177461 -0.604546 -3.486188 0.000000000000000e+00 1701537140
-1.109660 -0.487365 -3.285448 0.000000000000000e+00 1701537140
-1.180262 -0.430679 -3.494482 0.000000000000000e+00 1701537140
-1.145691 -0.334033 -3.392127 0.000000000000000e+00 1701537140
-1.170465 -0.255778 -3.465476 0.000000000000000e+00 1851878480
-1.126927 -0.164233 -3.336571 0.000000000000000e+00 1851878480
-1.139873 -0.082704 -3.374899 0.000000000000000e+00 1851878480
-1.218611 0.000000 -3.608026 0.000000000000000e+00 1851878480
-1.255539 0.091096 -3.717359 0.000000000000000e+00 1851878480
