# .PCD v0.7 - Point Cloud Data file format
VERSION 0.7
FIELDS x y z rgb label
SIZE 4 4 4 4 4
TYPE F F F F U
COUNT 1 1 1 1 1
WIDTH 792
HEIGHT 1
VIEWPOINT 0 0 0 1 0 0 0
POINTS 792
DATA ascii
1.374139 -0.072388 2.798731 0.000000000000000e+00 1701537140
1.364457 0.000000 2.779012 0.000000000000000e+00 1701537140
1.341287 0.070657 2.731822 0.000000000000000e+00 1701537140
1.426324 0.150921 2.905019 0.000000000000000e+00 1701537140
1.497855 0.237652 3.050706 0.000000000000000e+00 1851878480
1.387687 0.293751 2.826324 0.000000000000000e+00 1851878480
1.406434 0.373180 2.864507 0.000000000000000e+00 1851878480
1.526924 0.486910 3.109912 0.000000000000000e+00 1851878480
1.592323 0.593583 3.243111 0.000000000000000e+00 1851878480
1.920520 0.821014 3.911555 0.000000000000000e+00 1851878480
1.437876 -0.378622 2.906358 0.000000000000000e+00 1701537140
1.543407 -0.324722 3.119666 0.000000000000000e+00 1701537140
1.489561 -0.234894 3.010827 0.000000000000000e+00 1701537140
1.395400 -0.146748 2.820501 0.000000000000000e+00 1701537140
1.380365 -0.072272 2.790111 0.000000000000000e+00 1701537140
1.375209 0.000000 2.779690 0.000000000000000e+00 1701537140
1.358161 0.071110 2.745229 0.000000000000000e+00 1701537140
1.431342 0.150528 2.893150 0.000000000000000e+00 1701537140
1.510715 0.238230 3.053585 0.000000000000000e+00 1851878480
1.392631 0.292999 2.814903 0.000000000000000e+00 1851878480
1.422543 0.375152 2.875364 0.000000000000000e+00 1851878480
1.535615 0.486694 3.103915 0.000000000000000e+00 1851878480
1.593954 0.590566 3.221836 0.000000000000000e+00 1851878480
1.932006 0.820885 3.905134 0.000000000000000e+00 1851878480
1.441275 -0.377219 2.891255 0.000000000000000e+00 1701537140
1.568953 -0.328098 3.147381 0.000000000000000e+00 1701537140
1.410121 -0.221021 2.828758 0.000000000000000e+00 1701537140
1.413358 -0.147737 2.835253 0.000000000000000e+00 1701537140
1.391766 -0.072428 2.791939 0.000000000000000e+00 1701537140
1.385964 0.000000 2.780299 0.000000000000000e+00 1701537140
1.342381 0.069858 2.692871 0.000000000000000e+00 1701537140
1.433526 0.149845 2.875711 0.000000000000000e+00 1701537140
1.525250 0.239066 3.059712 0.000000000000000e+00 1851878480
1.403640 0.293528 2.815757 0.000000000000000e+00 1851878480
1.418377 0.371789 2.845321 0.000000000000000e+00 1851878480
1.534885 0.483517 3.079040 0.000000000000000e+00 1851878480
1.607630 0.592026 3.224971 0.000000000000000e+00 1851878480
1.949082 0.823127 3.909935 0.000000000000000e+00 1851878480
1.445013 -0.375925 2.876990 0.000000000000000e+00 1701537140
1.564221 -0.325143 3.114331 0.000000000000000e+00 1701537140
1.419999 -0.221232 2.827187 0.000000000000000e+00 1701537140
1.415235 -0.147044 2.817702 0.000000000000000e+00 1701537140
1.407804 -0.072822 2.802907 0.000000000000000e+00 1701537140
1.402857 0.000000 2.793058 0.000000000000000e+00 1701537140
1.346638 0.069658 2.681126 0.000000000000000e+00 1701537140
1.439139 0.149528 2.865295 0.000000000000000e+00 1701537140
1.540551 0.240013 3.067204 0.000000000000000e+00 1851878480
1.408694 0.292814 2.804679 0.000000000000000e+00 1851878480
1.436438 0.374260 2.859916 0.000000000000000e+00 1851878480
1.541899 0.482808 3.069888 0.000000000000000e+00 1851878480
1.624509 0.594647 3.234363 0.000000000000000e+00 1851878480
1.969109 0.826587 3.920453 0.000000000000000e+00 1851878480
1.445540 -0.373819 2.856527 0.000000000000000e+00 1701537140
1.584597 -0.327413 3.131317 0.000000000000000e+00 1701537140
1.434788 -0.222202 2.835279 0.000000000000000e+00 1701537140
1.425668 -0.147245 2.817257 0.000000000000000e+00 1701537140
1.419147 -0.072971 2.804371 0.000000000000000e+00 1701537140
1.474229 0.000000 2.913219 0.000000000000000e+00 1701537140
1.361393 0.070002 2.690243 0.000000000000000e+00 1701537140
1.447510 0.149500 2.860420 0.000000000000000e+00 1701537140
1.554711 0.240775 3.072259 0.000000000000000e+00 1851878480
1.414214 0.292208 2.794623 0.000000000000000e+00 1851878480
1.430623 0.370522 2.827049 0.000000000000000e+00 1851878480
1.556143 0.484362 3.075089 0.000000000000000e+00 1851878480
1.624925 0.591252 3.211010 0.000000000000000e+00 1851878480
1.446339 -0.371812 2.836838 0.000000000000000e+00 1701537140
1.440795 -0.295938 2.825963 0.000000000000000e+00 1701537140
1.432942 -0.220603 2.810560 0.000000000000000e+00 1701537140
1.447309 -0.148595 2.838739 0.000000000000000e+00 1701537140
1.448439 -0.074037 2.840955 0.000000000000000e+00 1701537140
1.480258 0.000000 2.903365 0.000000000000000e+00 1701537140
1.372799 0.070170 2.692596 0.000000000000000e+00 1701537140
1.448913 0.148759 2.841886 0.000000000000000e+00 1701537140
1.565557 0.241019 3.070670 0.000000000000000e+00 1851878480
1.433872 0.294516 2.812383 0.000000000000000e+00 1851878480
1.439141 0.370522 2.822719 0.000000000000000e+00 1851878480
1.567893 0.485130 3.075251 0.000000000000000e+00 1851878480
1.628543 0.589060 3.194210 0.000000000000000e+00 1851878480
1.454415 -0.371691 2.831541 0.000000000000000e+00 1701537140
1.439396 -0.293914 2.802300 0.000000000000000e+00 1701537140
1.438897 -0.220218 2.801328 0.000000000000000e+00 1701537140
1.469858 -0.150023 2.861606 0.000000000000000e+00 1701537140
1.453732 -0.073870 2.830210 0.000000000000000e+00 1701537140
1.489620 0.000000 2.900079 0.000000000000000e+00 1701537140
1.387460 0.070503 2.701189 0.000000000000000e+00 1701537140
1.454284 0.148433 2.831285 0.000000000000000e+00 1701537140
1.586975 0.242881 3.089616 0.000000000000000e+00 1851878480
1.425511 0.291078 2.775268 0.000000000000000e+00 1851878480
1.444486 0.369713 2.812211 0.000000000000000e+00 1851878480
1.561631 0.480353 3.040276 0.000000000000000e+00 1851878480
1.640537 0.589912 3.193893 0.000000000000000e+00 1851878480
1.459932 -0.370924 2.821313 0.000000000000000e+00 1701537140
1.448684 -0.294085 2.799577 0.000000000000000e+00 1701537140
1.442676 -0.219509 2.787966 0.000000000000000e+00 1701537140
1.486841 -0.150871 2.873315 0.000000000000000e+00 1701537140
1.454937 -0.073500 2.811659 0.000000000000000e+00 1701537140
1.487209 0.000000 2.874026 0.000000000000000e+00 1701537140
1.523431 0.076961 2.944025 0.000000000000000e+00 1701537140
1.465566 0.148713 2.832201 0.000000000000000e+00 1701537140
2.465737 0.375171 4.765026 0.000000000000000e+00 1851878480
1.427848 0.289855 2.759310 0.000000000000000e+00 1851878480
1.449509 0.368834 2.801170 0.000000000000000e+00 1851878480
1.572753 0.480952 3.039338 0.000000000000000e+00 1851878480
1.652830 0.590866 3.194087 0.000000000000000e+00 1851878480
1.467634 -0.370722 2.815361 0.000000000000000e+00 1701537140
1.453883 -0.293431 2.788983 0.000000000000000e+00 1701537140
1.465744 -0.221727 2.811735 0.000000000000000e+00 1701537140
1.495262 -0.150847 2.868361 0.000000000000000e+00 1701537140
1.491220 -0.074897 2.860608 0.000000000000000e+00 1701537140
1.501655 0.000000 2.880624 0.000000000000000e+00 1701537140
1.539043 0.077299 2.952345 0.000000000000000e+00 1701537140
1.473518 0.148654 2.826649 0.000000000000000e+00 1701537140
2.477928 0.374843 4.753408 0.000000000000000e+00 1851878480
1.440283 0.290686 2.762894 0.000000000000000e+00 1851878480
1.464274 0.370434 2.808917 0.000000000000000e+00 1851878480
1.586270 0.482277 3.042940 0.000000000000000e+00 1851878480
1.668909 0.593159 3.201467 0.000000000000000e+00 1851878480
1.469156 -0.368974 2.797664 0.000000000000000e+00 1701537140
1.476388 -0.296261 2.811437 0.000000000000000e+00 1701537140
1.470649 -0.221190 2.800508 0.000000000000000e+00 1701537140
1.520611 -0.152523 2.895649 0.000000000000000e+00 1701537140
1.411287 -0.070475 2.687466 0.000000000000000e+00 1701537140
1.506159 0.000000 2.868129 0.000000000000000e+00 1701537140
1.535249 0.076665 2.923523 0.000000000000000e+00 1701537140
1.492248 0.149678 2.841638 0.000000000000000e+00 1701537140
1.407256 0.211656 2.679791 0.000000000000000e+00 1851878480
1.451311 0.291229 2.763682 0.000000000000000e+00 1851878480
1.462829 0.367941 2.785616 0.000000000000000e+00 1851878480
1.598047 0.483065 3.043107 0.000000000000000e+00 1851878480
1.735370 0.613235 3.304606 0.000000000000000e+00 1634431585
1.480652 -0.369739 2.799015 0.000000000000000e+00 1701537140
1.483030 -0.295895 2.803510 0.000000000000000e+00 1701537140
1.476550 -0.220811 2.791261 0.000000000000000e+00 1701537140
1.524305 -0.152021 2.881536 0.000000000000000e+00 1701537140
1.415566 -0.070285 2.675977 0.000000000000000e+00 1701537140
1.495752 0.000000 2.827561 0.000000000000000e+00 1701537140
1.399408 0.069483 2.645432 0.000000000000000e+00 1701537140
1.486536 0.148254 2.810138 0.000000000000000e+00 1701537140
1.410385 0.210916 2.666182 0.000000000000000e+00 1851878480
1.447985 0.288903 2.737262 0.000000000000000e+00 1851878480
1.470220 0.367690 2.779295 0.000000000000000e+00 1851878480
1.606099 0.482729 3.036159 0.000000000000000e+00 1851878480
1.749937 0.614855 3.308069 0.000000000000000e+00 1634431585
1.484156 -0.368515 2.785283 0.000000000000000e+00 1701537140
1.494804 -0.296555 2.805267 0.000000000000000e+00 1701537140
1.554129 -0.231096 2.916600 0.000000000000000e+00 1701537140
1.528122 -0.151538 2.867794 0.000000000000000e+00 1701537140
1.419408 -0.070077 2.663772 0.000000000000000e+00 1701537140
1.513440 0.000000 2.840240 0.000000000000000e+00 1701537140
1.404800 0.069356 2.636358 0.000000000000000e+00 1701537140
1.483955 0.147159 2.784907 0.000000000000000e+00 1701537140
1.411331 0.209862 2.648615 0.000000000000000e+00 1851878480
1.449142 0.287496 2.719574 0.000000000000000e+00 1851878480
1.481411 0.368391 2.780132 0.000000000000000e+00 1851878480
1.619073 0.483872 3.038480 0.000000000000000e+00 1851878480
1.755222 0.613218 3.293988 0.000000000000000e+00 1634431585
1.488364 -0.367481 2.772996 0.000000000000000e+00 1701537140
1.512766 -0.298431 2.818461 0.000000000000000e+00 1701537140
1.551106 -0.229349 2.889893 0.000000000000000e+00 1701537140
1.531831 -0.151052 2.853980 0.000000000000000e+00 1701537140
1.436047 -0.070500 2.675524 0.000000000000000e+00 1701537140
1.516872 0.000000 2.826110 0.000000000000000e+00 1701537140
1.390977 0.068287 2.591553 0.000000000000000e+00 1701537140
1.504083 0.148316 2.802283 0.000000000000000e+00 1701537140
1.414333 0.209126 2.635068 0.000000000000000e+00 1851878480
1.468544 0.289707 2.736069 0.000000000000000e+00 1851878480
1.488856 0.368160 2.773913 0.000000000000000e+00 1851878480
1.622218 0.482086 3.022382 0.000000000000000e+00 1851878480
1.774976 0.616633 3.306989 0.000000000000000e+00 1634431585
1.496972 -0.367543 2.768960 0.000000000000000e+00 1701537140
1.492452 -0.292780 2.760601 0.000000000000000e+00 1701537140
1.563706 -0.229921 2.892398 0.000000000000000e+00 1701537140
1.543099 -0.151314 2.854283 0.000000000000000e+00 1701537140
1.427900 -0.069708 2.641198 0.000000000000000e+00 1701537140
1.516515 0.000000 2.805109 0.000000000000000e+00 1701537140
1.396238 0.068163 2.582633 0.000000000000000e+00 1701537140
1.513825 0.148443 2.800134 0.000000000000000e+00 1701537140
1.437224 0.211324 2.658445 0.000000000000000e+00 1851878480
1.469578 0.288293 2.718290 0.000000000000000e+00 1851878480
1.488770 0.366083 2.753789 0.000000000000000e+00 1851878480
1.638706 0.484267 3.031128 0.000000000000000e+00 1851878480
1.783089 0.615992 3.298193 0.000000000000000e+00 1634431585
1.495370 -0.365115 2.746168 0.000000000000000e+00 1701537140
1.481454 -0.289011 2.720613 0.000000000000000e+00 1701537140
1.573286 -0.230048 2.889256 0.000000000000000e+00 1701537140
1.544291 -0.150591 2.836008 0.000000000000000e+00 1701537140
1.441512 -0.069983 2.647261 0.000000000000000e+00 1701537140
1.536393 0.000000 2.821504 0.000000000000000e+00 1701537140
1.404176 0.068170 2.578696 0.000000000000000e+00 1701537140
1.519308 0.148155 2.790128 0.000000000000000e+00 1701537140
1.434951 0.209820 2.635211 0.000000000000000e+00 1851878480
1.479761 0.288681 2.717502 0.000000000000000e+00 1851878480
1.499806 0.366753 2.754315 0.000000000000000e+00 1851878480
1.648869 0.484569 3.028060 0.000000000000000e+00 1851878480
1.793713 0.616228 3.294059 0.000000000000000e+00 1634431585
1.511081 -0.366920 2.755203 0.000000000000000e+00 1701537140
1.483986 -0.287912 2.705800 0.000000000000000e+00 1701537140
1.581182 -0.229930 2.883021 0.000000000000000e+00 1701537140
1.555450 -0.150844 2.836103 0.000000000000000e+00 1701537140
1.439368 -0.069494 2.624446 0.000000000000000e+00 1701537140
1.532854 0.000000 2.794902 0.000000000000000e+00 1701537140
1.406639 0.067914 2.564770 0.000000000000000e+00 1701537140
1.542275 0.149567 2.812080 0.000000000000000e+00 1701537140
1.442929 0.209826 2.630939 0.000000000000000e+00 1851878480
1.483716 0.287860 2.705308 0.000000000000000e+00 1851878480
1.498840 0.364499 2.732883 0.000000000000000e+00 1851878480
1.647423 0.481479 3.003800 0.000000000000000e+00 1851878480
1.816554 0.620640 3.312182 0.000000000000000e+00 1634431585
1.524856 -0.368242 2.760540 0.000000000000000e+00 1701537140
1.498886 -0.289214 2.713526 0.000000000000000e+00 1701537140
1.575078 -0.227791 2.851460 0.000000000000000e+00 1701537140
1.548590 -0.149358 2.803507 0.000000000000000e+00 1701537140
1.445001 -0.069385 2.615973 0.000000000000000e+00 1701537140
1.441996 0.000000 2.610534 0.000000000000000e+00 1701537140
1.419893 0.068179 2.570519 0.000000000000000e+00 1701537140
1.550195 0.149513 2.806413 0.000000000000000e+00 1701537140
1.449142 0.209578 2.623470 0.000000000000000e+00 1851878480
1.489031 0.287312 2.695683 0.000000000000000e+00 1851878480
1.507953 0.364711 2.729940 0.000000000000000e+00 1851878480
1.651137 0.479928 2.989155 0.000000000000000e+00 1851878480
1.821955 0.619084 3.298397 0.000000000000000e+00 1634431585
1.531094 -0.367742 2.752188 0.000000000000000e+00 1701537140
1.496316 -0.287151 2.689674 0.000000000000000e+00 1701537140
1.500997 -0.215899 2.698088 0.000000000000000e+00 1701537140
1.571685 -0.150764 2.825153 0.000000000000000e+00 1701537140
1.455616 -0.069515 2.616515 0.000000000000000e+00 1701537140
1.446388 0.000000 2.599927 0.000000000000000e+00 1701537140
1.421866 0.067904 2.555848 0.000000000000000e+00 1701537140
1.561988 0.149833 2.807721 0.000000000000000e+00 1701537140
1.455417 0.209343 2.616157 0.000000000000000e+00 1851878480
1.495440 0.286983 2.688099 0.000000000000000e+00 1851878480
1.521698 0.366039 2.735298 0.000000000000000e+00 1851878480
1.675546 0.484380 3.011845 0.000000000000000e+00 1851878480
1.836051 0.620489 3.300359 0.000000000000000e+00 1634431585
1.550926 -0.370498 2.768152 0.000000000000000e+00 1701537140
1.504724 -0.287209 2.685689 0.000000000000000e+00 1701537140
1.492092 -0.213462 2.663144 0.000000000000000e+00 1701537140
1.570842 -0.149871 2.803699 0.000000000000000e+00 1701537140
1.454699 -0.069097 2.596403 0.000000000000000e+00 1701537140
1.451691 0.000000 2.591034 0.000000000000000e+00 1701537140
1.424310 0.067654 2.542163 0.000000000000000e+00 1701537140
1.576229 0.150385 2.813315 0.000000000000000e+00 1701537140
1.449059 0.207306 2.586337 0.000000000000000e+00 1851878480
1.499572 0.286226 2.676494 0.000000000000000e+00 1851878480
1.515903 0.362681 2.705643 0.000000000000000e+00 1851878480
1.674780 0.481550 2.989211 0.000000000000000e+00 1851878480
1.859918 0.625168 3.319653 0.000000000000000e+00 1634431585
1.565949 -0.372086 2.775304 0.000000000000000e+00 1701537140
1.512181 -0.287088 2.680012 0.000000000000000e+00 1701537140
1.490740 -0.212128 2.642012 0.000000000000000e+00 1701537140
1.476695 -0.140135 2.617121 0.000000000000000e+00 1701537140
1.450939 -0.068550 2.571475 0.000000000000000e+00 1701537140
1.466175 0.000000 2.598477 0.000000000000000e+00 1701537140
1.436411 0.067864 2.545727 0.000000000000000e+00 1701537140
1.519158 0.144164 2.692378 0.000000000000000e+00 1851878480
1.461556 0.207975 2.590290 0.000000000000000e+00 1851878480
1.507005 0.286106 2.670840 0.000000000000000e+00 1851878480
1.528130 0.363650 2.708279 0.000000000000000e+00 1851878480
1.690068 0.483347 2.995279 0.000000000000000e+00 1851878480
1.861352 0.622303 3.298842 0.000000000000000e+00 1634431585
1.588644 -0.375473 2.795791 0.000000000000000e+00 1701537140
1.520624 -0.287158 2.676085 0.000000000000000e+00 1701537140
1.504527 -0.212952 2.647757 0.000000000000000e+00 1701537140
1.472787 -0.139021 2.591899 0.000000000000000e+00 1701537140
1.457132 -0.068477 2.564349 0.000000000000000e+00 1701537140
1.470067 0.000000 2.587112 0.000000000000000e+00 1701537140
1.453470 0.068305 2.557904 0.000000000000000e+00 1701537140
1.532556 0.144663 2.697085 0.000000000000000e+00 1851878480
1.475585 0.208856 2.596823 0.000000000000000e+00 1851878480
1.520106 0.287060 2.675173 0.000000000000000e+00 1851878480
1.528807 0.361878 2.690486 0.000000000000000e+00 1851878480
1.707630 0.485775 3.005190 0.000000000000000e+00 1851878480
1.881679 0.625757 3.311491 0.000000000000000e+00 1634431585
1.602709 -0.376799 2.800843 0.000000000000000e+00 1701537140
1.533228 -0.288011 2.679421 0.000000000000000e+00 1701537140
1.499178 -0.211076 2.619917 0.000000000000000e+00 1701537140
1.487258 -0.139647 2.599085 0.000000000000000e+00 1701537140
1.466430 -0.068550 2.562687 0.000000000000000e+00 1701537140
1.473163 0.000000 2.574454 0.000000000000000e+00 1701537140
1.459934 0.068247 2.551335 0.000000000000000e+00 1701537140
1.535303 0.144158 2.683047 0.000000000000000e+00 1851878480
1.475692 0.207769 2.578873 0.000000000000000e+00 1851878480
1.525345 0.286530 2.665645 0.000000000000000e+00 1851878480
1.536967 0.361891 2.685955 0.000000000000000e+00 1851878480
1.712991 0.484729 2.993569 0.000000000000000e+00 1851878480
1.903258 0.629595 3.326075 0.000000000000000e+00 1634431585
1.624338 -0.379884 2.818886 0.000000000000000e+00 1701537140
1.542715 -0.288275 2.677238 0.000000000000000e+00 1701537140
1.510265 -0.211523 2.620924 0.000000000000000e+00 1701537140
1.493315 -0.139481 2.591508 0.000000000000000e+00 1701537140
1.468172 -0.068272 2.547875 0.000000000000000e+00 1701537140
1.482655 0.000000 2.573008 0.000000000000000e+00 1701537140
1.481380 0.068887 2.570796 0.000000000000000e+00 1701537140
1.540305 0.143870 2.673056 0.000000000000000e+00 1851878480
1.477646 0.206954 2.564316 0.000000000000000e+00 1851878480
1.522740 0.284542 2.642572 0.000000000000000e+00 1851878480
1.544107 0.361667 2.679653 0.000000000000000e+00 1851878480
1.716089 0.483062 2.978112 0.000000000000000e+00 1851878480
1.923445 0.632939 3.337959 0.000000000000000e+00 1634431585
1.642157 -0.382053 2.830045 0.000000000000000e+00 1701537140
1.562974 -0.290541 2.693583 0.000000000000000e+00 1701537140
1.525811 -0.212589 2.629537 0.000000000000000e+00 1701537140
1.509224 -0.140234 2.600953 0.000000000000000e+00 1701537140
1.482623 -0.068586 2.555108 0.000000000000000e+00 1701537140
1.480864 0.000000 2.552077 0.000000000000000e+00 1701537140
1.486403 0.068761 2.561623 0.000000000000000e+00 1701537140
1.543548 0.143423 2.660105 0.000000000000000e+00 1851878480
1.493988 0.208155 2.574696 0.000000000000000e+00 1851878480
1.540663 0.286393 2.655133 0.000000000000000e+00 1851878480
1.549428 0.361026 2.670238 0.000000000000000e+00 1851878480
1.736718 0.486326 2.993007 0.000000000000000e+00 1851878480
1.946825 0.637300 3.355101 0.000000000000000e+00 1634431585
1.683046 -0.389543 2.880464 0.000000000000000e+00 1701537140
1.573331 -0.290955 2.692692 0.000000000000000e+00 1701537140
1.531467 -0.212274 2.621042 0.000000000000000e+00 1701537140
1.508842 -0.139474 2.582321 0.000000000000000e+00 1701537140
1.483801 -0.068286 2.539465 0.000000000000000e+00 1701537140
1.508403 0.000000 2.581570 0.000000000000000e+00 1701537140
1.505243 0.069272 2.576162 0.000000000000000e+00 1701537140
1.549898 0.143269 2.652588 0.000000000000000e+00 1851878480
1.498909 0.207762 2.565322 0.000000000000000e+00 1851878480
1.547651 0.286206 2.648741 0.000000000000000e+00 1851878480
1.546543 0.358492 2.646844 0.000000000000000e+00 1851878480
1.742723 0.485486 2.982598 0.000000000000000e+00 1851878480
1.951749 0.635611 3.340338 0.000000000000000e+00 1634431585
1.586356 -0.291859 2.696281 0.000000000000000e+00 1701537140
1.546094 -0.213202 2.627849 0.000000000000000e+00 1701537140
1.523199 -0.140079 2.588935 0.000000000000000e+00 1701537140
1.498619 -0.068614 2.547157 0.000000000000000e+00 1701537140
1.516771 0.000000 2.578011 0.000000000000000e+00 1701537140
1.447171 0.066258 2.459713 0.000000000000000e+00 1851878480
1.563321 0.143768 2.657130 0.000000000000000e+00 1851878480
1.507653 0.207901 2.562512 0.000000000000000e+00 1851878480
1.549611 0.285098 2.633827 0.000000000000000e+00 1851878480
1.568810 0.361788 2.666460 0.000000000000000e+00 1851878480
1.765039 0.489180 2.999984 0.000000000000000e+00 1851878480
1.990373 0.644864 3.382977 0.000000000000000e+00 1634431585
1.608243 -0.294378 2.714716 0.000000000000000e+00 1701537140
1.562393 -0.214352 2.637321 0.000000000000000e+00 1701537140
1.535048 -0.140449 2.591163 0.000000000000000e+00 1701537140
1.522720 -0.069362 2.570354 0.000000000000000e+00 1701537140
1.532352 0.000000 2.586612 0.000000000000000e+00 1701537140
1.460997 0.066550 2.466164 0.000000000000000e+00 1851878480
1.562166 0.142930 2.636938 0.000000000000000e+00 1851878480
1.517571 0.208203 2.561661 0.000000000000000e+00 1851878480
1.554580 0.284555 2.624132 0.000000000000000e+00 1851878480
1.573083 0.360925 2.655366 0.000000000000000e+00 1851878480
1.760641 0.485475 2.971963 0.000000000000000e+00 1851878480
2.013583 0.649060 3.398931 0.000000000000000e+00 1634431585
1.619570 -0.294951 2.715129 0.000000000000000e+00 1701537140
1.582699 -0.216039 2.653317 0.000000000000000e+00 1701537140
1.551757 -0.141259 2.601445 0.000000000000000e+00 1701537140
1.525302 -0.069128 2.557093 0.000000000000000e+00 1701537140
1.544395 0.000000 2.589102 0.000000000000000e+00 1701537140
1.455812 0.065979 2.440597 0.000000000000000e+00 1851878480
1.577972 0.143646 2.645391 0.000000000000000e+00 1851878480
1.528875 0.208692 2.563084 0.000000000000000e+00 1851878480
1.563270 0.284698 2.620745 0.000000000000000e+00 1851878480
1.577352 0.360073 2.644352 0.000000000000000e+00 1851878480
1.774868 0.486921 2.975479 0.000000000000000e+00 1851878480
2.038576 0.653791 3.417571 0.000000000000000e+00 1634431585
1.636740 -0.296580 2.725198 0.000000000000000e+00 1701537140
1.590246 -0.215978 2.647786 0.000000000000000e+00 1701537140
1.564238 -0.141680 2.604482 0.000000000000000e+00 1701537140
1.540674 -0.069474 2.565247 0.000000000000000e+00 1701537140
1.496291 0.000000 2.491348 0.000000000000000e+00 1851878480
1.474317 0.066481 2.454762 0.000000000000000e+00 1851878480
1.587143 0.143754 2.642619 0.000000000000000e+00 1851878480
1.523063 0.206854 2.535924 0.000000000000000e+00 1851878480
1.568208 0.284162 2.611091 0.000000000000000e+00 1851878480
1.570612 0.356732 2.615095 0.000000000000000e+00 1851878480
1.786999 0.487785 2.975382 0.000000000000000e+00 1851878480
2.076807 0.662704 3.457917 0.000000000000000e+00 1634431585
1.648561 -0.297231 2.726219 0.000000000000000e+00 1701537140
1.605786 -0.217000 2.655482 0.000000000000000e+00 1701537140
1.574634 -0.141909 2.603966 0.000000000000000e+00 1701537140
1.560150 -0.070001 2.580013 0.000000000000000e+00 1701537140
1.515905 0.000000 2.506847 0.000000000000000e+00 1851878480
1.477026 0.066271 2.442552 0.000000000000000e+00 1851878480
1.590273 0.143319 2.629829 0.000000000000000e+00 1851878480
1.524429 0.206006 2.520943 0.000000000000000e+00 1851878480
1.572347 0.283489 2.600184 0.000000000000000e+00 1851878480
1.596207 0.360736 2.639641 0.000000000000000e+00 1851878480
1.800477 0.489011 2.977442 0.000000000000000e+00 1851878480
2.123307 0.674160 3.511305 0.000000000000000e+00 1634431585
1.672740 -0.300095 2.747456 0.000000000000000e+00 1701537140
1.619130 -0.217718 2.659402 0.000000000000000e+00 1701537140
1.587873 -0.142393 2.608063 0.000000000000000e+00 1701537140
1.577453 -0.070426 2.590949 0.000000000000000e+00 1701537140
1.509353 0.000000 2.479094 0.000000000000000e+00 1851878480
1.486877 0.066382 2.442178 0.000000000000000e+00 1851878480
1.594010 0.142943 2.618143 0.000000000000000e+00 1851878480
1.542821 0.207457 2.534065 0.000000000000000e+00 1851878480
1.584847 0.284326 2.603093 0.000000000000000e+00 1851878480
1.600568 0.359928 2.628914 0.000000000000000e+00 1851878480
1.815905 0.490756 2.982603 0.000000000000000e+00 1851878480
2.196100 0.693815 3.607068 0.000000000000000e+00 1634431585
1.701388 -0.303731 2.775630 0.000000000000000e+00 1701537140
1.640560 -0.219514 2.676394 0.000000000000000e+00 1701537140
1.615587 -0.144165 2.635655 0.000000000000000e+00 1701537140
1.512428 -0.067190 2.467361 0.000000000000000e+00 1851878480
1.516494 0.000000 2.473995 0.000000000000000e+00 1851878480
1.496647 0.066489 2.441617 0.000000000000000e+00 1851878480
1.606072 0.143316 2.620131 0.000000000000000e+00 1851878480
1.548076 0.207139 2.525518 0.000000000000000e+00 1851878480
1.591973 0.284198 2.597130 0.000000000000000e+00 1851878480
1.607713 0.359754 2.622808 0.000000000000000e+00 1851878480
1.827835 0.491547 2.981914 0.000000000000000e+00 1851878480
1.722737 -0.306038 2.791528 0.000000000000000e+00 1701537140
1.663473 -0.221491 2.695497 0.000000000000000e+00 1701537140
1.558140 -0.138359 2.524815 0.000000000000000e+00 1851878480
1.526244 -0.067473 2.473130 0.000000000000000e+00 1851878480
1.524623 0.000000 2.470502 0.000000000000000e+00 1851878480
1.495877 0.066130 2.423923 0.000000000000000e+00 1851878480
1.614518 0.143365 2.616169 0.000000000000000e+00 1851878480
1.550646 0.206468 2.512671 0.000000000000000e+00 1851878480
1.598864 0.284032 2.590802 0.000000000000000e+00 1851878480
1.620580 0.360859 2.625992 0.000000000000000e+00 1851878480
1.837151 0.491636 2.976925 0.000000000000000e+00 1851878480
1.672204 -0.221572 2.691447 0.000000000000000e+00 1701537140
1.561183 -0.137955 2.512756 0.000000000000000e+00 1851878480
1.533519 -0.067465 2.468231 0.000000000000000e+00 1851878480
1.534101 0.000000 2.469168 0.000000000000000e+00 1851878480
1.510029 0.066431 2.430423 0.000000000000000e+00 1851878480
1.621356 0.143272 2.609606 0.000000000000000e+00 1851878480
1.567305 0.207672 2.522610 0.000000000000000e+00 1851878480
1.606150 0.283940 2.585132 0.000000000000000e+00 1851878480
1.622568 0.359547 2.611557 0.000000000000000e+00 1851878480
1.849873 0.492635 2.977409 0.000000000000000e+00 1851878480
1.595611 -0.210402 2.550974 0.000000000000000e+00 1851878480
1.563715 -0.137512 2.499981 0.000000000000000e+00 1851878480
1.538162 -0.067342 2.459128 0.000000000000000e+00 1851878480
1.549992 0.000000 2.478041 0.000000000000000e+00 1851878480
1.522810 0.066670 2.434584 0.000000000000000e+00 1851878480
1.630127 0.143352 2.606157 0.000000000000000e+00 1851878480
1.557932 0.205434 2.490734 0.000000000000000e+00 1851878480
1.616759 0.284436 2.584785 0.000000000000000e+00 1851878480
1.637083 0.361012 2.617278 0.000000000000000e+00 1851878480
1.867212 0.494853 2.985194 0.000000000000000e+00 1851878480
1.610857 -0.211394 2.558156 0.000000000000000e+00 1851878480
1.574561 -0.137802 2.500515 0.000000000000000e+00 1851878480
1.545173 -0.067325 2.453845 0.000000000000000e+00 1851878480
1.551024 0.000000 2.463136 0.000000000000000e+00 1851878480
1.521446 0.066291 2.416164 0.000000000000000e+00 1851878480
1.633027 0.142919 2.593362 0.000000000000000e+00 1851878480
1.574897 0.206675 2.501048 0.000000000000000e+00 1851878480
1.620560 0.283738 2.573564 0.000000000000000e+00 1851878480
1.651407 0.362425 2.622552 0.000000000000000e+00 1851878480
1.878366 0.495422 2.982978 0.000000000000000e+00 1851878480
1.607767 -0.209984 2.536252 0.000000000000000e+00 1851878480
1.579059 -0.137538 2.490965 0.000000000000000e+00 1851878480
1.548246 -0.067138 2.442357 0.000000000000000e+00 1851878480
1.562007 0.000000 2.464066 0.000000000000000e+00 1851878480
1.528267 0.066271 2.410841 0.000000000000000e+00 1851878480
1.649443 0.143668 2.601996 0.000000000000000e+00 1851878480
1.577705 0.206058 2.488829 0.000000000000000e+00 1851878480
1.630491 0.284117 2.572098 0.000000000000000e+00 1851878480
1.649663 0.360318 2.602342 0.000000000000000e+00 1851878480
1.897287 0.498030 2.992970 0.000000000000000e+00 1851878480
1.665321 -0.288814 2.609606 0.000000000000000e+00 1851878480
1.616300 -0.210100 2.532787 0.000000000000000e+00 1851878480
1.593263 -0.138118 2.496689 0.000000000000000e+00 1851878480
1.555398 -0.067129 2.437353 0.000000000000000e+00 1851878480
1.569864 0.000000 2.460022 0.000000000000000e+00 1851878480
1.532557 0.066143 2.401561 0.000000000000000e+00 1851878480
1.649649 0.143006 2.585047 0.000000000000000e+00 1851878480
1.579185 0.205275 2.474627 0.000000000000000e+00 1851878480
1.638299 0.284128 2.567261 0.000000000000000e+00 1851878480
1.647425 0.358127 2.581562 0.000000000000000e+00 1851878480
1.897564 0.495746 2.973537 0.000000000000000e+00 1851878480
1.674606 -0.289060 2.606785 0.000000000000000e+00 1851878480
1.628202 -0.210652 2.534549 0.000000000000000e+00 1851878480
1.602080 -0.138230 2.493886 0.000000000000000e+00 1851878480
1.572765 -0.067559 2.448254 0.000000000000000e+00 1851878480
1.577151 0.000000 2.455081 0.000000000000000e+00 1851878480
1.535414 0.065955 2.390110 0.000000000000000e+00 1851878480
1.656270 0.142905 2.578241 0.000000000000000e+00 1851878480
1.601866 0.207245 2.493554 0.000000000000000e+00 1851878480
1.636738 0.282523 2.547837 0.000000000000000e+00 1851878480
1.669665 0.361256 2.599092 0.000000000000000e+00 1851878480
1.914055 0.497704 2.979524 0.000000000000000e+00 1851878480
1.680776 -0.288770 2.599117 0.000000000000000e+00 1851878480
1.634766 -0.210514 2.527968 0.000000000000000e+00 1851878480
1.597843 -0.137221 2.470871 0.000000000000000e+00 1851878480
1.575754 -0.067372 2.436714 0.000000000000000e+00 1851878480
1.573791 0.000000 2.433679 0.000000000000000e+00 1851878480
1.542287 0.065941 2.384961 0.000000000000000e+00 1851878480
1.654518 0.142088 2.558513 0.000000000000000e+00 1851878480
1.597743 0.205747 2.470717 0.000000000000000e+00 1851878480
1.649010 0.283312 2.549996 0.000000000000000e+00 1851878480
1.678714 0.361518 2.595929 0.000000000000000e+00 1851878480
1.927945 0.498976 2.981335 0.000000000000000e+00 1851878480
1.688371 -0.288730 2.593675 0.000000000000000e+00 1851878480
1.643319 -0.210634 2.524466 0.000000000000000e+00 1851878480
1.609043 -0.137542 2.471811 0.000000000000000e+00 1851878480
1.591575 -0.067733 2.444976 0.000000000000000e+00 1851878480
1.601665 0.000000 2.460478 0.000000000000000e+00 1851878480
1.558578 0.066328 2.394286 0.000000000000000e+00 1851878480
1.670592 0.142803 2.566363 0.000000000000000e+00 1851878480
1.616198 0.207158 2.482803 0.000000000000000e+00 1851878480
1.652599 0.282612 2.538721 0.000000000000000e+00 1851878480
1.691184 0.362515 2.597996 0.000000000000000e+00 1851878480
1.933855 0.498184 2.970786 0.000000000000000e+00 1851878480
1.696184 -0.288729 2.588568 0.000000000000000e+00 1851878480
1.652744 -0.210866 2.522274 0.000000000000000e+00 1851878480
1.629016 -0.138608 2.486063 0.000000000000000e+00 1851878480
1.599202 -0.067744 2.440562 0.000000000000000e+00 1851878480
1.591853 0.000000 2.429348 0.000000000000000e+00 1851878480
1.556557 0.065937 2.375482 0.000000000000000e+00 1851878480
1.683470 0.143241 2.569165 0.000000000000000e+00 1851878480
1.627094 0.207594 2.483129 0.000000000000000e+00 1851878480
1.664868 0.283399 2.540776 0.000000000000000e+00 1851878480
1.698973 0.362507 2.592825 0.000000000000000e+00 1851878480
1.952297 0.500618 2.979425 0.000000000000000e+00 1851878480
1.703126 -0.288584 2.582141 0.000000000000000e+00 1851878480
1.662568 -0.211149 2.520650 0.000000000000000e+00 1851878480
1.626676 -0.137775 2.466233 0.000000000000000e+00 1851878480
1.598555 -0.067406 2.423598 0.000000000000000e+00 1851878480
1.597995 0.000000 2.422749 0.000000000000000e+00 1851878480
1.567474 0.066096 2.376476 0.000000000000000e+00 1851878480
1.695039 0.143565 2.569880 0.000000000000000e+00 1851878480
1.626218 0.206533 2.465540 0.000000000000000e+00 1851878480
1.669034 0.282808 2.530454 0.000000000000000e+00 1851878480
1.706579 0.362463 2.587376 0.000000000000000e+00 1851878480
1.976294 0.504452 2.996296 0.000000000000000e+00 1851878480
1.712364 -0.288830 2.579189 0.000000000000000e+00 1851878480
1.671567 -0.211327 2.517740 0.000000000000000e+00 1851878480
1.635132 -0.137861 2.462862 0.000000000000000e+00 1851878480
1.607135 -0.067460 2.420691 0.000000000000000e+00 1851878480
1.609448 0.000000 2.424176 0.000000000000000e+00 1851878480
1.579368 0.066294 2.378869 0.000000000000000e+00 1851878480
1.699584 0.143295 2.559939 0.000000000000000e+00 1851878480
1.631754 0.206293 2.457773 0.000000000000000e+00 1851878480
1.673043 0.282198 2.519964 0.000000000000000e+00 1851878480
1.715204 0.362638 2.583467 0.000000000000000e+00 1851878480
1.988416 0.505238 2.994983 0.000000000000000e+00 1851878480
1.718621 -0.288576 2.571747 0.000000000000000e+00 1851878480
1.682600 -0.211760 2.517845 0.000000000000000e+00 1851878480
1.630124 -0.136818 2.439320 0.000000000000000e+00 1851878480
1.621176 -0.067742 2.425932 0.000000000000000e+00 1851878480
1.622840 0.000000 2.428421 0.000000000000000e+00 1851878480
1.584434 0.066207 2.370950 0.000000000000000e+00 1851878480
1.699347 0.142628 2.542905 0.000000000000000e+00 1851878480
1.640222 0.206427 2.454432 0.000000000000000e+00 1851878480
1.690615 0.283873 2.529840 0.000000000000000e+00 1851878480
1.717195 0.361419 2.569614 0.000000000000000e+00 1851878480
2.001609 0.506293 2.995212 0.000000000000000e+00 1851878480
1.728337 -0.288905 2.569478 0.000000000000000e+00 1851878480
1.683940 -0.210978 2.503474 0.000000000000000e+00 1851878480
1.653780 -0.138181 2.458636 0.000000000000000e+00 1851878480
1.615258 -0.067192 2.401367 0.000000000000000e+00 1851878480
1.622215 0.000000 2.411710 0.000000000000000e+00 1851878480
1.587420 0.066034 2.359980 0.000000000000000e+00 1851878480
1.705957 0.142540 2.536207 0.000000000000000e+00 1851878480
1.644332 0.206015 2.444589 0.000000000000000e+00 1851878480
1.694097 0.283181 2.518574 0.000000000000000e+00 1851878480
1.740387 0.364656 2.587392 0.000000000000000e+00 1851878480
2.023995 0.509658 3.009025 0.000000000000000e+00 1851878480
1.740738 -0.289680 2.571135 0.000000000000000e+00 1851878480
1.690305 -0.210831 2.496644 0.000000000000000e+00 1851878480
1.659496 -0.138040 2.451138 0.000000000000000e+00 1851878480
1.628582 -0.067444 2.405477 0.000000000000000e+00 1851878480
1.635275 0.000000 2.415363 0.000000000000000e+00 1851878480
1.609870 0.066669 2.377839 0.000000000000000e+00 1851878480
1.722033 0.143242 2.543508 0.000000000000000e+00 1851878480
1.658594 0.206876 2.449807 0.000000000000000e+00 1851878480
1.707153 0.284091 2.521529 0.000000000000000e+00 1851878480
1.733066 0.361503 2.559804 0.000000000000000e+00 1851878480
2.031743 0.509327 3.000961 0.000000000000000e+00 1851878480
1.746189 -0.289300 2.562507 0.000000000000000e+00 1851878480
1.692993 -0.210231 2.484442 0.000000000000000e+00 1851878480
1.668523 -0.138176 2.448532 0.000000000000000e+00 1851878480
1.643251 -0.067750 2.411446 0.000000000000000e+00 1851878480
1.640871 0.000000 2.407953 0.000000000000000e+00 1851878480
1.614857 0.066579 2.369778 0.000000000000000e+00 1851878480
1.726163 0.142949 2.533118 0.000000000000000e+00 1851878480
1.672389 0.207672 2.454206 0.000000000000000e+00 1851878480
1.710649 0.283412 2.510352 0.000000000000000e+00 1851878480
1.760343 0.365566 2.583277 0.000000000000000e+00 1851878480
2.052175 0.512170 3.011535 0.000000000000000e+00 1851878480
1.773724 -0.292568 2.586117 0.000000000000000e+00 1851878480
1.715603 -0.212100 2.501376 0.000000000000000e+00 1851878480
1.683540 -0.138806 2.454628 0.000000000000000e+00 1851878480
1.650364 -0.067744 2.406257 0.000000000000000e+00 1851878480
1.641604 0.000000 2.393484 0.000000000000000e+00 1851878480
1.620852 0.066532 2.363227 0.000000000000000e+00 1851878480
1.744875 0.143863 2.544056 0.000000000000000e+00 1851878480
1.687464 0.208622 2.460349 0.000000000000000e+00 1851878480
1.729137 0.285214 2.521110 0.000000000000000e+00 1851878480
1.755506 0.362957 2.559556 0.000000000000000e+00 1851878480
2.074969 0.515579 3.025338 0.000000000000000e+00 1851878480
1.784787 -0.293106 2.585496 0.000000000000000e+00 1851878480
1.715617 -0.211175 2.485294 0.000000000000000e+00 1851878480
1.680044 -0.137912 2.433762 0.000000000000000e+00 1851878480
1.657166 -0.067725 2.400620 0.000000000000000e+00 1851878480
1.661822 0.000000 2.407365 0.000000000000000e+00 1851878480
1.623143 0.066335 2.351334 0.000000000000000e+00 1851878480
1.740398 0.142866 2.521192 0.000000000000000e+00 1851878480
1.704184 0.209767 2.468732 0.000000000000000e+00 1851878480
1.744499 0.286489 2.527134 0.000000000000000e+00 1851878480
1.778593 0.366122 2.576523 0.000000000000000e+00 1851878480
2.099850 0.519480 3.041906 0.000000000000000e+00 1851878480
1.787608 -0.292293 2.572950 0.000000000000000e+00 1851878480
1.722193 -0.211063 2.478797 0.000000000000000e+00 1851878480
1.679812 -0.137294 2.417796 0.000000000000000e+00 1851878480
1.668049 -0.067874 2.400866 0.000000000000000e+00 1851878480
1.666596 0.000000 2.398774 0.000000000000000e+00 1851878480
1.635194 0.066537 2.353577 0.000000000000000e+00 1851878480
1.750736 0.143090 2.519879 0.000000000000000e+00 1851878480
1.708152 0.209342 2.458586 0.000000000000000e+00 1851878480
1.744657 0.285270 2.511130 0.000000000000000e+00 1851878480
1.785978 0.366044 2.570604 0.000000000000000e+00 1851878480
2.118257 0.521756 3.048862 0.000000000000000e+00 1851878480
1.803969 -0.293695 2.579860 0.000000000000000e+00 1851878480
1.734543 -0.211659 2.480572 0.000000000000000e+00 1851878480
1.703455 -0.138625 2.436115 0.000000000000000e+00 1851878480
1.672094 -0.067745 2.391265 0.000000000000000e+00 1851878480
1.680594 0.000000 2.403421 0.000000000000000e+00 1851878480
1.640337 0.066458 2.345849 0.000000000000000e+00 1851878480
1.761431 0.143343 2.519025 0.000000000000000e+00 1851878480
2.847625 0.347483 4.072392 0.000000000000000e+00 1851878480
1.764688 0.287300 2.523684 0.000000000000000e+00 1851878480
1.796807 0.366674 2.569617 0.000000000000000e+00 1851878480
2.236152 0.548417 3.197925 0.000000000000000e+00 1634431585
1.816612 -0.294484 2.581328 0.000000000000000e+00 1851878480
1.740639 -0.211491 2.473373 0.000000000000000e+00 1851878480
1.705082 -0.138162 2.422849 0.000000000000000e+00 1851878480
1.687973 -0.068095 2.398537 0.000000000000000e+00 1851878480
1.673751 0.000000 2.378328 0.000000000000000e+00 1851878480
1.648708 0.066511 2.342743 0.000000000000000e+00 1851878480
1.785290 0.144661 2.536821 0.000000000000000e+00 1851878480
2.852277 0.346558 4.052963 0.000000000000000e+00 1851878480
1.779599 0.288484 2.528733 0.000000000000000e+00 1851878480
1.808096 0.367395 2.569227 0.000000000000000e+00 1851878480
2.264150 0.552902 3.217260 0.000000000000000e+00 1634431585
1.823053 -0.294269 2.573951 0.000000000000000e+00 1851878480
1.740548 -0.210579 2.457464 0.000000000000000e+00 1851878480
1.728612 -0.139471 2.440610 0.000000000000000e+00 1851878480
1.688515 -0.067826 2.383999 0.000000000000000e+00 1851878480
1.701292 0.000000 2.402037 0.000000000000000e+00 1851878480
1.654952 0.066478 2.336611 0.000000000000000e+00 1851878480
1.812970 0.146278 2.559715 0.000000000000000e+00 1851878480
2.861990 0.346256 4.040816 0.000000000000000e+00 1851878480
1.784664 0.288072 2.519750 0.000000000000000e+00 1851878480
1.819091 0.368053 2.568357 0.000000000000000e+00 1851878480
2.294963 0.558037 3.240237 0.000000000000000e+00 1634431585
1.847975 -0.297028 2.592526 0.000000000000000e+00 1851878480
1.744186 -0.210125 2.446919 0.000000000000000e+00 1851878480
1.721747 -0.138329 2.415440 0.000000000000000e+00 1851878480
1.692740 -0.067708 2.374747 0.000000000000000e+00 1851878480
1.711872 0.000000 2.401586 0.000000000000000e+00 1851878480
1.669053 0.066760 2.341516 0.000000000000000e+00 1851878480
1.830225 0.147045 2.567624 0.000000000000000e+00 1851878480
2.859365 0.344473 4.011405 0.000000000000000e+00 1851878480
1.801771 0.289602 2.527706 0.000000000000000e+00 1851878480
1.825318 0.367749 2.560740 0.000000000000000e+00 1851878480
2.344794 0.567739 3.289513 0.000000000000000e+00 1634431585
1.856888 -0.297205 2.588478 0.000000000000000e+00 1851878480
1.761244 -0.211287 2.455151 0.000000000000000e+00 1851878480
1.733155 -0.138660 2.415996 0.000000000000000e+00 1851878480
1.714899 -0.068305 2.390547 0.000000000000000e+00 1851878480
1.705342 0.000000 2.377225 0.000000000000000e+00 1851878480
1.690218 0.067322 2.356142 0.000000000000000e+00 1851878480
1.821629 0.145738 2.539326 0.000000000000000e+00 1851878480
2.872648 0.344616 4.004434 0.000000000000000e+00 1851878480
1.813754 0.290301 2.528349 0.000000000000000e+00 1851878480
1.840781 0.369303 2.566025 0.000000000000000e+00 1851878480
2.406933 0.580332 3.355232 0.000000000000000e+00 1634431585
1.878317 -0.299377 2.601746 0.000000000000000e+00 1851878480
1.780480 -0.212701 2.466227 0.000000000000000e+00 1851878480
1.746270 -0.139125 2.418841 0.000000000000000e+00 1851878480
1.712646 -0.067930 2.372267 0.000000000000000e+00 1851878480
1.718496 0.000000 2.380370 0.000000000000000e+00 1851878480
1.720896 0.068258 2.383695 0.000000000000000e+00 1851878480
1.838631 0.146483 2.546774 0.000000000000000e+00 1851878480
2.881808 0.344269 3.991728 0.000000000000000e+00 1851878480
1.822485 0.290478 2.524410 0.000000000000000e+00 1851878480
1.848181 0.369237 2.560004 0.000000000000000e+00 1851878480
1.795483 -0.213602 2.471269 0.000000000000000e+00 1851878480
1.752204 -0.139017 2.411702 0.000000000000000e+00 1851878480
1.729435 -0.068311 2.380363 0.000000000000000e+00 1851878480
1.732218 0.000000 2.384193 0.000000000000000e+00 1851878480
1.726379 0.068191 2.376156 0.000000000000000e+00 1851878480
1.864638 0.147938 2.566454 0.000000000000000e+00 1851878480
2.884880 0.343204 3.970695 0.000000000000000e+00 1851878480
1.836793 0.291542 2.528128 0.000000000000000e+00 1851878480
1.862579 0.370568 2.563620 0.000000000000000e+00 1851878480
1.799280 -0.213170 2.460854 0.000000000000000e+00 1851878480
1.758482 -0.138939 2.405056 0.000000000000000e+00 1851878480
1.725363 -0.067869 2.359759 0.000000000000000e+00 1851878480
1.734327 0.000000 2.372019 0.000000000000000e+00 1851878480
1.744272 0.068613 2.385620 0.000000000000000e+00 1851878480
1.870139 0.147761 2.557766 0.000000000000000e+00 1851878480
2.902637 0.343891 3.969903 0.000000000000000e+00 1851878480
1.846482 0.291870 2.525412 0.000000000000000e+00 1851878480
1.871292 0.370763 2.559343 0.000000000000000e+00 1851878480
1.809895 -0.213548 2.459768 0.000000000000000e+00 1851878480
1.776995 -0.139826 2.415054 0.000000000000000e+00 1851878480
1.745955 -0.068397 2.372869 0.000000000000000e+00 1851878480
1.744044 0.000000 2.370272 0.000000000000000e+00 1851878480
1.756794 0.068822 2.387600 0.000000000000000e+00 1851878480
1.875283 0.147560 2.548634 0.000000000000000e+00 1851878480
2.902962 0.342518 3.945318 0.000000000000000e+00 1851878480
1.848370 0.290969 2.512058 0.000000000000000e+00 1851878480
1.883976 0.371745 2.560449 0.000000000000000e+00 1851878480
1.815446 -0.213329 2.451787 0.000000000000000e+00 1851878480
1.777160 -0.139269 2.400081 0.000000000000000e+00 1851878480
1.750027 -0.068277 2.363438 0.000000000000000e+00 1851878480
1.749480 0.000000 2.362699 0.000000000000000e+00 1851878480
1.770373 0.069071 2.390914 0.000000000000000e+00 1851878480
1.888124 0.147965 2.549940 0.000000000000000e+00 1851878480
2.922532 0.343421 3.946923 0.000000000000000e+00 1851878480
1.850940 0.290186 2.499722 0.000000000000000e+00 1851878480
1.891629 0.371733 2.554673 0.000000000000000e+00 1851878480
1.835585 -0.214822 2.463415 0.000000000000000e+00 1851878480
1.798428 -0.140364 2.413549 0.000000000000000e+00 1870292837
1.749504 -0.067980 2.347892 0.000000000000000e+00 1851878480
1.755614 0.000000 2.356092 0.000000000000000e+00 1851878480
1.777077 0.069052 2.384895 0.000000000000000e+00 1851878480
1.910762 0.149132 2.564306 0.000000000000000e+00 1851878480
2.926966 0.342548 3.928085 0.000000000000000e+00 1851878480
1.881594 0.293796 2.525161 0.000000000000000e+00 1851878480
1.900190 0.371902 2.550117 0.000000000000000e+00 1851878480
1.841018 -0.214590 2.455216 0.000000000000000e+00 1851878480
1.790354 -0.139172 2.387650 0.000000000000000e+00 1870292837
1.776298 -0.068743 2.368905 0.000000000000000e+00 1851878480
1.787622 0.000000 2.384007 0.000000000000000e+00 1851878480
1.779702 0.068875 2.373445 0.000000000000000e+00 1851878480
1.918201 0.149110 2.558149 0.000000000000000e+00 1851878480
2.940460 0.342742 3.921454 0.000000000000000e+00 1851878480
1.889219 0.293799 2.519497 0.000000000000000e+00 1851878480
1.929667 0.376151 2.573440 0.000000000000000e+00 1851878480
1.853287 -0.215156 2.456110 0.000000000000000e+00 1851878480
1.789339 -0.138536 2.371362 0.000000000000000e+00 1870292837
1.784953 -0.068802 2.365550 0.000000000000000e+00 1851878480
1.798958 0.000000 2.384110 0.000000000000000e+00 1851878480
1.798458 0.069323 2.383447 0.000000000000000e+00 1851878480
1.926325 0.149142 2.552906 0.000000000000000e+00 1851878480
2.951766 0.342683 3.911894 0.000000000000000e+00 1851878480
1.901996 0.294602 2.520663 0.000000000000000e+00 1851878480
1.933387 0.375368 2.562265 0.000000000000000e+00 1851878480
1.869567 -0.216183 2.462206 0.000000000000000e+00 1851878480
1.861468 -0.143547 2.451540 0.000000000000000e+00 1870292837
1.790886 -0.068756 2.358584 0.000000000000000e+00 1851878480
1.828731 0.000000 2.408426 0.000000000000000e+00 1851878480
1.808462 0.069431 2.381731 0.000000000000000e+00 1851878480
1.951072 0.150457 2.569548 0.000000000000000e+00 1851878480
2.948730 0.340969 3.883457 0.000000000000000e+00 1851878480
1.916644 0.295691 2.524206 0.000000000000000e+00 1851878480
1.949135 0.376920 2.566996 0.000000000000000e+00 1851878480
1.881386 -0.216690 2.462317 0.000000000000000e+00 1851878480
1.864998 -0.143251 2.440869 0.000000000000000e+00 1870292837
1.795565 -0.068663 2.349996 0.000000000000000e+00 1870292837
1.842636 0.000000 2.411602 0.000000000000000e+00 1851878480
1.832012 0.070057 2.397697 0.000000000000000e+00 1851878480
1.964742 0.150913 2.571412 0.000000000000000e+00 1851878480
2.955995 0.340459 3.868743 0.000000000000000e+00 1851878480
1.932918 0.297023 2.529761 0.000000000000000e+00 1851878480
1.955895 0.376733 2.559833 0.000000000000000e+00 1851878480
1.884133 -0.216154 2.450558 0.000000000000000e+00 1851878480
1.858345 -0.142180 2.417016 0.000000000000000e+00 1870292837
1.807957 -0.068866 2.351480 0.000000000000000e+00 1870292837
1.860471 0.000000 2.419782 0.000000000000000e+00 1851878480
1.844444 0.070256 2.398937 0.000000000000000e+00 1851878480
1.978337 0.151360 2.573081 0.000000000000000e+00 1851878480
2.977965 0.341642 3.873227 0.000000000000000e+00 1851878480
1.955924 0.299378 2.543931 0.000000000000000e+00 1851878480
1.973981 0.378724 2.567416 0.000000000000000e+00 1851878480
1.899083 -0.217019 2.454645 0.000000000000000e+00 1851878480
1.866128 -0.142218 2.412049 0.000000000000000e+00 1870292837
1.816564 -0.068924 2.347986 0.000000000000000e+00 1870292837
1.876889 0.000000 2.425958 0.000000000000000e+00 1851878480
1.858165 0.070502 2.401757 0.000000000000000e+00 1851878480
1.986110 0.151362 2.567131 0.000000000000000e+00 1851878480
2.982508 0.340828 3.855019 0.000000000000000e+00 1851878480
1.943536 0.296321 2.512104 0.000000000000000e+00 1851878480
1.979290 0.378260 2.558316 0.000000000000000e+00 1851878480
1.912781 -0.217736 2.457004 0.000000000000000e+00 1851878480
1.879862 -0.142709 2.414719 0.000000000000000e+00 1870292837
1.880239 -0.071063 2.415203 0.000000000000000e+00 1870292837
1.890338 0.000000 2.428175 0.000000000000000e+00 1851878480
1.860812 0.070329 2.390249 0.000000000000000e+00 1851878480
2.010484 0.152625 2.582505 0.000000000000000e+00 1851878480
2.999894 0.341485 3.853422 0.000000000000000e+00 1851878480
1.972576 0.299582 2.533813 0.000000000000000e+00 1851878480
1.995172 0.379816 2.562837 0.000000000000000e+00 1851878480
1.933695 -0.219269 2.468474 0.000000000000000e+00 1851878480
1.873293 -0.141662 2.391367 0.000000000000000e+00 1870292837
1.885188 -0.070975 2.406551 0.000000000000000e+00 1870292837
1.902038 0.000000 2.428061 0.000000000000000e+00 1851878480
1.891351 0.071207 2.414419 0.000000000000000e+00 1851878480
2.016722 0.152508 2.574463 0.000000000000000e+00 1851878480
