# .PCD v0.7 - Point Cloud Data file format
VERSION 0.7
FIELDS x y z rgb label
SIZE 4 4 4 4 4
TYPE F F F F U
COUNT 1 1 1 1 1
WIDTH 792
HEIGHT 1
VIEWPOINT 0 0 0 1 0 0 0
POINTS 792
DATA ascii
1.544662 0.586650 3.219342 0.000000000000000e+00 1851878480
1.907632 0.830849 3.975835 0.000000000000000e+00 1851878480
1.400524 -0.375672 2.896502 0.000000000000000e+00 1701537140
1.501980 -0.321906 3.106330 0.000000000000000e+00 1701537140
1.477814 -0.237393 3.056351 0.000000000000000e+00 1701537140
1.394020 -0.149340 2.883052 0.000000000000000e+00 1701537140
1.396952 -0.074506 2.889115 0.000000000000000e+00 1701537140
1.390519 0.000000 2.875810 0.000000000000000e+00 1701537140
1.382439 0.073732 2.859101 0.000000000000000e+00 1701537140
1.381709 0.148021 2.857591 0.000000000000000e+00 1701537140
1.492110 0.239690 3.085916 0.000000000000000e+00 1851878480
1.375397 0.294776 2.844536 0.000000000000000e+00 1851878480
1.401549 0.376517 2.898622 0.000000000000000e+00 1851878480
1.466361 0.473422 3.032665 0.000000000000000e+00 1851878480
1.553172 0.586200 3.212203 0.000000000000000e+00 1851878480
1.927932 0.834449 3.987265 0.000000000000000e+00 1851878480
1.406028 -0.374812 2.885646 0.000000000000000e+00 1701537140
1.513794 -0.322428 3.106819 0.000000000000000e+00 1701537140
1.483525 -0.236834 3.044697 0.000000000000000e+00 1701537140
1.402612 -0.149330 2.878636 0.000000000000000e+00 1701537140
1.397745 -0.074087 2.868647 0.000000000000000e+00 1701537140
1.401238 0.000000 2.875816 0.000000000000000e+00 1701537140
1.391208 0.073740 2.855230 0.000000000000000e+00 1701537140
1.386653 0.147631 2.845883 0.000000000000000e+00 1701537140
1.506509 0.240504 3.091868 0.000000000000000e+00 1851878480
1.381049 0.294154 2.834380 0.000000000000000e+00 1851878480
1.406850 0.375600 2.887333 0.000000000000000e+00 1851878480
1.472943 0.472601 3.022978 0.000000000000000e+00 1851878480
1.561822 0.585814 3.205389 0.000000000000000e+00 1851878480
1.948517 0.838135 3.999018 0.000000000000000e+00 1851878480
1.411506 -0.373960 2.874839 0.000000000000000e+00 1701537140
1.525565 -0.322938 3.107143 0.000000000000000e+00 1701537140
1.489220 -0.236282 3.033119 0.000000000000000e+00 1701537140
1.404876 -0.148651 2.861333 0.000000000000000e+00 1701537140
1.403943 -0.073958 2.859435 0.000000000000000e+00 1701537140
1.399159 0.000000 2.849690 0.000000000000000e+00 1701537140
1.401967 0.073854 2.855409 0.000000000000000e+00 1701537140
1.391695 0.147257 2.834489 0.000000000000000e+00 1701537140
1.521003 0.241325 3.097852 0.000000000000000e+00 1851878480
1.386791 0.293561 2.824499 0.000000000000000e+00 1851878480
1.412421 0.374769 2.876701 0.000000000000000e+00 1851878480
1.479668 0.471840 3.013664 0.000000000000000e+00 1851878480
1.570553 0.585467 3.198771 0.000000000000000e+00 1851878480
1.969502 0.841953 4.011317 0.000000000000000e+00 1851878480
1.416960 -0.373115 2.864080 0.000000000000000e+00 1701537140
1.537356 -0.323448 3.107434 0.000000000000000e+00 1701537140
1.494899 -0.235736 3.021616 0.000000000000000e+00 1701537140
1.412179 -0.148513 2.854417 0.000000000000000e+00 1701537140
1.414407 -0.074055 2.858918 0.000000000000000e+00 1701537140
1.408284 0.000000 2.846543 0.000000000000000e+00 1701537140
1.414340 0.074051 2.858784 0.000000000000000e+00 1701537140
1.396615 0.146876 2.822957 0.000000000000000e+00 1701537140
1.535591 0.242153 3.103867 0.000000000000000e+00 1851878480
1.392667 0.293007 2.814976 0.000000000000000e+00 1851878480
1.418256 0.374022 2.866699 0.000000000000000e+00 1851878480
1.486515 0.471132 3.004670 0.000000000000000e+00 1851878480
1.579407 0.585176 3.192431 0.000000000000000e+00 1851878480
1.991065 0.845979 4.024510 0.000000000000000e+00 1851878480
1.422390 -0.372277 2.853371 0.000000000000000e+00 1701537140
1.549111 -0.323948 3.107578 0.000000000000000e+00 1701537140
1.414809 -0.221756 2.838162 0.000000000000000e+00 1701537140
1.418550 -0.148280 2.845668 0.000000000000000e+00 1701537140
1.427473 -0.074286 2.863568 0.000000000000000e+00 1701537140
1.421382 0.000000 2.851349 0.000000000000000e+00 1701537140
1.406054 0.073172 2.820600 0.000000000000000e+00 1701537140
1.401659 0.146514 2.811785 0.000000000000000e+00 1701537140
1.550256 0.242985 3.109875 0.000000000000000e+00 1851878480
1.398664 0.292487 2.805775 0.000000000000000e+00 1851878480
1.424173 0.373308 2.856949 0.000000000000000e+00 1851878480
1.493530 0.470489 2.996080 0.000000000000000e+00 1851878480
1.588420 0.584952 3.186434 0.000000000000000e+00 1851878480
2.011773 0.849602 4.035696 0.000000000000000e+00 1851878480
1.427795 -0.371446 2.842710 0.000000000000000e+00 1701537140
1.560642 -0.324398 3.107203 0.000000000000000e+00 1701537140
1.421636 -0.221487 2.830447 0.000000000000000e+00 1701537140
1.431833 -0.148769 2.850749 0.000000000000000e+00 1701537140
1.441396 -0.074560 2.869787 0.000000000000000e+00 1701537140
1.436012 0.000000 2.859069 0.000000000000000e+00 1701537140
1.413689 0.073127 2.814623 0.000000000000000e+00 1701537140
1.406803 0.146168 2.800914 0.000000000000000e+00 1701537140
1.564984 0.243820 3.115849 0.000000000000000e+00 1851878480
1.404735 0.291991 2.796796 0.000000000000000e+00 1851878480
1.430096 0.372608 2.847290 0.000000000000000e+00 1851878480
1.500807 0.469941 2.988074 0.000000000000000e+00 1851878480
1.597504 0.584762 3.180595 0.000000000000000e+00 1851878480
2.033678 0.853692 4.049008 0.000000000000000e+00 1851878480
1.423561 -0.368135 2.813094 0.000000000000000e+00 1701537140
1.571492 -0.324706 3.105421 0.000000000000000e+00 1701537140
1.431789 -0.221738 2.829354 0.000000000000000e+00 1701537140
1.446562 -0.149402 2.858546 0.000000000000000e+00 1701537140
1.455509 -0.074841 2.876227 0.000000000000000e+00 1701537140
1.507924 0.000000 2.979804 0.000000000000000e+00 1701537140
1.424173 0.073230 2.814303 0.000000000000000e+00 1701537140
1.412163 0.145850 2.790570 0.000000000000000e+00 1701537140
1.579809 0.244662 3.121855 0.000000000000000e+00 1851878480
1.410870 0.291517 2.788016 0.000000000000000e+00 1851878480
1.436010 0.371917 2.837695 0.000000000000000e+00 1851878480
1.508269 0.469460 2.980485 0.000000000000000e+00 1851878480
1.606761 0.584642 3.175114 0.000000000000000e+00 1851878480
1.427439 -0.366953 2.799766 0.000000000000000e+00 1701537140
1.429208 -0.293558 2.803236 0.000000000000000e+00 1701537140
1.429041 -0.220002 2.802907 0.000000000000000e+00 1701537140
1.461630 -0.150065 2.866829 0.000000000000000e+00 1701537140
1.476553 -0.075474 2.896097 0.000000000000000e+00 1701537140
1.513568 0.000000 2.968699 0.000000000000000e+00 1701537140
1.437542 0.073480 2.819582 0.000000000000000e+00 1701537140
1.417879 0.145573 2.781015 0.000000000000000e+00 1701537140
1.594732 0.245511 3.127892 0.000000000000000e+00 1851878480
1.417047 0.291060 2.779383 0.000000000000000e+00 1851878480
1.441953 0.371246 2.828234 0.000000000000000e+00 1851878480
1.515922 0.469049 2.973317 0.000000000000000e+00 1851878480
1.616127 0.584569 3.169857 0.000000000000000e+00 1851878480
1.431945 -0.365948 2.787794 0.000000000000000e+00 1701537140
1.433494 -0.292708 2.790810 0.000000000000000e+00 1701537140
1.433179 -0.219343 2.790196 0.000000000000000e+00 1701537140
1.484322 -0.151499 2.889766 0.000000000000000e+00 1701537140
1.490410 -0.075734 2.901617 0.000000000000000e+00 1701537140
1.519203 0.000000 2.957674 0.000000000000000e+00 1701537140
1.452148 0.073790 2.827127 0.000000000000000e+00 1701537140
1.424146 0.145357 2.772612 0.000000000000000e+00 1701537140
1.609753 0.246367 3.133962 0.000000000000000e+00 1851878480
1.423259 0.290619 2.770885 0.000000000000000e+00 1851878480
1.447928 0.370593 2.818911 0.000000000000000e+00 1851878480
1.523822 0.468723 2.966665 0.000000000000000e+00 1851878480
1.625738 0.584590 3.165082 0.000000000000000e+00 1851878480
1.436705 -0.365023 2.776427 0.000000000000000e+00 1701537140
1.440788 -0.292482 2.784317 0.000000000000000e+00 1701537140
1.442381 -0.219464 2.787396 0.000000000000000e+00 1701537140
1.499343 -0.152140 2.897474 0.000000000000000e+00 1701537140
1.504597 -0.076009 2.907627 0.000000000000000e+00 1701537140
1.524831 0.000000 2.946730 0.000000000000000e+00 1701537140
1.591747 0.080412 3.076044 0.000000000000000e+00 1701537140
1.430833 0.145188 2.765078 0.000000000000000e+00 1701537140
2.496666 0.379877 4.824796 0.000000000000000e+00 1851878480
1.429563 0.290203 2.762625 0.000000000000000e+00 1851878480
1.453918 0.369956 2.809691 0.000000000000000e+00 1851878480
1.531918 0.468465 2.960425 0.000000000000000e+00 1851878480
1.635661 0.584728 3.160908 0.000000000000000e+00 1851878480
1.441853 -0.364210 2.765905 0.000000000000000e+00 1701537140
1.449196 -0.292485 2.779991 0.000000000000000e+00 1701537140
1.454443 -0.220018 2.790058 0.000000000000000e+00 1701537140
1.514820 -0.152820 2.905879 0.000000000000000e+00 1701537140
1.519234 -0.076304 2.914347 0.000000000000000e+00 1701537140
1.530450 0.000000 2.935861 0.000000000000000e+00 1701537140
1.598229 0.080272 3.065882 0.000000000000000e+00 1701537140
1.437717 0.145042 2.757972 0.000000000000000e+00 1701537140
2.505473 0.379010 4.806247 0.000000000000000e+00 1851878480
1.435877 0.289797 2.754443 0.000000000000000e+00 1851878480
1.459931 0.369335 2.800585 0.000000000000000e+00 1851878480
1.540194 0.468269 2.954553 0.000000000000000e+00 1851878480
1.646192 0.585085 3.157889 0.000000000000000e+00 1851878480
1.447570 -0.363552 2.756559 0.000000000000000e+00 1701537140
1.458465 -0.292664 2.777307 0.000000000000000e+00 1701537140
1.467827 -0.220766 2.795134 0.000000000000000e+00 1701537140
1.530695 -0.153534 2.914852 0.000000000000000e+00 1701537140
1.448017 -0.072309 2.757410 0.000000000000000e+00 1701537140
1.536059 0.000000 2.925067 0.000000000000000e+00 1701537140
1.604572 0.080127 3.055533 0.000000000000000e+00 1701537140
1.444849 0.144924 2.751378 0.000000000000000e+00 1701537140
1.428885 0.214909 2.720978 0.000000000000000e+00 1851878480
1.442206 0.289402 2.746345 0.000000000000000e+00 1851878480
1.465964 0.368730 2.791586 0.000000000000000e+00 1851878480
1.548654 0.468134 2.949049 0.000000000000000e+00 1851878480
1.716066 0.606414 3.267847 0.000000000000000e+00 1634431585
1.454051 -0.363096 2.748728 0.000000000000000e+00 1701537140
1.469462 -0.293189 2.777863 0.000000000000000e+00 1701537140
1.481301 -0.221521 2.800242 0.000000000000000e+00 1701537140
1.543480 -0.153933 2.917785 0.000000000000000e+00 1701537140
1.448507 -0.071921 2.738249 0.000000000000000e+00 1701537140
1.541659 0.000000 2.914342 0.000000000000000e+00 1701537140
1.457421 0.072364 2.755099 0.000000000000000e+00 1701537140
1.452003 0.144810 2.744858 0.000000000000000e+00 1701537140
1.434824 0.214571 2.712382 0.000000000000000e+00 1851878480
1.448554 0.289017 2.738337 0.000000000000000e+00 1851878480
1.472030 0.368143 2.782716 0.000000000000000e+00 1851878480
1.557312 0.468066 2.943932 0.000000000000000e+00 1851878480
1.727934 0.607124 3.266475 0.000000000000000e+00 1634431585
1.461112 -0.362793 2.742037 0.000000000000000e+00 1701537140
1.481230 -0.293862 2.779792 0.000000000000000e+00 1701537140
1.551146 -0.230652 2.911003 0.000000000000000e+00 1701537140
1.549125 -0.153621 2.907210 0.000000000000000e+00 1701537140
1.452619 -0.071717 2.726098 0.000000000000000e+00 1701537140
1.547245 0.000000 2.903681 0.000000000000000e+00 1701537140
1.462630 0.072211 2.744887 0.000000000000000e+00 1701537140
1.459037 0.144687 2.738143 0.000000000000000e+00 1701537140
1.440973 0.214270 2.704242 0.000000000000000e+00 1851878480
1.454899 0.288639 2.730378 0.000000000000000e+00 1851878480
1.478078 0.367562 2.773877 0.000000000000000e+00 1851878480
1.566109 0.468043 2.939083 0.000000000000000e+00 1851878480
1.739998 0.607900 3.265416 0.000000000000000e+00 1634431585
1.468359 -0.362542 2.735726 0.000000000000000e+00 1701537140
1.493740 -0.294678 2.783012 0.000000000000000e+00 1701537140
1.556719 -0.230179 2.900350 0.000000000000000e+00 1701537140
1.554752 -0.153312 2.896685 0.000000000000000e+00 1701537140
1.459445 -0.071649 2.719117 0.000000000000000e+00 1701537140
1.552819 0.000000 2.893083 0.000000000000000e+00 1701537140
1.455896 0.071474 2.712504 0.000000000000000e+00 1701537140
1.465980 0.144558 2.731292 0.000000000000000e+00 1701537140
1.447125 0.213974 2.696163 0.000000000000000e+00 1851878480
1.461251 0.288269 2.722483 0.000000000000000e+00 1851878480
1.484190 0.367006 2.765219 0.000000000000000e+00 1851878480
1.575065 0.468073 2.934530 0.000000000000000e+00 1851878480
1.752102 0.608686 3.264371 0.000000000000000e+00 1634431585
1.475758 -0.362334 2.729720 0.000000000000000e+00 1701537140
1.479496 -0.290238 2.736635 0.000000000000000e+00 1701537140
1.562279 -0.229712 2.889760 0.000000000000000e+00 1701537140
1.560361 -0.153006 2.886211 0.000000000000000e+00 1701537140
1.466493 -0.071593 2.712584 0.000000000000000e+00 1701537140
1.558378 0.000000 2.882543 0.000000000000000e+00 1701537140
1.460205 0.071286 2.700953 0.000000000000000e+00 1701537140
1.477143 0.144846 2.732283 0.000000000000000e+00 1701537140
1.453282 0.213685 2.688146 0.000000000000000e+00 1851878480
1.467608 0.287906 2.714646 0.000000000000000e+00 1851878480
1.490294 0.366458 2.756609 0.000000000000000e+00 1851878480
1.584143 0.468142 2.930201 0.000000000000000e+00 1851878480
1.764245 0.609483 3.263338 0.000000000000000e+00 1634431585
1.483108 -0.362121 2.723649 0.000000000000000e+00 1701537140
1.472967 -0.287356 2.705026 0.000000000000000e+00 1701537140
1.567825 -0.229249 2.879227 0.000000000000000e+00 1701537140
1.565949 -0.152703 2.875782 0.000000000000000e+00 1701537140
1.473616 -0.071542 2.706218 0.000000000000000e+00 1701537140
1.563921 0.000000 2.872058 0.000000000000000e+00 1701537140
1.466017 0.071173 2.692262 0.000000000000000e+00 1701537140
1.489773 0.145275 2.735888 0.000000000000000e+00 1701537140
1.459438 0.213401 2.680181 0.000000000000000e+00 1851878480
1.473972 0.287552 2.706871 0.000000000000000e+00 1851878480
1.496459 0.365934 2.748168 0.000000000000000e+00 1851878480
1.593335 0.468249 2.926075 0.000000000000000e+00 1851878480
1.776998 0.610485 3.263363 0.000000000000000e+00 1634431585
1.490344 -0.361885 2.717393 0.000000000000000e+00 1701537140
1.476742 -0.286507 2.692591 0.000000000000000e+00 1701537140
1.573355 -0.228792 2.868749 0.000000000000000e+00 1701537140
1.571518 -0.152403 2.865400 0.000000000000000e+00 1701537140
1.481084 -0.071508 2.700509 0.000000000000000e+00 1701537140
1.569450 0.000000 2.861628 0.000000000000000e+00 1701537140
1.473042 0.071120 2.685845 0.000000000000000e+00 1701537140
1.502543 0.145714 2.739635 0.000000000000000e+00 1701537140
1.465607 0.213123 2.672289 0.000000000000000e+00 1851878480
1.480374 0.287211 2.699214 0.000000000000000e+00 1851878480
1.502627 0.365420 2.739788 0.000000000000000e+00 1851878480
1.602536 0.468361 2.921956 0.000000000000000e+00 1851878480
1.791029 0.611919 3.265640 0.000000000000000e+00 1634431585
1.503173 -0.363005 2.721286 0.000000000000000e+00 1701537140
1.482144 -0.285983 2.683215 0.000000000000000e+00 1701537140
1.578869 -0.228339 2.858324 0.000000000000000e+00 1701537140
1.577066 -0.152105 2.855058 0.000000000000000e+00 1701537140
1.488624 -0.071480 2.694947 0.000000000000000e+00 1701537140
1.480061 0.000000 2.679445 0.000000000000000e+00 1701537140
1.480652 0.071097 2.680515 0.000000000000000e+00 1701537140
1.515545 0.146171 2.743684 0.000000000000000e+00 1701537140
1.471911 0.212871 2.664690 0.000000000000000e+00 1851878480
1.486777 0.286877 2.691603 0.000000000000000e+00 1851878480
1.508828 0.364923 2.731524 0.000000000000000e+00 1851878480
1.611801 0.468494 2.917942 0.000000000000000e+00 1851878480
1.805137 0.613369 3.267949 0.000000000000000e+00 1634431585
1.517599 -0.364501 2.727931 0.000000000000000e+00 1701537140
1.489136 -0.285773 2.676768 0.000000000000000e+00 1701537140
1.498646 -0.215561 2.693862 0.000000000000000e+00 1701537140
1.582594 -0.151810 2.844761 0.000000000000000e+00 1701537140
1.496120 -0.071450 2.689322 0.000000000000000e+00 1701537140
1.481842 0.000000 2.663657 0.000000000000000e+00 1701537140
1.488457 0.071084 2.675548 0.000000000000000e+00 1701537140
1.528914 0.146661 2.748270 0.000000000000000e+00 1701537140
1.478339 0.212640 2.657360 0.000000000000000e+00 1851878480
1.493156 0.286545 2.683993 0.000000000000000e+00 1851878480
1.515040 0.364437 2.723330 0.000000000000000e+00 1851878480
1.621156 0.468657 2.914078 0.000000000000000e+00 1851878480
1.819324 0.614836 3.270291 0.000000000000000e+00 1634431585
1.532351 -0.366061 2.734998 0.000000000000000e+00 1701537140
1.496889 -0.285714 2.671705 0.000000000000000e+00 1701537140
1.491123 -0.213323 2.661414 0.000000000000000e+00 1701537140
1.588101 -0.151517 2.834504 0.000000000000000e+00 1701537140
1.501024 -0.071298 2.679085 0.000000000000000e+00 1701537140
1.487217 0.000000 2.654443 0.000000000000000e+00 1701537140
1.496095 0.071064 2.670289 0.000000000000000e+00 1701537140
1.542868 0.147202 2.753771 0.000000000000000e+00 1701537140
1.484818 0.212421 2.650160 0.000000000000000e+00 1851878480
1.499527 0.286217 2.676414 0.000000000000000e+00 1851878480
1.521269 0.363964 2.715219 0.000000000000000e+00 1851878480
1.630651 0.468862 2.910450 0.000000000000000e+00 1851878480
1.833215 0.616193 3.271993 0.000000000000000e+00 1634431585
1.547649 -0.367738 2.742871 0.000000000000000e+00 1701537140
1.504797 -0.285686 2.666925 0.000000000000000e+00 1701537140
1.495646 -0.212826 2.650707 0.000000000000000e+00 1701537140
1.495622 -0.141931 2.650664 0.000000000000000e+00 1701537140
1.493257 -0.070549 2.646474 0.000000000000000e+00 1701537140
1.494366 0.000000 2.648439 0.000000000000000e+00 1701537140
1.503917 0.071053 2.665366 0.000000000000000e+00 1701537140
1.484554 0.140881 2.631048 0.000000000000000e+00 1851878480
1.491359 0.212216 2.643109 0.000000000000000e+00 1851878480
1.505946 0.285905 2.668963 0.000000000000000e+00 1851878480
1.527519 0.363504 2.707195 0.000000000000000e+00 1851878480
1.640320 0.469119 2.907110 0.000000000000000e+00 1851878480
1.847569 0.617695 3.274414 0.000000000000000e+00 1634431585
1.564043 -0.369659 2.752497 0.000000000000000e+00 1701537140
1.512531 -0.285629 2.661843 0.000000000000000e+00 1701537140
1.502336 -0.212642 2.643901 0.000000000000000e+00 1701537140
1.499224 -0.141517 2.638424 0.000000000000000e+00 1701537140
1.498413 -0.070417 2.636997 0.000000000000000e+00 1701537140
1.502258 0.000000 2.643763 0.000000000000000e+00 1701537140
1.516879 0.071285 2.669494 0.000000000000000e+00 1701537140
1.490974 0.140738 2.623905 0.000000000000000e+00 1851878480
1.497925 0.212018 2.636139 0.000000000000000e+00 1851878480
1.512385 0.285602 2.661586 0.000000000000000e+00 1851878480
1.533793 0.363059 2.699260 0.000000000000000e+00 1851878480
1.650143 0.469421 2.904020 0.000000000000000e+00 1851878480
1.864664 0.620099 3.281548 0.000000000000000e+00 1634431585
1.582090 -0.371952 2.764811 0.000000000000000e+00 1701537140
1.520822 -0.285680 2.657740 0.000000000000000e+00 1701537140
1.510244 -0.212634 2.639256 0.000000000000000e+00 1701537140
1.505600 -0.141369 2.631140 0.000000000000000e+00 1701537140
1.505697 -0.070386 2.631309 0.000000000000000e+00 1701537140
1.510330 0.000000 2.639406 0.000000000000000e+00 1701537140
1.529977 0.071521 2.673739 0.000000000000000e+00 1701537140
1.497401 0.140599 2.616811 0.000000000000000e+00 1851878480
1.504550 0.211832 2.629305 0.000000000000000e+00 1851878480
1.518805 0.285301 2.654217 0.000000000000000e+00 1851878480
1.540116 0.362632 2.691459 0.000000000000000e+00 1851878480
1.660098 0.469762 2.901134 0.000000000000000e+00 1851878480
1.882406 0.622697 3.289633 0.000000000000000e+00 1634431585
1.601327 -0.374502 2.778953 0.000000000000000e+00 1701537140
1.534785 -0.286793 2.663476 0.000000000000000e+00 1701537140
1.518377 -0.212659 2.635001 0.000000000000000e+00 1701537140
1.513436 -0.141360 2.626426 0.000000000000000e+00 1701537140
1.513777 -0.070393 2.627019 0.000000000000000e+00 1701537140
1.518193 0.000000 2.634682 0.000000000000000e+00 1701537140
1.543256 0.071764 2.678176 0.000000000000000e+00 1701537140
1.503806 0.140461 2.609714 0.000000000000000e+00 1851878480
1.511243 0.211660 2.622621 0.000000000000000e+00 1851878480
1.525269 0.285014 2.646961 0.000000000000000e+00 1851878480
1.546483 0.362224 2.683777 0.000000000000000e+00 1851878480
1.670334 0.470183 2.898709 0.000000000000000e+00 1851878480
1.900314 0.625328 3.297817 0.000000000000000e+00 1634431585
1.622956 -0.377586 2.796954 0.000000000000000e+00 1701537140
1.548968 -0.287937 2.669446 0.000000000000000e+00 1701537140
1.526331 -0.212661 2.630434 0.000000000000000e+00 1701537140
1.521642 -0.141388 2.622353 0.000000000000000e+00 1701537140
1.521918 -0.070403 2.622828 0.000000000000000e+00 1701537140
1.528418 0.000000 2.634031 0.000000000000000e+00 1701537140
1.556796 0.072017 2.682937 0.000000000000000e+00 1701537140
1.510285 0.140332 2.602781 0.000000000000000e+00 1851878480
1.517982 0.211498 2.616045 0.000000000000000e+00 1851878480
1.531752 0.284737 2.639777 0.000000000000000e+00 1851878480
1.552907 0.361836 2.676233 0.000000000000000e+00 1851878480
1.680813 0.470671 2.896663 0.000000000000000e+00 1851878480
1.920214 0.628589 3.309241 0.000000000000000e+00 1634431585
1.654838 -0.383015 2.832188 0.000000000000000e+00 1701537140
1.563432 -0.289124 2.675749 0.000000000000000e+00 1701537140
1.535499 -0.212833 2.627944 0.000000000000000e+00 1701537140
1.529701 -0.141402 2.618022 0.000000000000000e+00 1701537140
1.529840 -0.070404 2.618258 0.000000000000000e+00 1701537140
1.541728 0.000000 2.638604 0.000000000000000e+00 1701537140
1.570757 0.072287 2.688286 0.000000000000000e+00 1701537140
1.517105 0.140238 2.596463 0.000000000000000e+00 1851878480
1.524793 0.211349 2.609621 0.000000000000000e+00 1851878480
1.538273 0.284472 2.632691 0.000000000000000e+00 1851878480
1.559395 0.361471 2.668840 0.000000000000000e+00 1851878480
1.691560 0.471233 2.895035 0.000000000000000e+00 1851878480
1.941523 0.632281 3.322837 0.000000000000000e+00 1634431585
1.578326 -0.290381 2.682633 0.000000000000000e+00 1701537140
1.549286 -0.213642 2.633274 0.000000000000000e+00 1701537140
1.538466 -0.141483 2.614885 0.000000000000000e+00 1701537140
1.541180 -0.070562 2.619497 0.000000000000000e+00 1701537140
1.555181 0.000000 2.643294 0.000000000000000e+00 1701537140
1.519048 0.069549 2.581880 0.000000000000000e+00 1851878480
1.524099 0.140161 2.590466 0.000000000000000e+00 1851878480
1.531649 0.211210 2.603297 0.000000000000000e+00 1851878480
1.544785 0.284211 2.625625 0.000000000000000e+00 1851878480
1.565911 0.361119 2.661531 0.000000000000000e+00 1851878480
1.702381 0.471815 2.893486 0.000000000000000e+00 1851878480
1.963593 0.636188 3.337461 0.000000000000000e+00 1634431585
1.594047 -0.291779 2.690753 0.000000000000000e+00 1701537140
1.563243 -0.214469 2.638756 0.000000000000000e+00 1701537140
1.552025 -0.142002 2.619821 0.000000000000000e+00 1701537140
1.554668 -0.070817 2.624282 0.000000000000000e+00 1701537140
1.568863 0.000000 2.648243 0.000000000000000e+00 1701537140
1.525590 0.069493 2.575198 0.000000000000000e+00 1851878480
1.531145 0.140092 2.584575 0.000000000000000e+00 1851878480
1.538560 0.211082 2.597091 0.000000000000000e+00 1851878480
1.551369 0.283968 2.618713 0.000000000000000e+00 1851878480
1.572421 0.360773 2.654249 0.000000000000000e+00 1851878480
1.713412 0.472452 2.892241 0.000000000000000e+00 1851878480
1.989080 0.641162 3.357570 0.000000000000000e+00 1634431585
1.610741 -0.293343 2.700328 0.000000000000000e+00 1701537140
1.577451 -0.215323 2.644519 0.000000000000000e+00 1701537140
1.565744 -0.142533 2.624892 0.000000000000000e+00 1701537140
1.568321 -0.071077 2.629212 0.000000000000000e+00 1701537140
1.582862 0.000000 2.653590 0.000000000000000e+00 1701537140
1.532122 0.069437 2.568527 0.000000000000000e+00 1851878480
1.538214 0.140026 2.578740 0.000000000000000e+00 1851878480
1.545503 0.210962 2.590960 0.000000000000000e+00 1851878480
1.557980 0.283734 2.611877 0.000000000000000e+00 1851878480
1.579000 0.360449 2.647115 0.000000000000000e+00 1851878480
1.724539 0.473114 2.891104 0.000000000000000e+00 1851878480
2.015233 0.646304 3.378439 0.000000000000000e+00 1634431585
1.628167 -0.295026 2.710925 0.000000000000000e+00 1701537140
1.592024 -0.216220 2.650746 0.000000000000000e+00 1701537140
1.579677 -0.143078 2.630188 0.000000000000000e+00 1701537140
1.582207 -0.071346 2.634401 0.000000000000000e+00 1701537140
1.538077 0.000000 2.560923 0.000000000000000e+00 1851878480
1.538729 0.069386 2.562009 0.000000000000000e+00 1851878480
1.545324 0.139967 2.572989 0.000000000000000e+00 1851878480
1.552505 0.210852 2.584946 0.000000000000000e+00 1851878480
1.564591 0.283506 2.605070 0.000000000000000e+00 1851878480
1.585639 0.360145 2.640115 0.000000000000000e+00 1851878480
1.735859 0.473826 2.890234 0.000000000000000e+00 1851878480
2.057178 0.656441 3.425235 0.000000000000000e+00 1634431585
1.646219 -0.296808 2.722347 0.000000000000000e+00 1701537140
1.607242 -0.217197 2.657890 0.000000000000000e+00 1701537140
1.593919 -0.143647 2.635857 0.000000000000000e+00 1701537140
1.596463 -0.071630 2.640065 0.000000000000000e+00 1701537140
1.544644 0.000000 2.554371 0.000000000000000e+00 1851878480
1.545795 0.069357 2.556276 0.000000000000000e+00 1851878480
1.552448 0.139910 2.567277 0.000000000000000e+00 1851878480
1.559526 0.210749 2.578982 0.000000000000000e+00 1851878480
1.571321 0.283304 2.598487 0.000000000000000e+00 1851878480
1.592443 0.359885 2.633416 0.000000000000000e+00 1851878480
1.747281 0.474563 2.889471 0.000000000000000e+00 1851878480
2.099978 0.666753 3.472725 0.000000000000000e+00 1634431585
1.665858 -0.298860 2.736152 0.000000000000000e+00 1701537140
1.623227 -0.218269 2.666132 0.000000000000000e+00 1701537140
1.608703 -0.144261 2.642276 0.000000000000000e+00 1701537140
1.611302 -0.071937 2.646545 0.000000000000000e+00 1701537140
1.551200 0.000000 2.547828 0.000000000000000e+00 1851878480
1.553086 0.069338 2.550926 0.000000000000000e+00 1851878480
1.559613 0.139859 2.561645 0.000000000000000e+00 1851878480
1.566616 0.210657 2.573149 0.000000000000000e+00 1851878480
1.578054 0.283108 2.591934 0.000000000000000e+00 1851878480
1.599658 0.359723 2.627419 0.000000000000000e+00 1851878480
1.758773 0.475316 2.888763 0.000000000000000e+00 1851878480
2.174863 0.687105 3.572187 0.000000000000000e+00 1634431585
1.687882 -0.301320 2.753595 0.000000000000000e+00 1701537140
1.639796 -0.219412 2.675149 0.000000000000000e+00 1701537140
1.624219 -0.144935 2.649737 0.000000000000000e+00 1701537140
1.561180 -0.069356 2.546895 0.000000000000000e+00 1851878480
1.557747 0.000000 2.541295 0.000000000000000e+00 1851878480
1.560445 0.069324 2.545696 0.000000000000000e+00 1851878480
1.566792 0.139811 2.556051 0.000000000000000e+00 1851878480
1.573743 0.210573 2.567391 0.000000000000000e+00 1851878480
1.584840 0.282925 2.585494 0.000000000000000e+00 1851878480
1.608317 0.359889 2.623794 0.000000000000000e+00 1851878480
1.770421 0.476107 2.888248 0.000000000000000e+00 1851878480
1.711514 -0.304044 2.773342 0.000000000000000e+00 1701537140
1.656737 -0.220594 2.684581 0.000000000000000e+00 1701537140
1.573319 -0.139706 2.549410 0.000000000000000e+00 1851878480
1.567712 -0.069306 2.540324 0.000000000000000e+00 1851878480
1.564769 0.000000 2.535555 0.000000000000000e+00 1851878480
1.567834 0.069311 2.540522 0.000000000000000e+00 1851878480
1.574022 0.139769 2.550549 0.000000000000000e+00 1851878480
1.580930 0.210500 2.561743 0.000000000000000e+00 1851878480
1.591730 0.282765 2.579244 0.000000000000000e+00 1851878480
1.617086 0.360081 2.620331 0.000000000000000e+00 1851878480
1.782240 0.476941 2.887947 0.000000000000000e+00 1851878480
1.674688 -0.221901 2.695445 0.000000000000000e+00 1701537140
1.579841 -0.139604 2.542787 0.000000000000000e+00 1851878480
1.574234 -0.069256 2.533763 0.000000000000000e+00 1851878480
1.572233 0.000000 2.530541 0.000000000000000e+00 1851878480
1.575248 0.069301 2.535395 0.000000000000000e+00 1851878480
1.581275 0.139731 2.545095 0.000000000000000e+00 1851878480
1.588165 0.210436 2.556185 0.000000000000000e+00 1851878480
1.598618 0.282609 2.573009 0.000000000000000e+00 1851878480
1.625857 0.360275 2.616850 0.000000000000000e+00 1851878480
1.794162 0.477799 2.887741 0.000000000000000e+00 1851878480
1.600254 -0.211015 2.558397 0.000000000000000e+00 1851878480
1.586354 -0.139503 2.536174 0.000000000000000e+00 1851878480
1.580947 -0.069216 2.527530 0.000000000000000e+00 1851878480
1.579819 0.000000 2.525727 0.000000000000000e+00 1851878480
1.582707 0.069293 2.530344 0.000000000000000e+00 1851878480
1.588579 0.139699 2.539731 0.000000000000000e+00 1851878480
1.595431 0.210379 2.550686 0.000000000000000e+00 1851878480
1.605583 0.282470 2.566916 0.000000000000000e+00 1851878480
1.634614 0.360468 2.613330 0.000000000000000e+00 1851878480
1.806244 0.478695 2.887723 0.000000000000000e+00 1851878480
1.606701 -0.210849 2.551555 0.000000000000000e+00 1851878480
1.592868 -0.139404 2.529588 0.000000000000000e+00 1851878480
1.588405 -0.069209 2.522500 0.000000000000000e+00 1851878480
1.587452 0.000000 2.520986 0.000000000000000e+00 1851878480
1.590183 0.069286 2.525324 0.000000000000000e+00 1851878480
1.595941 0.139673 2.534468 0.000000000000000e+00 1851878480
1.602758 0.210332 2.545294 0.000000000000000e+00 1851878480
1.612618 0.282348 2.560952 0.000000000000000e+00 1851878480
1.643421 0.360672 2.609869 0.000000000000000e+00 1851878480
1.818477 0.479626 2.887870 0.000000000000000e+00 1851878480
1.613138 -0.210686 2.544725 0.000000000000000e+00 1851878480
1.600086 -0.139369 2.524136 0.000000000000000e+00 1851878480
1.596053 -0.069211 2.517773 0.000000000000000e+00 1851878480
1.595143 0.000000 2.516337 0.000000000000000e+00 1851878480
1.597712 0.069283 2.520390 0.000000000000000e+00 1851878480
1.603361 0.139654 2.529302 0.000000000000000e+00 1851878480
1.610117 0.210291 2.539959 0.000000000000000e+00 1851878480
1.619650 0.282228 2.554998 0.000000000000000e+00 1851878480
1.652272 0.360888 2.606459 0.000000000000000e+00 1851878480
1.830713 0.480554 2.887949 0.000000000000000e+00 1851878480
1.656986 -0.287368 2.596544 0.000000000000000e+00 1851878480
1.619897 -0.210568 2.538424 0.000000000000000e+00 1851878480
1.607769 -0.139376 2.519420 0.000000000000000e+00 1851878480
1.603783 -0.069217 2.513173 0.000000000000000e+00 1851878480
1.602845 0.000000 2.511703 0.000000000000000e+00 1851878480
1.605266 0.069281 2.515497 0.000000000000000e+00 1851878480
1.610848 0.139643 2.524245 0.000000000000000e+00 1851878480
1.617500 0.210256 2.534668 0.000000000000000e+00 1851878480
1.626767 0.282128 2.549190 0.000000000000000e+00 1851878480
1.661307 0.361145 2.603316 0.000000000000000e+00 1851878480
1.843139 0.481527 2.888250 0.000000000000000e+00 1851878480
1.663052 -0.287065 2.588799 0.000000000000000e+00 1851878480
1.627414 -0.210550 2.533322 0.000000000000000e+00 1851878480
1.615584 -0.139395 2.514908 0.000000000000000e+00 1851878480
1.611559 -0.069226 2.508641 0.000000000000000e+00 1851878480
1.610610 0.000000 2.507164 0.000000000000000e+00 1851878480
1.612884 0.069283 2.510705 0.000000000000000e+00 1851878480
1.618382 0.139636 2.519263 0.000000000000000e+00 1851878480
1.624913 0.210227 2.529429 0.000000000000000e+00 1851878480
1.633970 0.282045 2.543528 0.000000000000000e+00 1851878480
1.670519 0.361441 2.600423 0.000000000000000e+00 1851878480
1.855717 0.482535 2.888712 0.000000000000000e+00 1851878480
1.669185 -0.286779 2.581194 0.000000000000000e+00 1851878480
1.635151 -0.210564 2.528564 0.000000000000000e+00 1851878480
1.623444 -0.139419 2.510460 0.000000000000000e+00 1851878480
1.619365 -0.069236 2.504153 0.000000000000000e+00 1851878480
1.618381 0.000000 2.502632 0.000000000000000e+00 1851878480
1.620541 0.069287 2.505972 0.000000000000000e+00 1851878480
1.625993 0.139638 2.514403 0.000000000000000e+00 1851878480
1.632322 0.210200 2.524189 0.000000000000000e+00 1851878480
1.641268 0.281982 2.538024 0.000000000000000e+00 1851878480
1.679863 0.361766 2.597706 0.000000000000000e+00 1851878480
1.868614 0.483620 2.889586 0.000000000000000e+00 1851878480
1.675815 -0.286582 2.574386 0.000000000000000e+00 1851878480
1.642942 -0.210586 2.523887 0.000000000000000e+00 1851878480
1.631373 -0.139451 2.506115 0.000000000000000e+00 1851878480
1.627222 -0.069250 2.499737 0.000000000000000e+00 1851878480
1.626211 0.000000 2.498184 0.000000000000000e+00 1851878480
1.628298 0.069295 2.501391 0.000000000000000e+00 1851878480
1.633639 0.139644 2.509595 0.000000000000000e+00 1851878480
1.639749 0.210177 2.518981 0.000000000000000e+00 1851878480
1.648681 0.281942 2.532702 0.000000000000000e+00 1851878480
1.689312 0.362114 2.595120 0.000000000000000e+00 1851878480
1.881979 0.484820 2.891094 0.000000000000000e+00 1851878480
1.683984 -0.286653 2.569950 0.000000000000000e+00 1851878480
1.650807 -0.210619 2.519318 0.000000000000000e+00 1851878480
1.639344 -0.139486 2.501824 0.000000000000000e+00 1851878480
1.635107 -0.069265 2.495358 0.000000000000000e+00 1851878480
1.634082 0.000000 2.493793 0.000000000000000e+00 1851878480
1.636100 0.069307 2.496874 0.000000000000000e+00 1851878480
1.641329 0.139655 2.504853 0.000000000000000e+00 1851878480
1.647257 0.210166 2.513900 0.000000000000000e+00 1851878480
1.656396 0.281957 2.527847 0.000000000000000e+00 1851878480
1.698868 0.362484 2.592664 0.000000000000000e+00 1851878480
1.896084 0.486204 2.893637 0.000000000000000e+00 1851878480
1.692675 -0.286813 2.566295 0.000000000000000e+00 1851878480
1.658684 -0.210656 2.514762 0.000000000000000e+00 1851878480
1.647363 -0.139527 2.497597 0.000000000000000e+00 1851878480
1.643040 -0.069282 2.491043 0.000000000000000e+00 1851878480
1.642002 0.000000 2.489470 0.000000000000000e+00 1851878480
1.643990 0.069322 2.492484 0.000000000000000e+00 1851878480
1.649058 0.139671 2.500167 0.000000000000000e+00 1851878480
1.654783 0.210160 2.508847 0.000000000000000e+00 1851878480
1.664558 0.282049 2.523668 0.000000000000000e+00 1851878480
1.708539 0.362879 2.590347 0.000000000000000e+00 1851878480
1.911277 0.487856 2.897722 0.000000000000000e+00 1851878480
1.701677 -0.287028 2.563093 0.000000000000000e+00 1851878480
1.666628 -0.210702 2.510301 0.000000000000000e+00 1851878480
1.655422 -0.139572 2.493422 0.000000000000000e+00 1851878480
1.651026 -0.069302 2.486800 0.000000000000000e+00 1851878480
1.650021 0.000000 2.485286 0.000000000000000e+00 1851878480
1.651945 0.069341 2.488186 0.000000000000000e+00 1851878480
1.656776 0.139686 2.495462 0.000000000000000e+00 1851878480
1.662416 0.210170 2.503957 0.000000000000000e+00 1851878480
1.673194 0.282223 2.520191 0.000000000000000e+00 1851878480
1.718227 0.363277 2.588020 0.000000000000000e+00 1851878480
1.927469 0.489752 2.903183 0.000000000000000e+00 1851878480
1.710981 -0.287293 2.560315 0.000000000000000e+00 1851878480
1.674603 -0.210754 2.505880 0.000000000000000e+00 1851878480
1.663553 -0.139624 2.489344 0.000000000000000e+00 1851878480
1.659076 -0.069326 2.482645 0.000000000000000e+00 1851878480
1.658099 0.000000 2.481183 0.000000000000000e+00 1851878480
1.659947 0.069362 2.483948 0.000000000000000e+00 1851878480
1.664542 0.139707 2.490824 0.000000000000000e+00 1851878480
1.670113 0.210189 2.499161 0.000000000000000e+00 1851878480
1.680675 0.282204 2.514965 0.000000000000000e+00 1851878480
1.727994 0.363692 2.585774 0.000000000000000e+00 1851878480
1.943978 0.491716 2.908972 0.000000000000000e+00 1851878480
1.720617 -0.287614 2.558001 0.000000000000000e+00 1851878480
1.682690 -0.210821 2.501616 0.000000000000000e+00 1851878480
1.671729 -0.139680 2.485320 0.000000000000000e+00 1851878480
1.667220 -0.069353 2.478616 0.000000000000000e+00 1851878480
1.666260 0.000000 2.477189 0.000000000000000e+00 1851878480
1.668009 0.069386 2.479790 0.000000000000000e+00 1851878480
1.672299 0.139728 2.486167 0.000000000000000e+00 1851878480
1.677896 0.210221 2.494489 0.000000000000000e+00 1851878480
1.691038 0.282670 2.514027 0.000000000000000e+00 1851878480
1.737822 0.364119 2.583579 0.000000000000000e+00 1851878480
1.960905 0.493771 2.915231 0.000000000000000e+00 1851878480
1.730415 -0.287962 2.555888 0.000000000000000e+00 1851878480
1.690876 -0.210902 2.497488 0.000000000000000e+00 1851878480
1.680024 -0.139748 2.481458 0.000000000000000e+00 1851878480
1.675440 -0.069384 2.474689 0.000000000000000e+00 1851878480
1.674495 0.000000 2.473293 0.000000000000000e+00 1851878480
1.676099 0.069412 2.475662 0.000000000000000e+00 1851878480
1.680116 0.139755 2.481594 0.000000000000000e+00 1851878480
1.685915 0.210283 2.490160 0.000000000000000e+00 1851878480
1.701702 0.283184 2.513478 0.000000000000000e+00 1851878480
1.747748 0.364566 2.581490 0.000000000000000e+00 1851878480
1.978354 0.495943 2.922104 0.000000000000000e+00 1851878480
1.740388 -0.288339 2.553993 0.000000000000000e+00 1851878480
1.699180 -0.210999 2.493521 0.000000000000000e+00 1851878480
1.688395 -0.139822 2.477695 0.000000000000000e+00 1851878480
1.683736 -0.069419 2.470858 0.000000000000000e+00 1851878480
1.682771 0.000000 2.469442 0.000000000000000e+00 1851878480
1.684189 0.069438 2.471521 0.000000000000000e+00 1851878480
1.687947 0.139785 2.477037 0.000000000000000e+00 1851878480
1.694644 0.210436 2.486865 0.000000000000000e+00 1851878480
1.712507 0.283720 2.513078 0.000000000000000e+00 1851878480
1.757759 0.365029 2.579485 0.000000000000000e+00 1851878480
1.996081 0.498170 2.929219 0.000000000000000e+00 1851878480
1.750817 -0.288790 2.552720 0.000000000000000e+00 1851878480
1.707550 -0.211105 2.489636 0.000000000000000e+00 1851878480
1.696856 -0.139904 2.474043 0.000000000000000e+00 1851878480
1.692121 -0.069458 2.467139 0.000000000000000e+00 1851878480
1.691096 0.000000 2.465644 0.000000000000000e+00 1851878480
1.692315 0.069466 2.467422 0.000000000000000e+00 1851878480
1.695832 0.139819 2.472549 0.000000000000000e+00 1851878480
1.720746 0.212736 2.508875 0.000000000000000e+00 1851878480
1.723365 0.284262 2.512694 0.000000000000000e+00 1851878480
1.767872 0.365514 2.577585 0.000000000000000e+00 1851878480
2.013913 0.500408 2.936317 0.000000000000000e+00 1851878480
1.762557 -0.289455 2.553294 0.000000000000000e+00 1851878480
1.715957 -0.211216 2.485786 0.000000000000000e+00 1851878480
1.705412 -0.139994 2.470511 0.000000000000000e+00 1851878480
1.700539 -0.069498 2.463452 0.000000000000000e+00 1851878480
1.699457 0.000000 2.461884 0.000000000000000e+00 1851878480
1.700443 0.069494 2.463313 0.000000000000000e+00 1851878480
1.703801 0.139862 2.468178 0.000000000000000e+00 1851878480
1.731764 0.213162 2.508686 0.000000000000000e+00 1851878480
1.734251 0.284806 2.512288 0.000000000000000e+00 1851878480
1.778088 0.366018 2.575791 0.000000000000000e+00 1851878480
2.032065 0.502711 2.943711 0.000000000000000e+00 1851878480
1.775029 -0.290236 2.554846 0.000000000000000e+00 1851878480
1.724337 -0.211326 2.481883 0.000000000000000e+00 1851878480
1.714005 -0.140088 2.467011 0.000000000000000e+00 1851878480
1.709022 -0.069541 2.459839 0.000000000000000e+00 1851878480
1.707818 0.000000 2.458106 0.000000000000000e+00 1851878480
1.708631 0.069525 2.459277 0.000000000000000e+00 1851878480
1.711914 0.139917 2.464001 0.000000000000000e+00 1851878480
1.743051 0.213619 2.508818 0.000000000000000e+00 1851878480
1.745148 0.285351 2.511837 0.000000000000000e+00 1851878480
1.788418 0.366545 2.574116 0.000000000000000e+00 1851878480
2.051918 0.505416 2.953378 0.000000000000000e+00 1851878480
1.787840 -0.291069 2.556794 0.000000000000000e+00 1851878480
1.732788 -0.211445 2.478063 0.000000000000000e+00 1851878480
1.722661 -0.140188 2.463581 0.000000000000000e+00 1851878480
1.717514 -0.069585 2.456220 0.000000000000000e+00 1851878480
1.716204 0.000000 2.454347 0.000000000000000e+00 1851878480
1.716844 0.069558 2.455261 0.000000000000000e+00 1851878480
1.720719 0.140030 2.460804 0.000000000000000e+00 1851878480
2.873838 0.350682 4.109881 0.000000000000000e+00 1851878480
1.756009 0.285887 2.511272 0.000000000000000e+00 1851878480
1.798874 0.367096 2.572574 0.000000000000000e+00 1851878480
2.169782 0.532140 3.103010 0.000000000000000e+00 1634431585
1.801294 -0.292001 2.559561 0.000000000000000e+00 1851878480
1.741292 -0.211571 2.474302 0.000000000000000e+00 1851878480
1.731325 -0.140288 2.460138 0.000000000000000e+00 1851878480
1.726015 -0.069629 2.452594 0.000000000000000e+00 1851878480
1.724642 0.000000 2.450642 0.000000000000000e+00 1851878480
1.725121 0.069593 2.451323 0.000000000000000e+00 1851878480
1.747595 0.141607 2.483258 0.000000000000000e+00 1851878480
2.882422 0.350220 4.095798 0.000000000000000e+00 1851878480
1.766891 0.286424 2.510676 0.000000000000000e+00 1851878480
1.809388 0.367657 2.571062 0.000000000000000e+00 1851878480
2.205778 0.538647 3.134316 0.000000000000000e+00 1634431585
1.815542 -0.293056 2.563347 0.000000000000000e+00 1851878480
1.749963 -0.211718 2.470756 0.000000000000000e+00 1851878480
1.740013 -0.140391 2.456708 0.000000000000000e+00 1851878480
1.734553 -0.069675 2.448999 0.000000000000000e+00 1851878480
1.733105 0.000000 2.446954 0.000000000000000e+00 1851878480
1.733510 0.069634 2.447527 0.000000000000000e+00 1851878480
1.766949 0.142565 2.494738 0.000000000000000e+00 1851878480
2.890967 0.349761 4.081729 0.000000000000000e+00 1851878480
1.777782 0.286961 2.510034 0.000000000000000e+00 1851878480
1.819972 0.368231 2.569601 0.000000000000000e+00 1851878480
2.241188 0.544961 3.164311 0.000000000000000e+00 1634431585
1.830701 -0.294252 2.568291 0.000000000000000e+00 1851878480
1.759007 -0.211911 2.467712 0.000000000000000e+00 1851878480
1.748759 -0.140499 2.453335 0.000000000000000e+00 1851878480
1.743136 -0.069724 2.445447 0.000000000000000e+00 1851878480
1.741677 0.000000 2.443400 0.000000000000000e+00 1851878480
1.742138 0.069684 2.444047 0.000000000000000e+00 1851878480
1.779269 0.142951 2.496138 0.000000000000000e+00 1851878480
2.899510 0.349309 4.067724 0.000000000000000e+00 1851878480
1.788758 0.287510 2.509450 0.000000000000000e+00 1851878480
1.830669 0.368827 2.568247 0.000000000000000e+00 1851878480
2.276413 0.551182 3.193582 0.000000000000000e+00 1634431585
1.846562 -0.295552 2.574084 0.000000000000000e+00 1851878480
1.768644 -0.212175 2.465467 0.000000000000000e+00 1851878480
1.757537 -0.140610 2.449983 0.000000000000000e+00 1851878480
1.751794 -0.069775 2.441977 0.000000000000000e+00 1851878480
1.750288 0.000000 2.439879 0.000000000000000e+00 1851878480
1.766962 0.070379 2.463122 0.000000000000000e+00 1851878480
1.791656 0.143340 2.497545 0.000000000000000e+00 1851878480
2.908050 0.348863 4.053784 0.000000000000000e+00 1851878480
1.799816 0.288070 2.508919 0.000000000000000e+00 1851878480
1.841427 0.369433 2.566925 0.000000000000000e+00 1851878480
2.340493 0.564313 3.262616 0.000000000000000e+00 1634431585
1.865174 -0.297282 2.583540 0.000000000000000e+00 1851878480
1.778921 -0.212515 2.464068 0.000000000000000e+00 1851878480
1.766413 -0.140730 2.446743 0.000000000000000e+00 1851878480
1.760538 -0.069830 2.438605 0.000000000000000e+00 1851878480
1.759079 0.000000 2.436584 0.000000000000000e+00 1851878480
1.793688 0.071145 2.484522 0.000000000000000e+00 1851878480
1.804111 0.143733 2.498959 0.000000000000000e+00 1851878480
2.916587 0.348424 4.039903 0.000000000000000e+00 1851878480
1.811044 0.288655 2.508563 0.000000000000000e+00 1851878480
1.852333 0.370067 2.565754 0.000000000000000e+00 1851878480
1.789560 -0.212898 2.463118 0.000000000000000e+00 1851878480
1.775381 -0.140856 2.443602 0.000000000000000e+00 1851878480
1.769480 -0.069893 2.435481 0.000000000000000e+00 1851878480
1.768017 0.000000 2.433466 0.000000000000000e+00 1851878480
1.806110 0.071340 2.485897 0.000000000000000e+00 1851878480
1.816635 0.144129 2.500382 0.000000000000000e+00 1851878480
2.925129 0.347993 4.026093 0.000000000000000e+00 1851878480
1.822389 0.289256 2.508302 0.000000000000000e+00 1851878480
1.863545 0.370760 2.564949 0.000000000000000e+00 1851878480
1.800202 -0.213279 2.462114 0.000000000000000e+00 1851878480
1.784541 -0.140998 2.440695 0.000000000000000e+00 1851878480
1.778595 -0.069963 2.432563 0.000000000000000e+00 1851878480
1.777228 0.000000 2.430694 0.000000000000000e+00 1851878480
1.818601 0.071537 2.487280 0.000000000000000e+00 1851878480
1.829228 0.144529 2.501813 0.000000000000000e+00 1851878480
2.933706 0.347572 4.012395 0.000000000000000e+00 1851878480
1.834032 0.289902 2.508383 0.000000000000000e+00 1851878480
1.874897 0.371478 2.564275 0.000000000000000e+00 1851878480
1.811026 -0.213681 2.461305 0.000000000000000e+00 1851878480
1.794240 -0.141183 2.438492 0.000000000000000e+00 1851878480
1.788260 -0.070055 2.430364 0.000000000000000e+00 1851878480
1.786770 0.000000 2.428339 0.000000000000000e+00 1851878480
1.831162 0.071735 2.488671 0.000000000000000e+00 1851878480
1.841891 0.144932 2.503252 0.000000000000000e+00 1851878480
2.942342 0.347164 3.998838 0.000000000000000e+00 1851878480
1.845868 0.290575 2.508657 0.000000000000000e+00 1851878480
1.886279 0.372199 2.563579 0.000000000000000e+00 1851878480
1.822086 -0.214110 2.460755 0.000000000000000e+00 1851878480
1.805562 -0.141494 2.438439 0.000000000000000e+00 1851878480
1.798427 -0.070166 2.428802 0.000000000000000e+00 1851878480
1.797174 0.000000 2.427111 0.000000000000000e+00 1851878480
1.843792 0.071935 2.490069 0.000000000000000e+00 1851878480
1.854626 0.145339 2.504700 0.000000000000000e+00 1851878480
2.951062 0.346774 3.985454 0.000000000000000e+00 1851878480
1.857875 0.291273 2.509088 0.000000000000000e+00 1851878480
1.897721 0.372930 2.562901 0.000000000000000e+00 1851878480
1.833400 -0.214566 2.460483 0.000000000000000e+00 1851878480
1.815870 -0.141726 2.436957 0.000000000000000e+00 1870292837
1.809068 -0.070295 2.427829 0.000000000000000e+00 1851878480
1.812313 0.000000 2.432184 0.000000000000000e+00 1851878480
1.856493 0.072137 2.491475 0.000000000000000e+00 1851878480
1.867433 0.145750 2.506156 0.000000000000000e+00 1851878480
2.959934 0.346407 3.972328 0.000000000000000e+00 1851878480
1.870083 0.291999 2.509713 0.000000000000000e+00 1851878480
1.909184 0.373663 2.562187 0.000000000000000e+00 1851878480
1.844998 -0.215054 2.460524 0.000000000000000e+00 1851878480
1.815725 -0.141144 2.421485 0.000000000000000e+00 1870292837
1.820037 -0.070436 2.427237 0.000000000000000e+00 1851878480
1.827010 0.000000 2.436535 0.000000000000000e+00 1851878480
1.869267 0.072341 2.492889 0.000000000000000e+00 1851878480
1.880312 0.146164 2.507620 0.000000000000000e+00 1851878480
2.968972 0.346065 3.959477 0.000000000000000e+00 1851878480
1.882428 0.292743 2.510441 0.000000000000000e+00 1851878480
1.920670 0.374397 2.561442 0.000000000000000e+00 1851878480
1.856933 -0.215579 2.460942 0.000000000000000e+00 1851878480
1.815732 -0.140579 2.406340 0.000000000000000e+00 1870292837
1.831255 -0.070587 2.426912 0.000000000000000e+00 1851878480
1.842525 0.000000 2.441848 0.000000000000000e+00 1851878480
1.882112 0.072547 2.494312 0.000000000000000e+00 1851878480
1.893266 0.146582 2.509094 0.000000000000000e+00 1851878480
2.978134 0.345744 3.946839 0.000000000000000e+00 1851878480
1.894871 0.293499 2.511220 0.000000000000000e+00 1851878480
1.932209 0.375139 2.560704 0.000000000000000e+00 1851878480
1.869244 -0.216146 2.461780 0.000000000000000e+00 1851878480
1.882949 -0.145204 2.479830 0.000000000000000e+00 1870292837
1.842855 -0.070751 2.427027 0.000000000000000e+00 1851878480
1.871083 0.000000 2.464202 0.000000000000000e+00 1851878480
1.895032 0.072755 2.495743 0.000000000000000e+00 1851878480
1.906294 0.147004 2.510576 0.000000000000000e+00 1851878480
2.987350 0.345435 3.934319 0.000000000000000e+00 1851878480
1.907388 0.294263 2.512017 0.000000000000000e+00 1851878480
1.943832 0.375895 2.560013 0.000000000000000e+00 1851878480
1.881970 -0.216757 2.463082 0.000000000000000e+00 1851878480
1.885227 -0.144805 2.467345 0.000000000000000e+00 1870292837
1.847075 -0.070633 2.417412 0.000000000000000e+00 1870292837
1.889958 0.000000 2.473536 0.000000000000000e+00 1851878480
1.908420 0.072979 2.497699 0.000000000000000e+00 1851878480
1.919398 0.147430 2.512066 0.000000000000000e+00 1851878480
2.996578 0.345133 3.921856 0.000000000000000e+00 1851878480
1.919995 0.295037 2.512847 0.000000000000000e+00 1851878480
