# .PCD v0.7 - Point Cloud Data file format
VERSION 0.7
FIELDS x y z rgb label
SIZE 4 4 4 4 4
TYPE F F F F U
COUNT 1 1 1 1 1
WIDTH 777
HEIGHT 1
VIEWPOINT 0 0 0 1 0 0 0
POINTS 777
DATA ascii
-2.951753 -0.206752 0.170818 0.000000000000000e+00 1851878480
-2.923208 -0.136549 0.169166 0.000000000000000e+00 1851878480
-2.902705 -0.067505 0.167980 0.000000000000000e+00 1851878480
-2.922730 0.000000 0.169138 0.000000000000000e+00 1851878480
-2.896488 0.067360 0.167620 0.000000000000000e+00 1851878480
-3.106336 0.145103 0.179764 0.000000000000000e+00 1851878480
-3.079231 0.215681 0.178195 0.000000000000000e+00 1851878480
-3.651748 0.341261 0.211327 0.000000000000000e+00 1634431585
-2.974146 -0.418763 0.181114 0.000000000000000e+00 1851878480
-3.029441 -0.354389 0.184481 0.000000000000000e+00 1851878480
-2.999306 -0.280340 0.182646 0.000000000000000e+00 1851878480
-2.970370 -0.208093 0.180884 0.000000000000000e+00 1851878480
-2.940639 -0.137388 0.179074 0.000000000000000e+00 1851878480
-2.892693 -0.067284 0.176154 0.000000000000000e+00 1851878480
-2.908776 0.000000 0.177133 0.000000000000000e+00 1851878480
-2.878704 0.066959 0.175302 0.000000000000000e+00 1851878480
-3.121783 0.145851 0.190105 0.000000000000000e+00 1851878480
-3.083745 0.216036 0.187788 0.000000000000000e+00 1851878480
-3.643120 0.340516 0.221852 0.000000000000000e+00 1634431585
-2.966603 -0.417780 0.189637 0.000000000000000e+00 1851878480
-3.029390 -0.354450 0.193650 0.000000000000000e+00 1851878480
-2.999745 -0.280433 0.191755 0.000000000000000e+00 1851878480
-2.985058 -0.209162 0.190817 0.000000000000000e+00 1851878480
-2.931455 -0.136985 0.187390 0.000000000000000e+00 1851878480
-2.907290 -0.067636 0.185845 0.000000000000000e+00 1851878480
-2.935747 0.000000 0.187664 0.000000000000000e+00 1851878480
-2.880195 0.067006 0.184113 0.000000000000000e+00 1851878480
-3.110775 0.145364 0.198853 0.000000000000000e+00 1851878480
-3.088571 0.216415 0.197434 0.000000000000000e+00 1851878480
-3.521891 0.329247 0.225133 0.000000000000000e+00 1851878480
-2.963099 -0.417369 0.198388 0.000000000000000e+00 1851878480
-3.016335 -0.352992 0.201952 0.000000000000000e+00 1851878480
-2.984264 -0.279041 0.199805 0.000000000000000e+00 1851878480
-2.973655 -0.208404 0.199095 0.000000000000000e+00 1851878480
-2.943717 -0.137585 0.197090 0.000000000000000e+00 1851878480
-2.910819 -0.067732 0.194888 0.000000000000000e+00 1851878480
-2.915349 0.000000 0.195191 0.000000000000000e+00 1851878480
-2.870468 0.066793 0.192186 0.000000000000000e+00 1851878480
-3.108324 0.145278 0.208111 0.000000000000000e+00 1851878480
-3.062421 0.214625 0.205038 0.000000000000000e+00 1851878480
-3.502839 0.327530 0.234525 0.000000000000000e+00 1851878480
-3.027195 -0.354336 0.211852 0.000000000000000e+00 1851878480
-2.992952 -0.279911 0.209456 0.000000000000000e+00 1851878480
-2.981857 -0.209022 0.208679 0.000000000000000e+00 1851878480
-2.936805 -0.137290 0.205526 0.000000000000000e+00 1851878480
-2.911689 -0.067766 0.203769 0.000000000000000e+00 1851878480
-2.921576 0.000000 0.204461 0.000000000000000e+00 1851878480
-2.876347 0.066944 0.201295 0.000000000000000e+00 1851878480
-3.106787 0.145236 0.217422 0.000000000000000e+00 1851878480
-3.079791 0.215887 0.215533 0.000000000000000e+00 1851878480
-3.505008 0.327801 0.245291 0.000000000000000e+00 1851878480
-3.029879 -0.354727 0.221225 0.000000000000000e+00 1851878480
-3.008942 -0.281468 0.219696 0.000000000000000e+00 1851878480
-2.969691 -0.208214 0.216830 0.000000000000000e+00 1851878480
-2.942069 -0.137566 0.214813 0.000000000000000e+00 1851878480
-2.880553 -0.067056 0.210322 0.000000000000000e+00 1851878480
-2.947128 0.000000 0.215183 0.000000000000000e+00 1851878480
-2.902462 0.067566 0.211921 0.000000000000000e+00 1851878480
-3.110779 0.145454 0.227132 0.000000000000000e+00 1851878480
-3.052124 0.213993 0.222849 0.000000000000000e+00 1851878480
-3.492727 0.326723 0.255019 0.000000000000000e+00 1851878480
-3.157686 -0.445065 0.240133 0.000000000000000e+00 1701537140
-3.179065 -0.372276 0.241759 0.000000000000000e+00 1701537140
-2.988823 -0.279648 0.227291 0.000000000000000e+00 1851878480
-2.971704 -0.208402 0.225990 0.000000000000000e+00 1851878480
-2.939061 -0.137456 0.223507 0.000000000000000e+00 1851878480
-2.904094 -0.067619 0.220848 0.000000000000000e+00 1851878480
-2.936588 0.000000 0.223319 0.000000000000000e+00 1851878480
-2.886480 0.067209 0.219508 0.000000000000000e+00 1851878480
-3.130144 0.146393 0.238038 0.000000000000000e+00 1851878480
-3.070688 0.215343 0.233517 0.000000000000000e+00 1851878480
-3.484389 0.326016 0.264978 0.000000000000000e+00 1851878480
-3.120181 -0.439882 0.246748 0.000000000000000e+00 1701537140
-3.152803 -0.369287 0.249328 0.000000000000000e+00 1701537140
-2.979438 -0.278835 0.235618 0.000000000000000e+00 1851878480
-2.959469 -0.207592 0.234039 0.000000000000000e+00 1851878480
-2.929239 -0.137029 0.231648 0.000000000000000e+00 1851878480
-2.886053 -0.067215 0.228233 0.000000000000000e+00 1851878480
-2.923266 0.000000 0.231176 0.000000000000000e+00 1851878480
-2.893951 0.067399 0.228857 0.000000000000000e+00 1851878480
-3.102568 0.145137 0.245355 0.000000000000000e+00 1851878480
-3.073243 0.215573 0.243036 0.000000000000000e+00 1851878480
-3.478352 0.325527 0.275073 0.000000000000000e+00 1851878480
-3.105089 -0.437861 0.254980 0.000000000000000e+00 1701537140
-3.166443 -0.370975 0.260018 0.000000000000000e+00 1701537140
-3.100223 -0.290210 0.254581 0.000000000000000e+00 1701537140
-2.966738 -0.208153 0.243619 0.000000000000000e+00 1851878480
-2.925229 -0.136874 0.240211 0.000000000000000e+00 1851878480
-2.897765 -0.067504 0.237955 0.000000000000000e+00 1851878480
-2.922996 0.000000 0.240027 0.000000000000000e+00 1851878480
-2.889601 0.067314 0.237285 0.000000000000000e+00 1851878480
-3.110075 0.145524 0.255390 0.000000000000000e+00 1851878480
-3.058416 0.214585 0.251148 0.000000000000000e+00 1851878480
-3.472883 0.325094 0.285182 0.000000000000000e+00 1851878480
-3.069843 -0.433000 0.261408 0.000000000000000e+00 1701537140
-3.121110 -0.365756 0.265773 0.000000000000000e+00 1701537140
-3.090422 -0.289365 0.263160 0.000000000000000e+00 1701537140
-3.068138 -0.215322 0.261263 0.000000000000000e+00 1701537140
-2.963380 -0.138695 0.252342 0.000000000000000e+00 1851878480
-2.895448 -0.067467 0.246557 0.000000000000000e+00 1851878480
-2.921150 0.000000 0.248746 0.000000000000000e+00 1851878480
-2.883105 0.067179 0.245506 0.000000000000000e+00 1851878480
-3.101333 0.145151 0.264089 0.000000000000000e+00 1851878480
-3.049273 0.213998 0.259656 0.000000000000000e+00 1851878480
-3.439262 0.322028 0.292865 0.000000000000000e+00 1851878480
-3.050821 -0.430429 0.269058 0.000000000000000e+00 1701537140
-3.117721 -0.365455 0.274958 0.000000000000000e+00 1701537140
-3.073403 -0.287847 0.271050 0.000000000000000e+00 1701537140
-3.057984 -0.214665 0.269690 0.000000000000000e+00 1701537140
-2.944678 -0.137855 0.259697 0.000000000000000e+00 1851878480
-2.913049 -0.067895 0.256908 0.000000000000000e+00 1851878480
-2.927993 0.000000 0.258226 0.000000000000000e+00 1851878480
-2.886830 0.067284 0.254596 0.000000000000000e+00 1851878480
-3.101309 0.145188 0.273511 0.000000000000000e+00 1851878480
-3.050398 0.214133 0.269021 0.000000000000000e+00 1851878480
-3.445193 0.322668 0.303839 0.000000000000000e+00 1851878480
-3.052026 -0.430716 0.278444 0.000000000000000e+00 1701537140
-3.109529 -0.364593 0.283690 0.000000000000000e+00 1701537140
-3.069113 -0.287523 0.280003 0.000000000000000e+00 1701537140
-3.056891 -0.214646 0.278888 0.000000000000000e+00 1701537140
-3.052794 -0.142955 0.278514 0.000000000000000e+00 1701537140
-2.919827 -0.068071 0.266383 0.000000000000000e+00 1851878480
-2.910650 0.000000 0.265546 0.000000000000000e+00 1851878480
-2.894300 0.067476 0.264054 0.000000000000000e+00 1851878480
-3.128695 0.146510 0.285438 0.000000000000000e+00 1851878480
-3.040379 0.213487 0.277381 0.000000000000000e+00 1851878480
-3.437073 0.321995 0.313572 0.000000000000000e+00 1851878480
-3.038792 -0.428968 0.286480 0.000000000000000e+00 1701537140
-3.084700 -0.361783 0.290808 0.000000000000000e+00 1701537140
-3.029545 -0.283896 0.285608 0.000000000000000e+00 1701537140
-3.043099 -0.213738 0.286886 0.000000000000000e+00 1701537140
-3.011500 -0.141061 0.283907 0.000000000000000e+00 1701537140
-2.913810 -0.067950 0.274698 0.000000000000000e+00 1851878480
-2.916191 0.000000 0.274922 0.000000000000000e+00 1851878480
-2.886996 0.067325 0.272170 0.000000000000000e+00 1851878480
-3.119850 0.146136 0.294122 0.000000000000000e+00 1851878480
-3.045689 0.213920 0.287130 0.000000000000000e+00 1851878480
-3.429166 0.321344 0.323282 0.000000000000000e+00 1851878480
-4.135571 0.485767 0.389878 0.000000000000000e+00 1634431585
-3.274299 -0.540489 0.318648 0.000000000000000e+00 1701537140
-3.010842 -0.425145 0.293009 0.000000000000000e+00 1701537140
-3.061112 -0.359120 0.297901 0.000000000000000e+00 1701537140
-3.046401 -0.285558 0.296470 0.000000000000000e+00 1701537140
-3.007313 -0.211285 0.292666 0.000000000000000e+00 1701537140
-3.016515 -0.141337 0.293561 0.000000000000000e+00 1701537140
-2.909487 -0.067869 0.283146 0.000000000000000e+00 1851878480
-2.937975 0.000000 0.285918 0.000000000000000e+00 1851878480
-2.884704 0.067291 0.280734 0.000000000000000e+00 1851878480
-3.127158 0.146521 0.304329 0.000000000000000e+00 1851878480
-3.047162 0.214085 0.296544 0.000000000000000e+00 1851878480
-3.444282 0.322853 0.335191 0.000000000000000e+00 1851878480
-4.065535 0.477679 0.395650 0.000000000000000e+00 1634431585
-3.215529 -0.530946 0.322722 0.000000000000000e+00 1701537140
-2.997299 -0.423359 0.300819 0.000000000000000e+00 1701537140
-3.070052 -0.360276 0.308121 0.000000000000000e+00 1701537140
-3.035923 -0.284660 0.304696 0.000000000000000e+00 1701537140
-3.011658 -0.211654 0.302261 0.000000000000000e+00 1701537140
-3.012464 -0.141189 0.302341 0.000000000000000e+00 1701537140
-2.899680 -0.067660 0.291022 0.000000000000000e+00 1851878480
-2.908845 0.000000 0.291942 0.000000000000000e+00 1851878480
-2.911807 0.067943 0.292239 0.000000000000000e+00 1851878480
-3.132953 0.146836 0.314434 0.000000000000000e+00 1851878480
-3.053034 0.214561 0.306413 0.000000000000000e+00 1851878480
-3.417121 0.320403 0.342954 0.000000000000000e+00 1851878480
-4.007030 0.470945 0.402159 0.000000000000000e+00 1634431585
-3.200611 -0.528645 0.330978 0.000000000000000e+00 1701537140
-2.983629 -0.421558 0.308539 0.000000000000000e+00 1701537140
-3.054331 -0.358542 0.315851 0.000000000000000e+00 1701537140
-3.028267 -0.284030 0.313156 0.000000000000000e+00 1701537140
-3.011668 -0.211719 0.311439 0.000000000000000e+00 1701537140
-3.006143 -0.140936 0.310868 0.000000000000000e+00 1701537140
-3.034039 -0.070817 0.313752 0.000000000000000e+00 1701537140
-2.920544 0.000000 0.302016 0.000000000000000e+00 1851878480
-2.899175 0.067669 0.299806 0.000000000000000e+00 1851878480
-3.131416 0.146809 0.323822 0.000000000000000e+00 1851878480
-3.059933 0.215112 0.316430 0.000000000000000e+00 1851878480
-3.425551 0.321292 0.354239 0.000000000000000e+00 1851878480
-3.933385 0.462432 0.406754 0.000000000000000e+00 1634431585
-3.171278 -0.523966 0.337613 0.000000000000000e+00 1701537140
-2.980033 -0.421183 0.317253 0.000000000000000e+00 1701537140
-3.049324 -0.358067 0.324630 0.000000000000000e+00 1701537140
-3.033151 -0.284578 0.322908 0.000000000000000e+00 1701537140
-3.018369 -0.212258 0.321334 0.000000000000000e+00 1701537140
-2.970762 -0.139322 0.316266 0.000000000000000e+00 1701537140
-3.016052 -0.070420 0.321087 0.000000000000000e+00 1701537140
-2.942057 0.000000 0.313210 0.000000000000000e+00 1851878480
-2.878255 0.067202 0.306418 0.000000000000000e+00 1851878480
-3.126870 0.146643 0.332885 0.000000000000000e+00 1851878480
-3.051139 0.214562 0.324823 0.000000000000000e+00 1851878480
-3.402234 0.319206 0.362200 0.000000000000000e+00 1851878480
-3.929111 0.462075 0.418291 0.000000000000000e+00 1634431585
-3.142415 -0.519366 0.344128 0.000000000000000e+00 1701537140
-2.960718 -0.418590 0.324230 0.000000000000000e+00 1701537140
-3.030527 -0.355976 0.331875 0.000000000000000e+00 1701537140
-3.027547 -0.284145 0.331549 0.000000000000000e+00 1701537140
-3.021148 -0.212522 0.330848 0.000000000000000e+00 1701537140
-2.975075 -0.139569 0.325803 0.000000000000000e+00 1701537140
-2.998209 -0.070026 0.328336 0.000000000000000e+00 1701537140
-2.934818 0.000000 0.321394 0.000000000000000e+00 1851878480
-2.898729 0.067702 0.317442 0.000000000000000e+00 1851878480
-3.136843 0.147158 0.343518 0.000000000000000e+00 1851878480
-3.058131 0.215124 0.334898 0.000000000000000e+00 1851878480
-3.402675 0.319352 0.372629 0.000000000000000e+00 1851878480
-3.875934 0.455970 0.424456 0.000000000000000e+00 1634431585
-3.142961 -0.519631 0.353784 0.000000000000000e+00 1701537140
-2.959401 -0.418543 0.333122 0.000000000000000e+00 1701537140
-3.055404 -0.359018 0.343928 0.000000000000000e+00 1701537140
-3.025407 -0.284039 0.340552 0.000000000000000e+00 1701537140
-2.999110 -0.211043 0.337591 0.000000000000000e+00 1701537140
-2.982640 -0.139971 0.335737 0.000000000000000e+00 1701537140
-2.993234 -0.069933 0.336930 0.000000000000000e+00 1701537140
-2.927429 0.000000 0.329523 0.000000000000000e+00 1851878480
-2.900977 0.067777 0.326545 0.000000000000000e+00 1851878480
-3.143827 0.147535 0.353881 0.000000000000000e+00 1851878480
-3.064277 0.215628 0.344927 0.000000000000000e+00 1851878480
-3.386135 0.317906 0.381156 0.000000000000000e+00 1851878480
-3.843595 0.452317 0.432650 0.000000000000000e+00 1634431585
-3.116077 -0.515363 0.360278 0.000000000000000e+00 1701537140
-2.958516 -0.418562 0.342061 0.000000000000000e+00 1701537140
-3.045378 -0.357963 0.352104 0.000000000000000e+00 1701537140
-3.041906 -0.285686 0.351703 0.000000000000000e+00 1701537140
-3.005878 -0.211592 0.347537 0.000000000000000e+00 1701537140
-2.988640 -0.140301 0.345544 0.000000000000000e+00 1701537140
-2.965535 -0.069310 0.342873 0.000000000000000e+00 1701537140
-2.920303 0.000000 0.337643 0.000000000000000e+00 1851878480
-2.883768 0.067399 0.333419 0.000000000000000e+00 1851878480
-3.138575 0.147339 0.362879 0.000000000000000e+00 1851878480
-3.042703 0.214184 0.351795 0.000000000000000e+00 1851878480
-3.397440 0.319077 0.392809 0.000000000000000e+00 1851878480
-3.846841 0.452855 0.444768 0.000000000000000e+00 1634431585
-3.098169 -0.512582 0.367680 0.000000000000000e+00 1701537140
-2.949285 -0.417404 0.350011 0.000000000000000e+00 1701537140
-3.046683 -0.358243 0.361570 0.000000000000000e+00 1701537140
-3.051549 -0.286693 0.362147 0.000000000000000e+00 1701537140
-2.999926 -0.211247 0.356021 0.000000000000000e+00 1701537140
-2.980582 -0.139972 0.353725 0.000000000000000e+00 1701537140
-2.954822 -0.069084 0.350668 0.000000000000000e+00 1701537140
-2.942066 0.000000 0.349154 0.000000000000000e+00 1851878480
-2.885977 0.067474 0.342498 0.000000000000000e+00 1851878480
-3.142429 0.147573 0.372933 0.000000000000000e+00 1851878480
-3.072068 0.216327 0.364582 0.000000000000000e+00 1851878480
-3.390116 0.318502 0.402327 0.000000000000000e+00 1851878480
-3.816317 0.449420 0.452907 0.000000000000000e+00 1634431585
-3.076668 -0.509210 0.374542 0.000000000000000e+00 1701537140
-2.952604 -0.418025 0.359438 0.000000000000000e+00 1701537140
-3.058656 -0.359782 0.372349 0.000000000000000e+00 1701537140
-3.063970 -0.287964 0.372996 0.000000000000000e+00 1701537140
-3.070803 -0.216317 0.373827 0.000000000000000e+00 1701537140
-2.983027 -0.140138 0.363142 0.000000000000000e+00 1701537140
-2.961867 -0.069273 0.360566 0.000000000000000e+00 1701537140
-3.075516 0.000000 0.374401 0.000000000000000e+00 1701537140
-2.898116 0.067782 0.352805 0.000000000000000e+00 1851878480
-3.139643 0.147495 0.382208 0.000000000000000e+00 1851878480
-3.074218 0.216557 0.374243 0.000000000000000e+00 1851878480
-3.394480 0.319027 0.413231 0.000000000000000e+00 1851878480
-3.779756 0.445276 0.460133 0.000000000000000e+00 1634431585
-3.080426 -0.510021 0.384431 0.000000000000000e+00 1701537140
-2.953463 -0.418302 0.368586 0.000000000000000e+00 1701537140
-3.265269 -0.384228 0.407499 0.000000000000000e+00 1701537140
-3.051065 -0.286858 0.380766 0.000000000000000e+00 1701537140
-3.045067 -0.214584 0.380018 0.000000000000000e+00 1701537140
-2.996686 -0.140832 0.373980 0.000000000000000e+00 1701537140
-2.976252 -0.069636 0.371430 0.000000000000000e+00 1701537140
-3.070083 0.000000 0.383140 0.000000000000000e+00 1701537140
-2.901520 0.067887 0.362104 0.000000000000000e+00 1851878480
-3.152554 0.148157 0.393432 0.000000000000000e+00 1851878480
-3.065129 0.215997 0.382522 0.000000000000000e+00 1851878480
-3.380488 0.317830 0.421878 0.000000000000000e+00 1851878480
-3.761492 0.443289 0.469426 0.000000000000000e+00 1634431585
-3.073154 -0.509011 0.392938 0.000000000000000e+00 1701537140
-2.960394 -0.419443 0.378521 0.000000000000000e+00 1701537140
-3.261036 -0.383876 0.416961 0.000000000000000e+00 1701537140
-3.071548 -0.288894 0.392733 0.000000000000000e+00 1701537140
-3.059908 -0.215712 0.391245 0.000000000000000e+00 1701537140
-3.015316 -0.141761 0.385543 0.000000000000000e+00 1701537140
-2.962167 -0.069333 0.378747 0.000000000000000e+00 1701537140
-3.052526 0.000000 0.390301 0.000000000000000e+00 1701537140
-2.909558 0.068101 0.372021 0.000000000000000e+00 1851878480
-3.147074 0.147956 0.402390 0.000000000000000e+00 1851878480
-3.079158 0.217069 0.393706 0.000000000000000e+00 1851878480
-3.394684 0.319287 0.434050 0.000000000000000e+00 1851878480
-3.773610 0.444887 0.482500 0.000000000000000e+00 1634431585
-3.060100 -0.507047 0.400653 0.000000000000000e+00 1701537140
-2.966982 -0.420541 0.388461 0.000000000000000e+00 1701537140
-3.258213 -0.383693 0.426591 0.000000000000000e+00 1701537140
-3.075743 -0.289401 0.402701 0.000000000000000e+00 1701537140
-3.026150 -0.213415 0.396208 0.000000000000000e+00 1701537140
-3.208474 -0.150901 0.420079 0.000000000000000e+00 1701537140
-2.971866 -0.069587 0.389101 0.000000000000000e+00 1701537140
-3.033401 0.000000 0.397157 0.000000000000000e+00 1701537140
-2.898723 0.067874 0.379524 0.000000000000000e+00 1851878480
-3.148018 0.148058 0.412164 0.000000000000000e+00 1851878480
-3.079221 0.217158 0.403156 0.000000000000000e+00 1851878480
-3.373543 0.317422 0.441691 0.000000000000000e+00 1851878480
-3.767232 0.444308 0.493236 0.000000000000000e+00 1634431585
-3.072283 -0.509269 0.411677 0.000000000000000e+00 1701537140
-2.995486 -0.424751 0.401386 0.000000000000000e+00 1701537140
-3.296131 -0.388314 0.441672 0.000000000000000e+00 1701537140
-3.250547 -0.305971 0.435563 0.000000000000000e+00 1701537140
-3.039146 -0.214417 0.407236 0.000000000000000e+00 1701537140
-3.194696 -0.150313 0.428080 0.000000000000000e+00 1701537140
-2.970148 -0.069574 0.397991 0.000000000000000e+00 1701537140
-3.014731 0.000000 0.403965 0.000000000000000e+00 1701537140
-2.931098 0.068660 0.392758 0.000000000000000e+00 1851878480
-3.154252 0.148410 0.422660 0.000000000000000e+00 1851878480
-3.083033 0.217514 0.413117 0.000000000000000e+00 1851878480
-3.346572 0.315010 0.448431 0.000000000000000e+00 1851878480
-3.721296 0.439066 0.498642 0.000000000000000e+00 1634431585
-3.059783 -0.507404 0.419399 0.000000000000000e+00 1701537140
-3.004542 -0.426209 0.411828 0.000000000000000e+00 1701537140
-3.267748 -0.385127 0.447905 0.000000000000000e+00 1701537140
-3.271906 -0.308108 0.448475 0.000000000000000e+00 1701537140
-3.053961 -0.215550 0.418601 0.000000000000000e+00 1701537140
-3.204548 -0.150838 0.439242 0.000000000000000e+00 1701537140
-2.970574 -0.069613 0.407172 0.000000000000000e+00 1701537140
-2.994743 0.000000 0.410484 0.000000000000000e+00 1701537140
-2.908069 0.068148 0.398604 0.000000000000000e+00 1851878480
-3.146347 0.148099 0.431265 0.000000000000000e+00 1851878480
-3.075891 0.217098 0.421607 0.000000000000000e+00 1851878480
-3.361926 0.316585 0.460814 0.000000000000000e+00 1851878480
-3.744638 0.442001 0.513271 0.000000000000000e+00 1634431585
-3.057360 -0.507214 0.428465 0.000000000000000e+00 1701537140
-2.994221 -0.424923 0.419617 0.000000000000000e+00 1701537140
-3.301832 -0.389307 0.462726 0.000000000000000e+00 1701537140
-3.279181 -0.308922 0.459552 0.000000000000000e+00 1701537140
-3.049383 -0.215317 0.427348 0.000000000000000e+00 1701537140
-3.215477 -0.151416 0.450624 0.000000000000000e+00 1701537140
-2.967185 -0.069562 0.415828 0.000000000000000e+00 1701537140
-3.017012 0.000000 0.422811 0.000000000000000e+00 1701537140
-2.933476 0.068772 0.411104 0.000000000000000e+00 1851878480
-3.158534 0.148735 0.442644 0.000000000000000e+00 1851878480
-3.080740 0.217532 0.431742 0.000000000000000e+00 1851878480
-3.375011 0.317950 0.472982 0.000000000000000e+00 1851878480
-3.714909 0.438675 0.520616 0.000000000000000e+00 1634431585
-3.064400 -0.508600 0.438880 0.000000000000000e+00 1701537140
-3.017310 -0.428382 0.432136 0.000000000000000e+00 1701537140
-3.287530 -0.387786 0.470836 0.000000000000000e+00 1701537140
-3.256676 -0.306933 0.466417 0.000000000000000e+00 1701537140
-3.249345 -0.229535 0.465367 0.000000000000000e+00 1701537140
-3.225359 -0.151946 0.461932 0.000000000000000e+00 1701537140
-3.018111 -0.070787 0.432250 0.000000000000000e+00 1701537140
-3.027466 0.000000 0.433590 0.000000000000000e+00 1701537140
-2.926119 0.068629 0.419075 0.000000000000000e+00 1851878480
-3.168236 0.149255 0.453751 0.000000000000000e+00 1851878480
-3.086705 0.218046 0.442074 0.000000000000000e+00 1851878480
-3.344588 0.315218 0.479008 0.000000000000000e+00 1851878480
-3.701284 0.437253 0.530094 0.000000000000000e+00 1634431585
-3.077246 -0.510955 0.450195 0.000000000000000e+00 1701537140
-3.035796 -0.431195 0.444131 0.000000000000000e+00 1701537140
-3.303173 -0.389802 0.483248 0.000000000000000e+00 1701537140
-3.264888 -0.307841 0.477647 0.000000000000000e+00 1701537140
-3.265681 -0.230789 0.477763 0.000000000000000e+00 1701537140
-3.225100 -0.152000 0.471826 0.000000000000000e+00 1701537140
-3.333994 -0.078229 0.487757 0.000000000000000e+00 1701537140
-3.011437 0.000000 0.440567 0.000000000000000e+00 1701537140
-2.926244 0.068662 0.428104 0.000000000000000e+00 1851878480
-3.152221 0.148566 0.461164 0.000000000000000e+00 1851878480
-3.095807 0.218784 0.452911 0.000000000000000e+00 1851878480
-3.350207 0.315886 0.490129 0.000000000000000e+00 1851878480
-3.694242 0.436612 0.540460 0.000000000000000e+00 1634431585
-3.097268 -0.514509 0.462668 0.000000000000000e+00 1701537140
-3.046935 -0.432970 0.455150 0.000000000000000e+00 1701537140
-3.161567 -0.373257 0.472273 0.000000000000000e+00 1701537140
-3.250306 -0.306603 0.485529 0.000000000000000e+00 1701537140
-3.255441 -0.230168 0.486296 0.000000000000000e+00 1701537140
-3.231240 -0.152358 0.482681 0.000000000000000e+00 1701537140
-3.330940 -0.078193 0.497574 0.000000000000000e+00 1701537140
-2.991087 0.000000 0.446807 0.000000000000000e+00 1701537140
-2.929138 0.068760 0.437553 0.000000000000000e+00 1851878480
-3.153091 0.148673 0.471007 0.000000000000000e+00 1851878480
-3.105852 0.219592 0.463951 0.000000000000000e+00 1851878480
-3.346389 0.315666 0.499882 0.000000000000000e+00 1851878480
-3.697401 0.437180 0.552316 0.000000000000000e+00 1634431585
-3.064229 -0.509252 0.467185 0.000000000000000e+00 1701537140
-3.042690 -0.432564 0.463901 0.000000000000000e+00 1701537140
-3.155410 -0.372700 0.481087 0.000000000000000e+00 1701537140
-3.231805 -0.304997 0.492735 0.000000000000000e+00 1701537140
-3.241907 -0.229316 0.494275 0.000000000000000e+00 1701537140
-3.242514 -0.152959 0.494367 0.000000000000000e+00 1701537140
-3.067755 -0.072047 0.467723 0.000000000000000e+00 1701537140
-3.015032 0.000000 0.459684 0.000000000000000e+00 1701537140
-3.314598 0.077844 0.505357 0.000000000000000e+00 1851878480
-3.150536 0.148620 0.480344 0.000000000000000e+00 1851878480
-3.082121 0.218013 0.469913 0.000000000000000e+00 1851878480
-3.329085 0.314177 0.507566 0.000000000000000e+00 1851878480
-3.558859 0.420990 0.542598 0.000000000000000e+00 1851878480
-3.097227 -0.514975 0.481779 0.000000000000000e+00 1701537140
-3.010171 -0.428139 0.468237 0.000000000000000e+00 1701537140
-3.137209 -0.370723 0.487998 0.000000000000000e+00 1701537140
-3.225095 -0.304505 0.501669 0.000000000000000e+00 1701537140
-3.227467 -0.228401 0.502038 0.000000000000000e+00 1701537140
-3.253973 -0.153571 0.506161 0.000000000000000e+00 1701537140
-3.050787 -0.071682 0.474555 0.000000000000000e+00 1701537140
-3.023637 0.000000 0.470332 0.000000000000000e+00 1701537140
-3.296790 0.077462 0.512821 0.000000000000000e+00 1851878480
-3.160536 0.149161 0.491627 0.000000000000000e+00 1851878480
-3.085729 0.218370 0.479990 0.000000000000000e+00 1851878480
-3.358010 0.317054 0.522344 0.000000000000000e+00 1851878480
-3.555422 0.420779 0.553052 0.000000000000000e+00 1851878480
-3.105687 -0.516626 0.492693 0.000000000000000e+00 1701537140
-3.011569 -0.428541 0.477762 0.000000000000000e+00 1701537140
-3.131414 -0.370213 0.496774 0.000000000000000e+00 1701537140
-3.196455 -0.301944 0.507092 0.000000000000000e+00 1701537140
-3.201834 -0.226694 0.507946 0.000000000000000e+00 1701537140
-3.278407 -0.154797 0.520093 0.000000000000000e+00 1701537140
-3.038316 -0.071423 0.482005 0.000000000000000e+00 1701537140
-3.014271 0.000000 0.478190 0.000000000000000e+00 1701537140
-3.289511 0.077328 0.521855 0.000000000000000e+00 1851878480
-3.179484 0.150126 0.504400 0.000000000000000e+00 1851878480
-3.107482 0.220014 0.492977 0.000000000000000e+00 1851878480
-3.359851 0.317378 0.533014 0.000000000000000e+00 1851878480
-3.558847 0.421384 0.564583 0.000000000000000e+00 1851878480
-3.110528 -0.517682 0.503083 0.000000000000000e+00 1701537140
-3.016963 -0.429516 0.487950 0.000000000000000e+00 1701537140
-3.130307 -0.370261 0.506282 0.000000000000000e+00 1701537140
-3.169444 -0.299537 0.512612 0.000000000000000e+00 1701537140
-3.198277 -0.226551 0.517275 0.000000000000000e+00 1701537140
-3.126886 -0.147714 0.505729 0.000000000000000e+00 1701537140
-3.036370 -0.071412 0.491089 0.000000000000000e+00 1701537140
-3.021663 0.000000 0.488710 0.000000000000000e+00 1701537140
-3.281337 0.077173 0.530709 0.000000000000000e+00 1851878480
-3.192597 0.150818 0.516356 0.000000000000000e+00 1851878480
-3.110365 0.220324 0.503057 0.000000000000000e+00 1851878480
-3.358359 0.317391 0.543166 0.000000000000000e+00 1851878480
-3.540493 0.419413 0.572623 0.000000000000000e+00 1851878480
-3.132050 -0.521520 0.516262 0.000000000000000e+00 1701537140
-3.355375 -0.477930 0.553073 0.000000000000000e+00 1701537140
-3.180130 -0.376339 0.524187 0.000000000000000e+00 1701537140
-3.138150 -0.296725 0.517267 0.000000000000000e+00 1701537140
-3.177476 -0.225189 0.523749 0.000000000000000e+00 1701537140
-3.096993 -0.146374 0.510483 0.000000000000000e+00 1701537140
-3.041643 -0.071571 0.501360 0.000000000000000e+00 1701537140
-3.031174 0.000000 0.499634 0.000000000000000e+00 1701537140
-3.262914 0.076777 0.537832 0.000000000000000e+00 1851878480
-3.180974 0.150343 0.524326 0.000000000000000e+00 1851878480
-3.122379 0.221284 0.514668 0.000000000000000e+00 1851878480
-3.347308 0.316502 0.551743 0.000000000000000e+00 1851878480
-3.554913 0.421329 0.585963 0.000000000000000e+00 1851878480
-3.130709 -0.521559 0.525744 0.000000000000000e+00 1701537140
-3.350224 -0.477436 0.562608 0.000000000000000e+00 1701537140
-3.155386 -0.373599 0.529889 0.000000000000000e+00 1701537140
-3.154910 -0.298460 0.529808 0.000000000000000e+00 1701537140
-3.168403 -0.224659 0.532074 0.000000000000000e+00 1701537140
-3.120627 -0.147565 0.524051 0.000000000000000e+00 1701537140
-3.044945 -0.071685 0.511342 0.000000000000000e+00 1701537140
-3.027145 0.000000 0.508353 0.000000000000000e+00 1701537140
-3.257728 0.076694 0.547075 0.000000000000000e+00 1851878480
-3.177064 0.150234 0.533529 0.000000000000000e+00 1851878480
-3.120716 0.221277 0.524066 0.000000000000000e+00 1851878480
-3.355087 0.317397 0.563425 0.000000000000000e+00 1851878480
-3.567173 0.422994 0.599041 0.000000000000000e+00 1851878480
-4.538996 0.646847 0.762240 0.000000000000000e+00 1851878480
-3.116497 -0.519457 0.533026 0.000000000000000e+00 1701537140
-3.367946 -0.480207 0.576032 0.000000000000000e+00 1701537140
-3.170589 -0.375591 0.542277 0.000000000000000e+00 1701537140
-3.135405 -0.296766 0.536259 0.000000000000000e+00 1701537140
-3.157523 -0.224002 0.540042 0.000000000000000e+00 1701537140
-3.099021 -0.146618 0.530037 0.000000000000000e+00 1701537140
-3.063683 -0.072163 0.523992 0.000000000000000e+00 1701537140
-3.035326 0.000000 0.519143 0.000000000000000e+00 1701537140
-3.254919 0.076667 0.556700 0.000000000000000e+00 1851878480
-3.190361 0.150940 0.545659 0.000000000000000e+00 1851878480
-3.113019 0.220844 0.532431 0.000000000000000e+00 1851878480
-3.350001 0.317078 0.572962 0.000000000000000e+00 1851878480
-3.541867 0.420208 0.605778 0.000000000000000e+00 1851878480
-4.521752 0.644719 0.773371 0.000000000000000e+00 1851878480
-3.177655 -0.529926 0.553355 0.000000000000000e+00 1701537140
-3.348012 -0.477614 0.583021 0.000000000000000e+00 1701537140
-3.346165 -0.396596 0.582699 0.000000000000000e+00 1701537140
-3.145895 -0.297914 0.547824 0.000000000000000e+00 1701537140
-3.118093 -0.221320 0.542983 0.000000000000000e+00 1701537140
-3.096986 -0.146598 0.539307 0.000000000000000e+00 1701537140
-3.057563 -0.072056 0.532442 0.000000000000000e+00 1701537140
-3.046647 0.000000 0.530541 0.000000000000000e+00 1701537140
-3.251366 0.076623 0.566191 0.000000000000000e+00 1851878480
-3.176755 0.150374 0.553198 0.000000000000000e+00 1851878480
-3.131492 0.222271 0.545316 0.000000000000000e+00 1851878480
-3.365013 0.318664 0.585981 0.000000000000000e+00 1851878480
-3.557956 0.422337 0.619580 0.000000000000000e+00 1851878480
-4.498818 0.641783 0.783421 0.000000000000000e+00 1851878480
-3.184262 -0.531309 0.564406 0.000000000000000e+00 1701537140
-3.318782 -0.473695 0.588249 0.000000000000000e+00 1701537140
-3.371507 -0.399811 0.597594 0.000000000000000e+00 1701537140
-3.160812 -0.299485 0.560249 0.000000000000000e+00 1701537140
-3.123859 -0.221846 0.553699 0.000000000000000e+00 1701537140
-3.122495 -0.147884 0.553457 0.000000000000000e+00 1701537140
-3.044353 -0.071783 0.539607 0.000000000000000e+00 1701537140
-3.029281 0.000000 0.536935 0.000000000000000e+00 1701537140
-3.219241 0.075906 0.570606 0.000000000000000e+00 1851878480
-3.198935 0.151505 0.567006 0.000000000000000e+00 1851878480
-3.141116 0.223072 0.556758 0.000000000000000e+00 1851878480
-3.363818 0.318720 0.596232 0.000000000000000e+00 1851878480
-3.574754 0.424556 0.633620 0.000000000000000e+00 1851878480
-4.501773 0.642545 0.797933 0.000000000000000e+00 1851878480
-3.166121 -0.528568 0.571045 0.000000000000000e+00 1701537140
-3.320966 -0.474262 0.598972 0.000000000000000e+00 1701537140
-3.354957 -0.398063 0.605103 0.000000000000000e+00 1701537140
-3.151806 -0.298793 0.568463 0.000000000000000e+00 1701537140
-3.156344 -0.224274 0.569281 0.000000000000000e+00 1701537140
-3.109527 -0.147350 0.560837 0.000000000000000e+00 1701537140
-3.058378 -0.072152 0.551612 0.000000000000000e+00 1701537140
-3.061043 0.000000 0.552092 0.000000000000000e+00 1701537140
-3.202078 0.075542 0.577530 0.000000000000000e+00 1851878480
-3.210018 0.152111 0.578962 0.000000000000000e+00 1851878480
-3.152488 0.224000 0.568586 0.000000000000000e+00 1851878480
-3.342772 0.316897 0.602905 0.000000000000000e+00 1851878480
-3.546865 0.421471 0.639716 0.000000000000000e+00 1851878480
-4.449459 0.635420 0.802508 0.000000000000000e+00 1851878480
-3.161659 -0.528112 0.580091 0.000000000000000e+00 1701537140
-3.312633 -0.473332 0.607791 0.000000000000000e+00 1701537140
-3.363292 -0.399271 0.617086 0.000000000000000e+00 1701537140
-3.159699 -0.299706 0.579731 0.000000000000000e+00 1701537140
-3.124188 -0.222111 0.573216 0.000000000000000e+00 1701537140
-3.114086 -0.147647 0.571362 0.000000000000000e+00 1701537140
-3.050224 -0.071999 0.559645 0.000000000000000e+00 1701537140
-3.053546 0.000000 0.560255 0.000000000000000e+00 1701537140
-3.215374 0.075898 0.589946 0.000000000000000e+00 1851878480
-3.207428 0.152072 0.588488 0.000000000000000e+00 1851878480
-3.156054 0.224377 0.579062 0.000000000000000e+00 1851878480
-3.362606 0.318952 0.616960 0.000000000000000e+00 1851878480
-3.561133 0.423398 0.653385 0.000000000000000e+00 1851878480
-4.445399 0.635189 0.815627 0.000000000000000e+00 1851878480
-3.154074 -0.527139 0.588537 0.000000000000000e+00 1701537140
-3.329020 -0.475939 0.621182 0.000000000000000e+00 1701537140
-3.225748 -0.383156 0.601912 0.000000000000000e+00 1701537140
-3.159659 -0.299869 0.589580 0.000000000000000e+00 1701537140
-3.159333 -0.224735 0.589519 0.000000000000000e+00 1701537140
-3.300644 -0.156579 0.615887 0.000000000000000e+00 1701537140
-3.294667 -0.077813 0.614772 0.000000000000000e+00 1701537140
-3.075062 0.000000 0.573794 0.000000000000000e+00 1701537140
-3.196722 0.075499 0.596495 0.000000000000000e+00 1851878480
-3.208724 0.152219 0.598735 0.000000000000000e+00 1851878480
-3.165576 0.225179 0.590684 0.000000000000000e+00 1851878480
-3.364343 0.319295 0.627773 0.000000000000000e+00 1851878480
-3.560720 0.423586 0.664416 0.000000000000000e+00 1851878480
-4.409514 0.630413 0.822798 0.000000000000000e+00 1851878480
-3.182670 -0.532221 0.603812 0.000000000000000e+00 1701537140
-3.308087 -0.473214 0.627606 0.000000000000000e+00 1701537140
-3.219641 -0.382648 0.610826 0.000000000000000e+00 1701537140
-3.170681 -0.301086 0.601538 0.000000000000000e+00 1701537140
-3.149660 -0.224174 0.597550 0.000000000000000e+00 1701537140
-3.308395 -0.157036 0.627665 0.000000000000000e+00 1701537140
-3.304868 -0.078098 0.626995 0.000000000000000e+00 1701537140
-3.057715 0.000000 0.580106 0.000000000000000e+00 1701537140
-3.171808 0.074954 0.601751 0.000000000000000e+00 1851878480
-3.202875 0.152027 0.607646 0.000000000000000e+00 1851878480
-3.167305 0.225430 0.600897 0.000000000000000e+00 1851878480
-3.357163 0.318795 0.636917 0.000000000000000e+00 1851878480
-3.570357 0.424973 0.677364 0.000000000000000e+00 1851878480
-4.256894 0.608939 0.807613 0.000000000000000e+00 1634431585
-3.170177 -0.530437 0.611353 0.000000000000000e+00 1701537140
-3.301817 -0.472590 0.636739 0.000000000000000e+00 1701537140
-3.209677 -0.381684 0.618970 0.000000000000000e+00 1701537140
-3.187771 -0.302884 0.614746 0.000000000000000e+00 1701537140
-3.161513 -0.225148 0.609682 0.000000000000000e+00 1701537140
-3.405171 -0.161723 0.656671 0.000000000000000e+00 1701537140
-3.303603 -0.078113 0.637084 0.000000000000000e+00 1701537140
-3.095321 0.000000 0.596917 0.000000000000000e+00 1701537140
-3.177426 0.075130 0.612751 0.000000000000000e+00 1851878480
-3.218262 0.152846 0.620626 0.000000000000000e+00 1851878480
-3.155921 0.224750 0.608604 0.000000000000000e+00 1851878480
-3.391878 0.322277 0.654107 0.000000000000000e+00 1851878480
-3.555791 0.423484 0.685717 0.000000000000000e+00 1851878480
-4.219505 0.603939 0.813711 0.000000000000000e+00 1634431585
-3.180317 -0.532446 0.623261 0.000000000000000e+00 1701537140
-3.111558 -0.445619 0.609786 0.000000000000000e+00 1701537140
-3.209432 -0.381879 0.628967 0.000000000000000e+00 1701537140
-3.179268 -0.302253 0.623056 0.000000000000000e+00 1701537140
-3.161990 -0.225314 0.619670 0.000000000000000e+00 1701537140
-3.393956 -0.161285 0.665129 0.000000000000000e+00 1701537140
-3.278099 -0.077556 0.642424 0.000000000000000e+00 1701537140
-3.100781 0.000000 0.607674 0.000000000000000e+00 1701537140
-3.172555 0.075058 0.621740 0.000000000000000e+00 1851878480
-3.226777 0.153340 0.632366 0.000000000000000e+00 1851878480
-3.182023 0.226741 0.623596 0.000000000000000e+00 1851878480
-3.378850 0.321227 0.662169 0.000000000000000e+00 1851878480
-3.554371 0.423563 0.696566 0.000000000000000e+00 1851878480
-4.204309 0.602117 0.823938 0.000000000000000e+00 1634431585
-3.171009 -0.531204 0.631374 0.000000000000000e+00 1701537140
-3.103583 -0.444742 0.617949 0.000000000000000e+00 1701537140
-3.219836 -0.383345 0.641096 0.000000000000000e+00 1701537140
-3.188662 -0.303327 0.634889 0.000000000000000e+00 1701537140
-3.170909 -0.226084 0.631354 0.000000000000000e+00 1701537140
-3.191520 -0.151755 0.635458 0.000000000000000e+00 1701537140
-3.272222 -0.077463 0.651526 0.000000000000000e+00 1701537140
-3.094054 0.000000 0.616052 0.000000000000000e+00 1701537140
-3.177958 0.075231 0.632758 0.000000000000000e+00 1851878480
-3.227904 0.153485 0.642702 0.000000000000000e+00 1851878480
-3.186769 0.227215 0.634512 0.000000000000000e+00 1851878480
-3.391032 0.322578 0.675183 0.000000000000000e+00 1851878480
-3.556915 0.424118 0.708211 0.000000000000000e+00 1851878480
-4.153562 0.595204 0.827008 0.000000000000000e+00 1634431585
-3.187560 -0.534300 0.644670 0.000000000000000e+00 1701537140
-3.102112 -0.444800 0.627389 0.000000000000000e+00 1701537140
-3.212077 -0.382653 0.649629 0.000000000000000e+00 1701537140
-3.190519 -0.303687 0.645269 0.000000000000000e+00 1701537140
-3.368931 -0.240348 0.681352 0.000000000000000e+00 1701537140
-3.171250 -0.150882 0.641372 0.000000000000000e+00 1701537140
-3.262253 -0.077273 0.659777 0.000000000000000e+00 1701537140
-3.106518 0.000000 0.628280 0.000000000000000e+00 1701537140
-3.143410 0.074458 0.635741 0.000000000000000e+00 1851878480
-3.248941 0.154579 0.657084 0.000000000000000e+00 1851878480
-3.194051 0.227872 0.645983 0.000000000000000e+00 1851878480
-3.399525 0.323581 0.687539 0.000000000000000e+00 1851878480
-3.583535 0.427551 0.724755 0.000000000000000e+00 1851878480
-4.110318 0.589363 0.831294 0.000000000000000e+00 1634431585
-3.175576 -0.532619 0.652222 0.000000000000000e+00 1701537140
-3.091673 -0.443576 0.634990 0.000000000000000e+00 1701537140
-3.207989 -0.382401 0.658879 0.000000000000000e+00 1701537140
-3.216787 -0.306376 0.660686 0.000000000000000e+00 1701537140
-3.446175 -0.246010 0.707800 0.000000000000000e+00 1701537140
-3.140499 -0.149511 0.645018 0.000000000000000e+00 1701537140
-3.177158 -0.075304 0.652547 0.000000000000000e+00 1701537140
-3.091915 0.000000 0.635039 0.000000000000000e+00 1701537140
-3.144391 0.074527 0.645817 0.000000000000000e+00 1851878480
-3.269169 0.155637 0.671445 0.000000000000000e+00 1851878480
-3.202226 0.228596 0.657696 0.000000000000000e+00 1851878480
-3.395931 0.323438 0.697480 0.000000000000000e+00 1851878480
-3.569809 0.426176 0.733192 0.000000000000000e+00 1851878480
-4.081141 0.585540 0.838213 0.000000000000000e+00 1634431585
-3.193559 -0.535969 0.665960 0.000000000000000e+00 1701537140
-3.081791 -0.442435 0.642653 0.000000000000000e+00 1701537140
-3.445911 -0.411018 0.718583 0.000000000000000e+00 1701537140
-3.212870 -0.306194 0.669987 0.000000000000000e+00 1701537140
-3.412200 -0.243737 0.711554 0.000000000000000e+00 1701537140
-3.153727 -0.150235 0.657654 0.000000000000000e+00 1701537140
-3.169078 -0.075159 0.660855 0.000000000000000e+00 1701537140
-3.104315 0.000000 0.647350 0.000000000000000e+00 1701537140
-3.107569 0.073701 0.648028 0.000000000000000e+00 1851878480
-3.266797 0.155621 0.681232 0.000000000000000e+00 1851878480
-3.186253 0.227597 0.664436 0.000000000000000e+00 1851878480
-3.387709 0.322856 0.706446 0.000000000000000e+00 1851878480
-3.559724 0.425237 0.742317 0.000000000000000e+00 1851878480
-4.062560 0.583238 0.847175 0.000000000000000e+00 1634431585
-3.165440 -0.531587 0.670064 0.000000000000000e+00 1701537140
-3.136214 -0.450533 0.663878 0.000000000000000e+00 1701537140
-3.422189 -0.408448 0.724414 0.000000000000000e+00 1701537140
-3.218576 -0.306932 0.681312 0.000000000000000e+00 1701537140
-3.406380 -0.243475 0.721067 0.000000000000000e+00 1701537140
-3.146904 -0.150005 0.666141 0.000000000000000e+00 1701537140
-3.149416 -0.074740 0.666673 0.000000000000000e+00 1701537140
-3.109243 0.000000 0.658169 0.000000000000000e+00 1701537140
-3.127181 0.074213 0.661966 0.000000000000000e+00 1851878480
-3.271712 0.155954 0.692560 0.000000000000000e+00 1851878480
-3.207313 0.229247 0.678928 0.000000000000000e+00 1851878480
-3.387793 0.323069 0.717132 0.000000000000000e+00 1851878480
-3.563046 0.425903 0.754230 0.000000000000000e+00 1851878480
-4.019439 0.577413 0.850840 0.000000000000000e+00 1634431585
-3.193532 -0.536650 0.686081 0.000000000000000e+00 1701537140
-3.120435 -0.448555 0.670377 0.000000000000000e+00 1701537140
-3.412148 -0.407511 0.733047 0.000000000000000e+00 1701537140
-3.228046 -0.308033 0.693496 0.000000000000000e+00 1701537140
-3.422001 -0.244749 0.735164 0.000000000000000e+00 1701537140
-3.180959 -0.151726 0.683380 0.000000000000000e+00 1701537140
-3.134234 -0.074428 0.673342 0.000000000000000e+00 1701537140
-3.131976 0.000000 0.672857 0.000000000000000e+00 1701537140
-3.099745 0.073609 0.665932 0.000000000000000e+00 1851878480
-3.274882 0.156206 0.703557 0.000000000000000e+00 1851878480
-3.223818 0.230575 0.692587 0.000000000000000e+00 1851878480
-3.410096 0.325405 0.732606 0.000000000000000e+00 1851878480
-3.542666 0.423740 0.761087 0.000000000000000e+00 1851878480
-4.031796 0.579561 0.866169 0.000000000000000e+00 1634431585
-3.192787 -0.536875 0.696000 0.000000000000000e+00 1701537140
-3.111931 -0.447624 0.678374 0.000000000000000e+00 1701537140
-3.411772 -0.407732 0.743736 0.000000000000000e+00 1701537140
-3.219582 -0.307426 0.701841 0.000000000000000e+00 1701537140
-3.392610 -0.242806 0.739559 0.000000000000000e+00 1701537140
-3.192849 -0.152392 0.696013 0.000000000000000e+00 1701537140
-3.141373 -0.074646 0.684792 0.000000000000000e+00 1701537140
-3.149191 0.000000 0.686496 0.000000000000000e+00 1701537140
-3.113893 0.073993 0.678801 0.000000000000000e+00 1851878480
-3.286168 0.156846 0.716356 0.000000000000000e+00 1851878480
-3.246762 0.232367 0.707766 0.000000000000000e+00 1851878480
-3.422232 0.326776 0.746017 0.000000000000000e+00 1851878480
-3.583707 0.428929 0.781217 0.000000000000000e+00 1851878480
-4.008351 0.576567 0.873785 0.000000000000000e+00 1634431585
-3.197539 -0.538030 0.707144 0.000000000000000e+00 1701537140
-3.133055 -0.450961 0.692883 0.000000000000000e+00 1701537140
-3.389057 -0.405286 0.749499 0.000000000000000e+00 1701537140
-3.219414 -0.307614 0.711982 0.000000000000000e+00 1701537140
-3.388701 -0.242687 0.749420 0.000000000000000e+00 1701537140
-3.169222 -0.151365 0.700882 0.000000000000000e+00 1701537140
-3.142509 -0.074723 0.694974 0.000000000000000e+00 1701537140
-3.130051 0.000000 0.692219 0.000000000000000e+00 1701537140
-3.070684 0.073015 0.679090 0.000000000000000e+00 1851878480
-3.308317 0.158008 0.731643 0.000000000000000e+00 1851878480
-3.253733 0.233021 0.719572 0.000000000000000e+00 1851878480
-3.426951 0.327444 0.757879 0.000000000000000e+00 1851878480
-3.587762 0.429698 0.793443 0.000000000000000e+00 1851878480
-3.981567 0.573093 0.880534 0.000000000000000e+00 1634431585
-3.217542 -0.541759 0.721753 0.000000000000000e+00 1701537140
-3.155915 -0.454557 0.707929 0.000000000000000e+00 1701537140
-3.382742 -0.404803 0.758811 0.000000000000000e+00 1701537140
-3.233722 -0.309188 0.725383 0.000000000000000e+00 1701537140
-3.370623 -0.241554 0.756092 0.000000000000000e+00 1701537140
-3.153203 -0.150701 0.707321 0.000000000000000e+00 1701537140
-3.151915 -0.074997 0.707032 0.000000000000000e+00 1701537140
-3.145257 0.000000 0.705539 0.000000000000000e+00 1701537140
-3.079512 0.073274 0.690791 0.000000000000000e+00 1851878480
-3.291210 0.157297 0.738279 0.000000000000000e+00 1851878480
-3.243579 0.232450 0.727594 0.000000000000000e+00 1851878480
-3.436982 0.328623 0.770978 0.000000000000000e+00 1851878480
-3.579680 0.429018 0.802988 0.000000000000000e+00 1851878480
-3.987752 0.574369 0.894526 0.000000000000000e+00 1634431585
-3.220829 -0.542682 0.732701 0.000000000000000e+00 1701537140
-3.177811 -0.458023 0.722914 0.000000000000000e+00 1701537140
-3.358165 -0.402135 0.763943 0.000000000000000e+00 1701537140
-3.233878 -0.309414 0.735669 0.000000000000000e+00 1701537140
-3.350907 -0.240305 0.762292 0.000000000000000e+00 1701537140
-3.292755 -0.157478 0.749063 0.000000000000000e+00 1701537140
-3.154914 -0.075119 0.717706 0.000000000000000e+00 1701537140
-3.302947 0.000000 0.751381 0.000000000000000e+00 1851878480
-3.068382 0.073059 0.698021 0.000000000000000e+00 1851878480
-3.318827 0.158725 0.754994 0.000000000000000e+00 1851878480
-3.249489 0.233032 0.739220 0.000000000000000e+00 1851878480
-3.443059 0.329428 0.783255 0.000000000000000e+00 1851878480
-3.593759 0.430999 0.817538 0.000000000000000e+00 1851878480
-3.844594 0.554127 0.874600 0.000000000000000e+00 1851878480
-3.248064 -0.547650 0.749206 0.000000000000000e+00 1701537140
-3.154434 -0.454968 0.727610 0.000000000000000e+00 1701537140
-3.344906 -0.400824 0.771544 0.000000000000000e+00 1701537140
-3.248691 -0.311046 0.749351 0.000000000000000e+00 1701537140
-3.343934 -0.239971 0.771320 0.000000000000000e+00 1701537140
-3.262978 -0.156161 0.752647 0.000000000000000e+00 1701537140
-3.270015 -0.077914 0.754270 0.000000000000000e+00 1701537140
-3.283179 0.000000 0.757306 0.000000000000000e+00 1851878480
-3.084221 0.073487 0.711414 0.000000000000000e+00 1851878480
-3.350582 0.160354 0.772853 0.000000000000000e+00 1851878480
-3.266329 0.234401 0.753419 0.000000000000000e+00 1851878480
-3.443953 0.329741 0.794390 0.000000000000000e+00 1851878480
-3.590515 0.430908 0.828197 0.000000000000000e+00 1851878480
-3.851405 0.555493 0.888374 0.000000000000000e+00 1851878480
-3.161034 -0.456239 0.739180 0.000000000000000e+00 1701537140
-3.317272 -0.397792 0.775715 0.000000000000000e+00 1701537140
-3.369932 -0.322880 0.788029 0.000000000000000e+00 1701537140
-3.328965 -0.239064 0.778449 0.000000000000000e+00 1701537140
-3.260168 -0.156136 0.762361 0.000000000000000e+00 1701537140
-3.146530 -0.075024 0.735788 0.000000000000000e+00 1701537140
-3.274742 0.000000 0.765769 0.000000000000000e+00 1851878480
-3.079721 0.073431 0.720165 0.000000000000000e+00 1851878480
-3.333423 0.159645 0.779491 0.000000000000000e+00 1851878480
-3.262684 0.234304 0.762950 0.000000000000000e+00 1851878480
-3.450119 0.330563 0.806780 0.000000000000000e+00 1851878480
-3.589121 0.431042 0.839284 0.000000000000000e+00 1851878480
-3.859409 0.557037 0.902489 0.000000000000000e+00 1851878480
-3.166366 -0.457333 0.750506 0.000000000000000e+00 1701537140
-3.309275 -0.397115 0.784379 0.000000000000000e+00 1701537140
-3.340870 -0.320323 0.791867 0.000000000000000e+00 1701537140
-3.319230 -0.238534 0.786738 0.000000000000000e+00 1701537140
-3.222029 -0.154419 0.763699 0.000000000000000e+00 1701537140
-3.137106 -0.074852 0.743570 0.000000000000000e+00 1701537140
-3.263783 0.000000 0.773596 0.000000000000000e+00 1851878480
-3.111268 0.074236 0.737446 0.000000000000000e+00 1851878480
-3.340201 0.160083 0.791709 0.000000000000000e+00 1851878480
-3.278514 0.235608 0.777087 0.000000000000000e+00 1851878480
-3.453284 0.331102 0.818512 0.000000000000000e+00 1851878480
-3.589884 0.431440 0.850890 0.000000000000000e+00 1851878480
-3.837995 0.554340 0.909698 0.000000000000000e+00 1851878480
-3.147547 -0.454942 0.756077 0.000000000000000e+00 1701537140
-3.308453 -0.397302 0.794729 0.000000000000000e+00 1701537140
-3.312975 -0.317877 0.795815 0.000000000000000e+00 1701537140
-3.293907 -0.236884 0.791234 0.000000000000000e+00 1701537140
-3.217960 -0.154335 0.772991 0.000000000000000e+00 1701537140
-3.155958 -0.075356 0.758097 0.000000000000000e+00 1701537140
-3.244380 0.000000 0.779337 0.000000000000000e+00 1851878480
-3.095879 0.073922 0.743666 0.000000000000000e+00 1851878480
-3.358324 0.161067 0.806708 0.000000000000000e+00 1851878480
-3.285127 0.236253 0.789125 0.000000000000000e+00 1851878480
-3.469534 0.332899 0.833422 0.000000000000000e+00 1851878480
-3.618282 0.435166 0.869153 0.000000000000000e+00 1851878480
-3.853806 0.557024 0.925729 0.000000000000000e+00 1851878480
-3.158492 -0.456857 0.768789 0.000000000000000e+00 1701537140
-3.288929 -0.395245 0.800538 0.000000000000000e+00 1701537140
-3.309962 -0.317820 0.805658 0.000000000000000e+00 1701537140
-3.271835 -0.235469 0.796377 0.000000000000000e+00 1701537140
-3.221575 -0.154621 0.784144 0.000000000000000e+00 1701537140
-3.160196 -0.075513 0.769204 0.000000000000000e+00 1701537140
