# .PCD v0.7 - Point Cloud Data file format
VERSION 0.7
FIELDS x y z rgb label
SIZE 4 4 4 4 4
TYPE F F F F U
COUNT 1 1 1 1 1
WIDTH 776
HEIGHT 1
VIEWPOINT 0 0 0 1 0 0 0
POINTS 776
DATA ascii
3.312793 -0.646021 -0.884389 0.000000000000000e+00 1701537140
3.501770 -0.595951 -0.946162 0.000000000000000e+00 1701537140
3.595899 -0.523493 -0.971595 0.000000000000000e+00 1701537140
3.325824 -0.402267 -0.898622 0.000000000000000e+00 1701537140
3.333982 -0.322199 -0.900826 0.000000000000000e+00 1701537140
3.340708 -0.241982 -0.902644 0.000000000000000e+00 1701537140
3.347307 -0.161696 -0.904427 0.000000000000000e+00 1701537140
3.298254 -0.079322 -0.891173 0.000000000000000e+00 1701537140
3.295199 0.000000 -0.890347 0.000000000000000e+00 1851878480
3.366994 0.080975 -0.909746 0.000000000000000e+00 1851878480
3.777456 0.182475 -1.020651 0.000000000000000e+00 1851878480
3.969840 0.287553 -1.072632 0.000000000000000e+00 1851878480
4.256295 0.411332 -1.150031 0.000000000000000e+00 1851878480
3.318939 -0.647744 -0.896762 0.000000000000000e+00 1701537140
3.495030 -0.595291 -0.955661 0.000000000000000e+00 1701537140
3.586843 -0.522603 -0.980766 0.000000000000000e+00 1701537140
3.341700 -0.404518 -0.913735 0.000000000000000e+00 1701537140
3.332000 -0.322272 -0.911083 0.000000000000000e+00 1701537140
3.330526 -0.241442 -0.910680 0.000000000000000e+00 1701537140
3.334282 -0.161199 -0.911707 0.000000000000000e+00 1701537140
3.303963 -0.079524 -0.903416 0.000000000000000e+00 1701537140
3.301204 0.000000 -0.902662 0.000000000000000e+00 1851878480
3.374061 0.081211 -0.922583 0.000000000000000e+00 1851878480
3.772994 0.182409 -1.031665 0.000000000000000e+00 1851878480
3.961932 0.287215 -1.083328 0.000000000000000e+00 1851878480
4.243792 0.410460 -1.160398 0.000000000000000e+00 1851878480
3.324881 -0.649436 -0.909136 0.000000000000000e+00 1701537140
3.488152 -0.594613 -0.965096 0.000000000000000e+00 1701537140
3.577627 -0.521693 -0.989851 0.000000000000000e+00 1701537140
3.346753 -0.405466 -0.925974 0.000000000000000e+00 1701537140
3.340242 -0.323337 -0.924172 0.000000000000000e+00 1701537140
3.328497 -0.241496 -0.920923 0.000000000000000e+00 1701537140
3.327153 -0.160988 -0.920551 0.000000000000000e+00 1701537140
3.310203 -0.079741 -0.915861 0.000000000000000e+00 1701537140
3.307524 0.000000 -0.915120 0.000000000000000e+00 1851878480
3.381663 0.081462 -0.935632 0.000000000000000e+00 1851878480
3.768954 0.182365 -1.042787 0.000000000000000e+00 1851878480
3.954181 0.286891 -1.094036 0.000000000000000e+00 1851878480
4.231725 0.409633 -1.170826 0.000000000000000e+00 1851878480
3.330981 -0.651168 -0.921610 0.000000000000000e+00 1701537140
3.480908 -0.593876 -0.974403 0.000000000000000e+00 1701537140
3.388757 -0.494567 -0.948607 0.000000000000000e+00 1701537140
3.351275 -0.406355 -0.938115 0.000000000000000e+00 1701537140
3.346286 -0.324194 -0.936719 0.000000000000000e+00 1701537140
3.348710 -0.243166 -0.937397 0.000000000000000e+00 1701537140
3.328242 -0.161176 -0.931668 0.000000000000000e+00 1701537140
3.316715 -0.079964 -0.928441 0.000000000000000e+00 1701537140
3.313949 0.000000 -0.927667 0.000000000000000e+00 1851878480
3.389522 0.081720 -0.948821 0.000000000000000e+00 1851878480
3.765144 0.182334 -1.053969 0.000000000000000e+00 1851878480
3.946682 0.286588 -1.104786 0.000000000000000e+00 1851878480
4.220092 0.408850 -1.181321 0.000000000000000e+00 1851878480
3.337308 -0.652952 -0.934205 0.000000000000000e+00 1701537140
3.473535 -0.593122 -0.983645 0.000000000000000e+00 1701537140
3.373239 -0.492720 -0.955243 0.000000000000000e+00 1701537140
3.605260 -0.437523 -1.020947 0.000000000000000e+00 1701537140
3.616030 -0.350625 -1.023997 0.000000000000000e+00 1701537140
3.342564 -0.242926 -0.946556 0.000000000000000e+00 1701537140
3.366852 -0.163184 -0.953434 0.000000000000000e+00 1701537140
3.323851 -0.080205 -0.941257 0.000000000000000e+00 1701537140
3.320617 0.000000 -0.940342 0.000000000000000e+00 1851878480
3.398096 0.081996 -0.962282 0.000000000000000e+00 1851878480
3.761376 0.182306 -1.065157 0.000000000000000e+00 1851878480
3.939255 0.286291 -1.115529 0.000000000000000e+00 1851878480
4.209129 0.408134 -1.191953 0.000000000000000e+00 1851878480
3.344640 -0.654943 -0.947144 0.000000000000000e+00 1701537140
3.437578 -0.587486 -0.984672 0.000000000000000e+00 1701537140
3.362859 -0.491626 -0.963269 0.000000000000000e+00 1701537140
3.594697 -0.436616 -1.029677 0.000000000000000e+00 1701537140
3.604865 -0.349842 -1.032590 0.000000000000000e+00 1701537140
3.574459 -0.260003 -1.023880 0.000000000000000e+00 1701537140
3.358511 -0.162920 -0.962023 0.000000000000000e+00 1701537140
3.331431 -0.080457 -0.954266 0.000000000000000e+00 1701537140
3.327482 0.000000 -0.953135 0.000000000000000e+00 1851878480
3.406861 0.082278 -0.975873 0.000000000000000e+00 1851878480
3.758007 0.182299 -1.076456 0.000000000000000e+00 1851878480
3.932095 0.286017 -1.126323 0.000000000000000e+00 1851878480
4.198472 0.407450 -1.202624 0.000000000000000e+00 1851878480
3.354558 -0.657449 -0.960891 0.000000000000000e+00 1701537140
3.422221 -0.585370 -0.991450 0.000000000000000e+00 1701537140
3.361237 -0.491816 -0.973783 0.000000000000000e+00 1701537140
3.584178 -0.435717 -1.038371 0.000000000000000e+00 1701537140
3.416852 -0.331885 -0.989895 0.000000000000000e+00 1701537140
3.563153 -0.259405 -1.032279 0.000000000000000e+00 1701537140
3.356230 -0.162951 -0.972332 0.000000000000000e+00 1701537140
3.340031 -0.080734 -0.967639 0.000000000000000e+00 1701537140
3.334592 0.000000 -0.966063 0.000000000000000e+00 1851878480
3.416078 0.082573 -0.989670 0.000000000000000e+00 1851878480
3.754618 0.182293 -1.087749 0.000000000000000e+00 1851878480
3.925042 0.285752 -1.137122 0.000000000000000e+00 1851878480
4.188075 0.406795 -1.213325 0.000000000000000e+00 1851878480
3.368710 -0.660797 -0.975948 0.000000000000000e+00 1701537140
3.407252 -0.583322 -0.998262 0.000000000000000e+00 1701537140
3.405809 -0.498776 -0.997839 0.000000000000000e+00 1701537140
3.573628 -0.434816 -1.047006 0.000000000000000e+00 1701537140
3.407090 -0.331227 -0.998214 0.000000000000000e+00 1701537140
3.551799 -0.258806 -1.040611 0.000000000000000e+00 1701537140
3.366132 -0.163575 -0.986214 0.000000000000000e+00 1701537140
3.349911 -0.081044 -0.981462 0.000000000000000e+00 1701537140
3.342037 0.000000 -0.979155 0.000000000000000e+00 1851878480
3.425741 0.082879 -1.003679 0.000000000000000e+00 1851878480
3.751251 0.182290 -1.099047 0.000000000000000e+00 1851878480
3.918342 0.285515 -1.148002 0.000000000000000e+00 1851878480
4.178082 0.406181 -1.224100 0.000000000000000e+00 1851878480
3.385996 -0.664771 -0.992034 0.000000000000000e+00 1701537140
3.401646 -0.582880 -1.007769 0.000000000000000e+00 1701537140
3.392099 -0.497210 -1.004941 0.000000000000000e+00 1701537140
3.563023 -0.433911 -1.055578 0.000000000000000e+00 1701537140
3.397541 -0.330593 -1.006553 0.000000000000000e+00 1701537140
3.540499 -0.258212 -1.048905 0.000000000000000e+00 1701537140
3.417097 -0.166199 -1.012346 0.000000000000000e+00 1701537140
3.360898 -0.081382 -0.995697 0.000000000000000e+00 1701537140
3.349693 0.000000 -0.992378 0.000000000000000e+00 1851878480
3.435633 0.083192 -1.017838 0.000000000000000e+00 1851878480
3.748104 0.182299 -1.110410 0.000000000000000e+00 1851878480
3.911719 0.285286 -1.158883 0.000000000000000e+00 1851878480
4.168272 0.405587 -1.234889 0.000000000000000e+00 1851878480
3.403440 -0.583712 -1.019476 0.000000000000000e+00 1701537140
3.382634 -0.496268 -1.013243 0.000000000000000e+00 1701537140
3.552392 -0.433005 -1.064093 0.000000000000000e+00 1701537140
3.390845 -0.330238 -1.015703 0.000000000000000e+00 1701537140
3.529051 -0.257609 -1.057102 0.000000000000000e+00 1701537140
3.401123 -0.165571 -1.018782 0.000000000000000e+00 1701537140
3.373748 -0.081767 -1.010582 0.000000000000000e+00 1701537140
3.357909 0.000000 -1.005837 0.000000000000000e+00 1851878480
3.445751 0.083512 -1.032150 0.000000000000000e+00 1851878480
3.744959 0.182309 -1.121775 0.000000000000000e+00 1851878480
3.905644 0.285099 -1.169907 0.000000000000000e+00 1851878480
4.158640 0.405014 -1.245690 0.000000000000000e+00 1851878480
3.410094 -0.585384 -1.032687 0.000000000000000e+00 1701537140
3.379138 -0.496206 -1.023312 0.000000000000000e+00 1701537140
3.541616 -0.432084 -1.072516 0.000000000000000e+00 1701537140
3.387570 -0.330218 -1.025866 0.000000000000000e+00 1701537140
3.517573 -0.257004 -1.065235 0.000000000000000e+00 1701537140
3.393278 -0.165339 -1.027594 0.000000000000000e+00 1701537140
3.386704 -0.082156 -1.025603 0.000000000000000e+00 1701537140
3.366381 0.000000 -1.019449 0.000000000000000e+00 1851878480
3.456317 0.083844 -1.046685 0.000000000000000e+00 1851878480
3.741765 0.182319 -1.133128 0.000000000000000e+00 1851878480
3.899532 0.284911 -1.180904 0.000000000000000e+00 1851878480
4.149191 0.404461 -1.256509 0.000000000000000e+00 1851878480
3.398961 -0.584009 -1.040517 0.000000000000000e+00 1701537140
3.383644 -0.497324 -1.035828 0.000000000000000e+00 1701537140
3.530839 -0.431165 -1.080888 0.000000000000000e+00 1701537140
3.387230 -0.330489 -1.036925 0.000000000000000e+00 1701537140
3.505948 -0.256390 -1.073268 0.000000000000000e+00 1701537140
3.400050 -0.165821 -1.040850 0.000000000000000e+00 1701537140
3.498613 -0.084948 -1.071023 0.000000000000000e+00 1851878480
3.376627 0.000000 -1.033679 0.000000000000000e+00 1851878480
3.467534 0.084194 -1.061509 0.000000000000000e+00 1851878480
3.738661 0.182335 -1.144508 0.000000000000000e+00 1851878480
3.894002 0.284768 -1.192062 0.000000000000000e+00 1851878480
4.139835 0.403920 -1.267319 0.000000000000000e+00 1851878480
3.397956 -0.584379 -1.051428 0.000000000000000e+00 1701537140
3.458783 -0.508840 -1.070250 0.000000000000000e+00 1701537140
3.519935 -0.430233 -1.089172 0.000000000000000e+00 1701537140
3.388646 -0.330934 -1.048547 0.000000000000000e+00 1701537140
3.471876 -0.254134 -1.074301 0.000000000000000e+00 1701537140
3.538572 -0.172737 -1.094939 0.000000000000000e+00 1701537140
3.483824 -0.084668 -1.077998 0.000000000000000e+00 1851878480
3.389296 0.000000 -1.048748 0.000000000000000e+00 1851878480
3.480914 0.084597 -1.077098 0.000000000000000e+00 1851878480
3.728157 0.181992 -1.153602 0.000000000000000e+00 1851878480
3.888581 0.284636 -1.203242 0.000000000000000e+00 1851878480
4.130634 0.403396 -1.278140 0.000000000000000e+00 1851878480
3.401406 -0.585521 -1.063746 0.000000000000000e+00 1701537140
3.446529 -0.507513 -1.077858 0.000000000000000e+00 1701537140
3.490960 -0.427092 -1.091753 0.000000000000000e+00 1701537140
3.391848 -0.331557 -1.060757 0.000000000000000e+00 1701537140
3.456889 -0.253275 -1.081098 0.000000000000000e+00 1701537140
3.391419 -0.165709 -1.060623 0.000000000000000e+00 1701537140
3.469135 -0.084390 -1.084928 0.000000000000000e+00 1851878480
3.403448 0.000000 -1.064385 0.000000000000000e+00 1851878480
3.499380 0.085126 -1.094387 0.000000000000000e+00 1851878480
3.725672 0.182041 -1.165157 0.000000000000000e+00 1851878480
3.883534 0.284533 -1.214526 0.000000000000000e+00 1851878480
4.121660 0.402898 -1.288997 0.000000000000000e+00 1851878480
3.409710 -0.587507 -1.077643 0.000000000000000e+00 1701537140
3.435771 -0.506409 -1.085880 0.000000000000000e+00 1701537140
3.477493 -0.425848 -1.099066 0.000000000000000e+00 1701537140
3.399248 -0.332596 -1.074337 0.000000000000000e+00 1701537140
3.442142 -0.252433 -1.087894 0.000000000000000e+00 1701537140
3.392974 -0.165943 -1.072354 0.000000000000000e+00 1701537140
3.455199 -0.084131 -1.092020 0.000000000000000e+00 1851878480
3.418101 0.000000 -1.080295 0.000000000000000e+00 1851878480
3.516941 0.085634 -1.111534 0.000000000000000e+00 1851878480
3.723285 0.182097 -1.176749 0.000000000000000e+00 1851878480
3.878873 0.284462 -1.225923 0.000000000000000e+00 1851878480
4.112813 0.402414 -1.299860 0.000000000000000e+00 1851878480
3.442249 -0.593683 -1.099357 0.000000000000000e+00 1701537140
3.441285 -0.507708 -1.099049 0.000000000000000e+00 1701537140
3.464096 -0.424614 -1.106334 0.000000000000000e+00 1701537140
3.468447 -0.339692 -1.107724 0.000000000000000e+00 1701537140
3.431047 -0.251861 -1.095779 0.000000000000000e+00 1701537140
3.397828 -0.166339 -1.085170 0.000000000000000e+00 1701537140
3.441776 -0.083884 -1.099206 0.000000000000000e+00 1851878480
3.432771 0.000000 -1.096330 0.000000000000000e+00 1851878480
3.531178 0.086063 -1.127758 0.000000000000000e+00 1851878480
3.720983 0.182159 -1.188376 0.000000000000000e+00 1851878480
3.874264 0.284396 -1.237330 0.000000000000000e+00 1851878480
4.104302 0.401966 -1.310798 0.000000000000000e+00 1851878480
3.428103 -0.506253 -1.106243 0.000000000000000e+00 1701537140
3.451174 -0.423440 -1.113689 0.000000000000000e+00 1701537140
3.454844 -0.338688 -1.114873 0.000000000000000e+00 1701537140
3.438006 -0.252616 -1.109439 0.000000000000000e+00 1701537140
3.409003 -0.167048 -1.100080 0.000000000000000e+00 1701537140
3.429384 -0.083663 -1.106657 0.000000000000000e+00 1851878480
3.447022 0.000000 -1.112349 0.000000000000000e+00 1851878480
3.543195 0.086440 -1.143384 0.000000000000000e+00 1851878480
3.718811 0.182229 -1.200055 0.000000000000000e+00 1851878480
3.870183 0.284372 -1.248902 0.000000000000000e+00 1851878480
4.095969 0.401539 -1.321763 0.000000000000000e+00 1851878480
3.427466 -0.506654 -1.117463 0.000000000000000e+00 1701537140
3.451892 -0.423942 -1.125426 0.000000000000000e+00 1701537140
3.448418 -0.338389 -1.124294 0.000000000000000e+00 1701537140
3.425991 -0.251980 -1.116982 0.000000000000000e+00 1701537140
3.436051 -0.168538 -1.120262 0.000000000000000e+00 1701537140
3.419520 -0.083504 -1.114872 0.000000000000000e+00 1851878480
3.459852 0.000000 -1.128021 0.000000000000000e+00 1851878480
3.554123 0.086791 -1.158757 0.000000000000000e+00 1851878480
3.716235 0.182281 -1.211610 0.000000000000000e+00 1851878480
3.866112 0.284350 -1.260475 0.000000000000000e+00 1851878480
4.087876 0.401138 -1.332777 0.000000000000000e+00 1851878480
3.432868 -0.507954 -1.130689 0.000000000000000e+00 1701537140
3.442754 -0.423238 -1.133945 0.000000000000000e+00 1701537140
3.534350 -0.347164 -1.164114 0.000000000000000e+00 1701537140
3.424476 -0.252117 -1.127924 0.000000000000000e+00 1701537140
3.507110 -0.172194 -1.155142 0.000000000000000e+00 1851878480
3.424416 -0.083706 -1.127905 0.000000000000000e+00 1851878480
3.472141 0.000000 -1.143624 0.000000000000000e+00 1851878480
3.563543 0.087107 -1.173729 0.000000000000000e+00 1851878480
3.716686 0.182484 -1.224170 0.000000000000000e+00 1851878480
3.862252 0.284347 -1.272115 0.000000000000000e+00 1851878480
4.080123 0.400773 -1.343876 0.000000000000000e+00 1851878480
3.571744 -0.529031 -1.188383 0.000000000000000e+00 1851878480
3.439148 -0.423217 -1.144266 0.000000000000000e+00 1701537140
3.437821 -0.338020 -1.143825 0.000000000000000e+00 1701537140
3.429261 -0.252722 -1.140977 0.000000000000000e+00 1701537140
3.493575 -0.171701 -1.162375 0.000000000000000e+00 1851878480
3.437665 -0.084114 -1.143773 0.000000000000000e+00 1851878480
3.483442 0.000000 -1.159004 0.000000000000000e+00 1851878480
3.572834 0.087422 -1.188746 0.000000000000000e+00 1851878480
3.718835 0.182772 -1.237323 0.000000000000000e+00 1851878480
3.858541 0.284358 -1.283805 0.000000000000000e+00 1851878480
4.072491 0.400423 -1.354991 0.000000000000000e+00 1851878480
3.559196 -0.527705 -1.196143 0.000000000000000e+00 1851878480
3.443254 -0.424150 -1.157178 0.000000000000000e+00 1701537140
3.439964 -0.338572 -1.156072 0.000000000000000e+00 1701537140
3.459214 -0.255187 -1.162542 0.000000000000000e+00 1701537140
3.480120 -0.171212 -1.169568 0.000000000000000e+00 1851878480
3.451725 -0.084543 -1.160025 0.000000000000000e+00 1851878480
3.493681 0.000000 -1.174125 0.000000000000000e+00 1851878480
3.581479 0.087721 -1.203631 0.000000000000000e+00 1851878480
3.721587 0.183091 -1.250718 0.000000000000000e+00 1851878480
3.854828 0.284371 -1.295496 0.000000000000000e+00 1851878480
4.065372 0.400126 -1.366254 0.000000000000000e+00 1851878480
3.547902 -0.526566 -1.204268 0.000000000000000e+00 1851878480
3.550903 -0.437856 -1.205287 0.000000000000000e+00 1851878480
3.463208 -0.341207 -1.175521 0.000000000000000e+00 1701537140
3.523300 -0.260179 -1.195918 0.000000000000000e+00 1851878480
3.468394 -0.170809 -1.177281 0.000000000000000e+00 1851878480
3.465503 -0.084967 -1.176300 0.000000000000000e+00 1851878480
3.503739 0.000000 -1.189278 0.000000000000000e+00 1851878480
3.590036 0.088021 -1.218570 0.000000000000000e+00 1851878480
3.724804 0.183436 -1.264315 0.000000000000000e+00 1851878480
3.851307 0.284401 -1.307253 0.000000000000000e+00 1851878480
4.058419 0.399849 -1.377554 0.000000000000000e+00 1851878480
3.545213 -0.526709 -1.215292 0.000000000000000e+00 1851878480
3.538199 -0.436739 -1.212887 0.000000000000000e+00 1851878480
3.534606 -0.348599 -1.211655 0.000000000000000e+00 1851878480
3.509948 -0.259460 -1.203203 0.000000000000000e+00 1851878480
3.462753 -0.170707 -1.187024 0.000000000000000e+00 1851878480
3.477550 -0.085351 -1.192097 0.000000000000000e+00 1851878480
3.513269 0.000000 -1.204341 0.000000000000000e+00 1851878480
3.598538 0.088320 -1.233571 0.000000000000000e+00 1851878480
3.728464 0.183806 -1.278110 0.000000000000000e+00 1851878480
3.841747 0.283987 -1.316943 0.000000000000000e+00 1851878480
4.051959 0.399623 -1.389003 0.000000000000000e+00 1851878480
3.551747 -0.528228 -1.229515 0.000000000000000e+00 1851878480
3.526687 -0.435770 -1.220840 0.000000000000000e+00 1851878480
3.522009 -0.347718 -1.219220 0.000000000000000e+00 1851878480
3.497939 -0.258841 -1.210888 0.000000000000000e+00 1851878480
3.477714 -0.171622 -1.203887 0.000000000000000e+00 1851878480
3.489415 -0.085731 -1.207937 0.000000000000000e+00 1851878480
3.522247 0.000000 -1.219303 0.000000000000000e+00 1851878480
3.607025 0.088620 -1.248650 0.000000000000000e+00 1851878480
3.733097 0.184225 -1.292293 0.000000000000000e+00 1851878480
3.838527 0.284044 -1.328790 0.000000000000000e+00 1851878480
4.045715 0.399422 -1.400512 0.000000000000000e+00 1851878480
3.560337 -0.530061 -1.244525 0.000000000000000e+00 1851878480
3.524254 -0.435927 -1.231912 0.000000000000000e+00 1851878480
3.510967 -0.346992 -1.227268 0.000000000000000e+00 1851878480
3.488979 -0.258449 -1.219582 0.000000000000000e+00 1851878480
3.491543 -0.172486 -1.220478 0.000000000000000e+00 1851878480
3.500366 -0.086090 -1.223562 0.000000000000000e+00 1851878480
3.531245 0.000000 -1.234356 0.000000000000000e+00 1851878480
3.615536 0.088923 -1.263820 0.000000000000000e+00 1851878480
3.744047 0.184960 -1.308741 0.000000000000000e+00 1851878480
3.836862 0.284219 -1.341185 0.000000000000000e+00 1851878480
4.039938 0.399271 -1.412171 0.000000000000000e+00 1851878480
3.574570 -0.532745 -1.261611 0.000000000000000e+00 1851878480
3.530182 -0.437123 -1.245945 0.000000000000000e+00 1851878480
3.510832 -0.347346 -1.239116 0.000000000000000e+00 1851878480
3.496670 -0.259293 -1.234117 0.000000000000000e+00 1851878480
3.504668 -0.173318 -1.236940 0.000000000000000e+00 1851878480
3.511373 -0.086452 -1.239306 0.000000000000000e+00 1851878480
3.539721 0.000000 -1.249312 0.000000000000000e+00 1851878480
3.624261 0.089232 -1.279149 0.000000000000000e+00 1851878480
3.751627 0.185531 -1.324102 0.000000000000000e+00 1851878480
3.838016 0.284605 -1.354592 0.000000000000000e+00 1851878480
4.034320 0.399138 -1.423876 0.000000000000000e+00 1851878480
3.582613 -0.534515 -1.276614 0.000000000000000e+00 1851878480
3.551558 -0.440240 -1.265548 0.000000000000000e+00 1851878480
3.516240 -0.348254 -1.252962 0.000000000000000e+00 1851878480
3.506075 -0.260269 -1.249340 0.000000000000000e+00 1851878480
3.517601 -0.174143 -1.253448 0.000000000000000e+00 1851878480
3.522182 -0.086811 -1.255080 0.000000000000000e+00 1851878480
3.548158 0.000000 -1.264336 0.000000000000000e+00 1851878480
3.633091 0.089545 -1.294601 0.000000000000000e+00 1851878480
3.758419 0.186065 -1.339260 0.000000000000000e+00 1851878480
3.839932 0.285052 -1.368306 0.000000000000000e+00 1851878480
4.028925 0.399031 -1.435651 0.000000000000000e+00 1851878480
3.590065 -0.536205 -1.291484 0.000000000000000e+00 1851878480
3.571199 -0.443153 -1.284697 0.000000000000000e+00 1851878480
3.539753 -0.350961 -1.273385 0.000000000000000e+00 1851878480
3.523968 -0.261880 -1.267707 0.000000000000000e+00 1851878480
3.530332 -0.174962 -1.269996 0.000000000000000e+00 1851878480
3.532761 -0.087166 -1.270870 0.000000000000000e+00 1851878480
3.556214 0.000000 -1.279307 0.000000000000000e+00 1851878480
3.642036 0.089862 -1.310180 0.000000000000000e+00 1851878480
3.765297 0.186607 -1.354522 0.000000000000000e+00 1851878480
3.842429 0.285546 -1.382269 0.000000000000000e+00 1851878480
4.023686 0.398942 -1.447474 0.000000000000000e+00 1851878480
3.597271 -0.537867 -1.306343 0.000000000000000e+00 1851878480
3.582379 -0.445026 -1.300935 0.000000000000000e+00 1851878480
3.557565 -0.353112 -1.291924 0.000000000000000e+00 1851878480
3.540782 -0.263416 -1.285830 0.000000000000000e+00 1851878480
3.542573 -0.175761 -1.286480 0.000000000000000e+00 1851878480
3.543113 -0.087517 -1.286676 0.000000000000000e+00 1851878480
3.564029 0.000000 -1.294271 0.000000000000000e+00 1851878480
3.651129 0.090185 -1.325901 0.000000000000000e+00 1851878480
3.772237 0.187155 -1.369882 0.000000000000000e+00 1851878480
3.845564 0.286090 -1.396510 0.000000000000000e+00 1851878480
4.018518 0.398864 -1.459318 0.000000000000000e+00 1851878480
3.604493 -0.539541 -1.321284 0.000000000000000e+00 1851878480
3.593450 -0.446892 -1.317236 0.000000000000000e+00 1851878480
3.569325 -0.354669 -1.308392 0.000000000000000e+00 1851878480
3.553228 -0.264633 -1.302492 0.000000000000000e+00 1851878480
3.553666 -0.176505 -1.302652 0.000000000000000e+00 1851878480
3.552792 -0.087853 -1.302332 0.000000000000000e+00 1851878480
3.571649 0.000000 -1.309244 0.000000000000000e+00 1851878480
3.660302 0.090511 -1.341741 0.000000000000000e+00 1851878480
3.779298 0.187712 -1.385361 0.000000000000000e+00 1851878480
3.850034 0.286738 -1.411291 0.000000000000000e+00 1851878480
4.013402 0.398795 -1.471176 0.000000000000000e+00 1851878480
3.611684 -0.541218 -1.336290 0.000000000000000e+00 1851878480
3.604582 -0.448775 -1.333662 0.000000000000000e+00 1851878480
3.581174 -0.356242 -1.325001 0.000000000000000e+00 1851878480
3.565125 -0.265814 -1.319064 0.000000000000000e+00 1851878480
3.564174 -0.177224 -1.318712 0.000000000000000e+00 1851878480
3.561694 -0.088171 -1.317794 0.000000000000000e+00 1851878480
3.579141 0.000000 -1.324249 0.000000000000000e+00 1851878480
3.669491 0.090839 -1.357678 0.000000000000000e+00 1851878480
3.793730 0.188638 -1.403645 0.000000000000000e+00 1851878480
3.851134 0.287139 -1.424884 0.000000000000000e+00 1851878480
3.999176 0.397823 -1.479658 0.000000000000000e+00 1851878480
3.618886 -0.542905 -1.351377 0.000000000000000e+00 1851878480
3.615788 -0.450675 -1.350220 0.000000000000000e+00 1851878480
3.593197 -0.357839 -1.341784 0.000000000000000e+00 1851878480
3.577639 -0.267047 -1.335974 0.000000000000000e+00 1851878480
3.574759 -0.177949 -1.334898 0.000000000000000e+00 1851878480
3.570464 -0.088487 -1.333295 0.000000000000000e+00 1851878480
3.586567 0.000000 -1.339308 0.000000000000000e+00 1851878480
3.678712 0.091169 -1.373717 0.000000000000000e+00 1851878480
3.802967 0.189309 -1.420117 0.000000000000000e+00 1851878480
3.866824 0.288632 -1.443963 0.000000000000000e+00 1851878480
3.993691 0.397723 -1.491338 0.000000000000000e+00 1851878480
3.626094 -0.544603 -1.366544 0.000000000000000e+00 1851878480
3.626527 -0.452525 -1.366707 0.000000000000000e+00 1851878480
3.605043 -0.359425 -1.358611 0.000000000000000e+00 1851878480
3.590377 -0.268301 -1.353083 0.000000000000000e+00 1851878480
3.585406 -0.178681 -1.351210 0.000000000000000e+00 1851878480
3.579049 -0.088800 -1.348814 0.000000000000000e+00 1851878480
3.593875 0.000000 -1.354401 0.000000000000000e+00 1851878480
3.687984 0.091503 -1.389868 0.000000000000000e+00 1851878480
3.812223 0.189985 -1.436689 0.000000000000000e+00 1851878480
3.876804 0.289705 -1.461027 0.000000000000000e+00 1851878480
3.994918 0.398296 -1.505540 0.000000000000000e+00 1851878480
3.633316 -0.546311 -1.381794 0.000000000000000e+00 1851878480
3.637247 -0.454381 -1.383289 0.000000000000000e+00 1851878480
3.615904 -0.360920 -1.375171 0.000000000000000e+00 1851878480
3.602360 -0.269504 -1.370020 0.000000000000000e+00 1851878480
3.596030 -0.179416 -1.367613 0.000000000000000e+00 1851878480
3.587393 -0.089109 -1.364328 0.000000000000000e+00 1851878480
3.601278 0.000000 -1.369609 0.000000000000000e+00 1851878480
3.658177 0.090867 -1.391249 0.000000000000000e+00 1768716611
3.647728 0.181995 -1.387275 0.000000000000000e+00 1768716611
3.886836 0.290786 -1.478210 0.000000000000000e+00 1851878480
4.000603 0.399318 -1.521477 0.000000000000000e+00 1851878480
3.640570 -0.548032 -1.397135 0.000000000000000e+00 1851878480
3.648239 -0.456280 -1.400078 0.000000000000000e+00 1851878480
3.626430 -0.362388 -1.391708 0.000000000000000e+00 1851878480
3.612624 -0.270583 -1.386410 0.000000000000000e+00 1851878480
3.605905 -0.180116 -1.383831 0.000000000000000e+00 1851878480
3.595722 -0.089419 -1.379923 0.000000000000000e+00 1851878480
3.608666 0.000000 -1.384891 0.000000000000000e+00 1851878480
3.648788 0.090738 -1.400289 0.000000000000000e+00 1768716611
3.633785 0.181508 -1.394531 0.000000000000000e+00 1768716611
3.896995 0.291882 -1.495543 0.000000000000000e+00 1851878480
4.006273 0.400345 -1.537480 0.000000000000000e+00 1851878480
3.647908 -0.549776 -1.412588 0.000000000000000e+00 1851878480
3.659096 -0.458170 -1.416920 0.000000000000000e+00 1851878480
3.636802 -0.363847 -1.408287 0.000000000000000e+00 1851878480
3.622653 -0.271650 -1.402808 0.000000000000000e+00 1851878480
3.615358 -0.180798 -1.399983 0.000000000000000e+00 1851878480
3.604047 -0.089730 -1.395603 0.000000000000000e+00 1851878480
3.616144 0.000000 -1.400288 0.000000000000000e+00 1851878480
3.643929 0.090723 -1.411047 0.000000000000000e+00 1768716611
3.623892 0.181225 -1.403287 0.000000000000000e+00 1768716611
3.907181 0.292986 -1.512986 0.000000000000000e+00 1851878480
4.011774 0.401361 -1.553488 0.000000000000000e+00 1851878480
3.655296 -0.551536 -1.428140 0.000000000000000e+00 1851878480
3.669728 -0.460041 -1.433779 0.000000000000000e+00 1851878480
3.646967 -0.365292 -1.424886 0.000000000000000e+00 1851878480
3.632425 -0.272702 -1.419205 0.000000000000000e+00 1851878480
3.624652 -0.181476 -1.416167 0.000000000000000e+00 1851878480
3.612439 -0.090044 -1.411396 0.000000000000000e+00 1851878480
3.623670 0.000000 -1.415784 0.000000000000000e+00 1851878480
3.642244 0.090787 -1.423041 0.000000000000000e+00 1768716611
3.615423 0.181013 -1.412562 0.000000000000000e+00 1768716611
3.917516 0.294106 -1.530591 0.000000000000000e+00 1851878480
4.017292 0.402385 -1.569574 0.000000000000000e+00 1851878480
3.662738 -0.553313 -1.443796 0.000000000000000e+00 1851878480
3.680054 -0.461882 -1.450622 0.000000000000000e+00 1851878480
3.656894 -0.366720 -1.441492 0.000000000000000e+00 1851878480
3.641949 -0.273741 -1.435601 0.000000000000000e+00 1851878480
3.633793 -0.182149 -1.432386 0.000000000000000e+00 1851878480
3.620768 -0.090359 -1.427252 0.000000000000000e+00 1851878480
3.631300 0.000000 -1.431404 0.000000000000000e+00 1851878480
3.643961 0.090938 -1.436394 0.000000000000000e+00 1768716611
3.607837 0.180848 -1.422155 0.000000000000000e+00 1768716611
3.927912 0.295235 -1.548324 0.000000000000000e+00 1851878480
4.023974 0.403532 -1.586190 0.000000000000000e+00 1851878480
3.670311 -0.555120 -1.459586 0.000000000000000e+00 1851878480
3.690073 -0.463693 -1.467445 0.000000000000000e+00 1851878480
3.666458 -0.368119 -1.458053 0.000000000000000e+00 1851878480
3.651328 -0.274774 -1.452036 0.000000000000000e+00 1851878480
3.642556 -0.182806 -1.448548 0.000000000000000e+00 1851878480
3.628994 -0.090672 -1.443155 0.000000000000000e+00 1851878480
3.638994 0.000000 -1.447132 0.000000000000000e+00 1851878480
3.651108 0.091225 -1.451949 0.000000000000000e+00 1768716611
3.601039 0.180723 -1.432038 0.000000000000000e+00 1768716611
3.938399 0.296377 -1.566197 0.000000000000000e+00 1851878480
4.031589 0.404779 -1.603256 0.000000000000000e+00 1851878480
3.677934 -0.556943 -1.475479 0.000000000000000e+00 1851878480
3.699673 -0.465459 -1.484200 0.000000000000000e+00 1851878480
3.675962 -0.369518 -1.474689 0.000000000000000e+00 1851878480
3.660220 -0.275775 -1.468373 0.000000000000000e+00 1851878480
3.651164 -0.183459 -1.464740 0.000000000000000e+00 1851878480
3.637045 -0.090983 -1.459076 0.000000000000000e+00 1851878480
3.646785 0.000000 -1.462983 0.000000000000000e+00 1851878480
3.753760 0.093903 -1.505898 0.000000000000000e+00 1851878480
3.594966 0.180635 -1.442195 0.000000000000000e+00 1768716611
3.948953 0.297530 -1.584204 0.000000000000000e+00 1851878480
4.040446 0.406157 -1.620909 0.000000000000000e+00 1851878480
3.685640 -0.558789 -1.491491 0.000000000000000e+00 1851878480
3.709130 -0.467216 -1.500997 0.000000000000000e+00 1851878480
3.684925 -0.370869 -1.491202 0.000000000000000e+00 1851878480
3.669029 -0.276775 -1.484769 0.000000000000000e+00 1851878480
3.659507 -0.184102 -1.480915 0.000000000000000e+00 1851878480
3.645032 -0.091294 -1.475058 0.000000000000000e+00 1851878480
3.654675 0.000000 -1.478960 0.000000000000000e+00 1851878480
3.763427 0.094259 -1.522969 0.000000000000000e+00 1851878480
3.589496 0.180580 -1.452584 0.000000000000000e+00 1768716611
3.959566 0.298692 -1.602342 0.000000000000000e+00 1851878480
4.049867 0.407599 -1.638885 0.000000000000000e+00 1851878480
3.693536 -0.560673 -1.507666 0.000000000000000e+00 1851878480
3.718326 -0.468949 -1.517785 0.000000000000000e+00 1851878480
3.693958 -0.372234 -1.507838 0.000000000000000e+00 1851878480
3.677393 -0.277746 -1.501077 0.000000000000000e+00 1851878480
3.667607 -0.184736 -1.497082 0.000000000000000e+00 1851878480
3.652877 -0.091602 -1.491069 0.000000000000000e+00 1851878480
3.662622 0.000000 -1.495047 0.000000000000000e+00 1851878480
3.773177 0.094619 -1.540174 0.000000000000000e+00 1851878480
3.584462 0.180548 -1.463143 0.000000000000000e+00 1768716611
3.970286 0.299868 -1.620633 0.000000000000000e+00 1851878480
4.060320 0.409152 -1.657384 0.000000000000000e+00 1851878480
3.701488 -0.562575 -1.523951 0.000000000000000e+00 1851878480
3.727505 -0.470688 -1.534663 0.000000000000000e+00 1851878480
3.702741 -0.373581 -1.524467 0.000000000000000e+00 1851878480
3.685782 -0.278724 -1.517485 0.000000000000000e+00 1851878480
3.675454 -0.185360 -1.513232 0.000000000000000e+00 1851878480
3.660659 -0.091911 -1.507141 0.000000000000000e+00 1851878480
3.670675 0.000000 -1.511265 0.000000000000000e+00 1851878480
3.783067 0.094984 -1.557538 0.000000000000000e+00 1851878480
3.579688 0.180530 -1.473804 0.000000000000000e+00 1768716611
3.981083 0.301055 -1.639064 0.000000000000000e+00 1851878480
4.057688 0.409393 -1.670603 0.000000000000000e+00 1851878480
3.709568 -0.564507 -1.540379 0.000000000000000e+00 1851878480
3.736585 -0.472424 -1.551597 0.000000000000000e+00 1851878480
3.711642 -0.374946 -1.541240 0.000000000000000e+00 1851878480
3.693991 -0.279694 -1.533911 0.000000000000000e+00 1851878480
3.683199 -0.185982 -1.529429 0.000000000000000e+00 1851878480
3.668277 -0.092217 -1.523233 0.000000000000000e+00 1851878480
3.678841 0.000000 -1.527619 0.000000000000000e+00 1851878480
3.793069 0.095354 -1.575052 0.000000000000000e+00 1851878480
3.575276 0.180533 -1.484614 0.000000000000000e+00 1768716611
3.992072 0.302263 -1.657687 0.000000000000000e+00 1851878480
4.069843 0.411131 -1.689981 0.000000000000000e+00 1851878480
3.717806 -0.566472 -1.556962 0.000000000000000e+00 1851878480
3.745732 -0.474176 -1.568657 0.000000000000000e+00 1851878480
3.720482 -0.376312 -1.558082 0.000000000000000e+00 1851878480
3.702276 -0.280674 -1.550458 0.000000000000000e+00 1851878480
3.690874 -0.186604 -1.545683 0.000000000000000e+00 1851878480
3.675943 -0.092526 -1.539430 0.000000000000000e+00 1851878480
3.687073 0.000000 -1.544091 0.000000000000000e+00 1851878480
3.803143 0.095728 -1.592699 0.000000000000000e+00 1851878480
3.571081 0.180548 -1.495515 0.000000000000000e+00 1768716611
4.003103 0.303480 -1.676440 0.000000000000000e+00 1851878480
4.084297 0.413111 -1.710443 0.000000000000000e+00 1851878480
3.726099 -0.568456 -1.573660 0.000000000000000e+00 1851878480
3.754938 -0.475945 -1.585839 0.000000000000000e+00 1851878480
3.729434 -0.377697 -1.575068 0.000000000000000e+00 1851878480
3.710610 -0.281663 -1.567118 0.000000000000000e+00 1851878480
3.698663 -0.187235 -1.562072 0.000000000000000e+00 1851878480
3.683597 -0.092837 -1.555709 0.000000000000000e+00 1851878480
3.695416 0.000000 -1.560701 0.000000000000000e+00 1851878480
3.813375 0.096107 -1.610519 0.000000000000000e+00 1851878480
3.567239 0.180582 -1.506568 0.000000000000000e+00 1768716611
4.014233 0.304710 -1.695349 0.000000000000000e+00 1851878480
4.098791 0.415103 -1.731060 0.000000000000000e+00 1851878480
3.734524 -0.570471 -1.590507 0.000000000000000e+00 1851878480
3.764224 -0.477733 -1.603156 0.000000000000000e+00 1851878480
3.738492 -0.379099 -1.592197 0.000000000000000e+00 1851878480
3.718999 -0.282661 -1.583895 0.000000000000000e+00 1851878480
3.706489 -0.187872 -1.578567 0.000000000000000e+00 1851878480
3.691295 -0.093150 -1.572096 0.000000000000000e+00 1851878480
3.703889 0.000000 -1.577460 0.000000000000000e+00 1851878480
3.823757 0.096492 -1.628511 0.000000000000000e+00 1851878480
3.564104 0.180655 -1.517926 0.000000000000000e+00 1768716611
4.025496 0.305956 -1.714430 0.000000000000000e+00 1851878480
4.111469 0.416920 -1.751045 0.000000000000000e+00 1851878480
3.743105 -0.572520 -1.607515 0.000000000000000e+00 1851878480
3.773699 -0.479553 -1.620654 0.000000000000000e+00 1851878480
3.747671 -0.380520 -1.609476 0.000000000000000e+00 1851878480
3.727615 -0.283681 -1.600863 0.000000000000000e+00 1851878480
3.714459 -0.188519 -1.595213 0.000000000000000e+00 1851878480
3.699173 -0.093469 -1.588648 0.000000000000000e+00 1851878480
3.712439 0.000000 -1.594345 0.000000000000000e+00 1851878480
3.834224 0.096881 -1.646647 0.000000000000000e+00 1851878480
3.561675 0.180765 -1.529598 0.000000000000000e+00 1768716611
4.036722 0.307205 -1.733612 0.000000000000000e+00 1851878480
4.123793 0.418709 -1.771006 0.000000000000000e+00 1851878480
3.751735 -0.574587 -1.624641 0.000000000000000e+00 1851878480
3.783325 -0.481402 -1.638321 0.000000000000000e+00 1851878480
3.756974 -0.381961 -1.626910 0.000000000000000e+00 1851878480
3.736352 -0.284716 -1.617980 0.000000000000000e+00 1851878480
3.722569 -0.189176 -1.612011 0.000000000000000e+00 1851878480
3.707100 -0.093791 -1.605312 0.000000000000000e+00 1851878480
3.721102 0.000000 -1.611376 0.000000000000000e+00 1851878480
3.844829 0.097276 -1.664954 0.000000000000000e+00 1851878480
3.560101 0.180920 -1.541656 0.000000000000000e+00 1768716611
4.048059 0.308469 -1.752961 0.000000000000000e+00 1851878480
4.135817 0.420477 -1.790963 0.000000000000000e+00 1851878480
3.760498 -0.576684 -1.641922 0.000000000000000e+00 1851878480
3.793010 -0.483268 -1.656117 0.000000000000000e+00 1851878480
3.766534 -0.383435 -1.644557 0.000000000000000e+00 1851878480
3.745154 -0.285761 -1.635222 0.000000000000000e+00 1851878480
3.730921 -0.189849 -1.629007 0.000000000000000e+00 1851878480
3.715080 -0.094116 -1.622091 0.000000000000000e+00 1851878480
3.729960 0.000000 -1.628588 0.000000000000000e+00 1851878480
3.855532 0.097675 -1.683415 0.000000000000000e+00 1851878480
3.559661 0.181135 -1.554231 0.000000000000000e+00 1768716611
4.059286 0.309730 -1.772379 0.000000000000000e+00 1851878480
4.147729 0.422241 -1.810996 0.000000000000000e+00 1851878480
3.769411 -0.578816 -1.659367 0.000000000000000e+00 1851878480
3.802972 -0.485178 -1.674141 0.000000000000000e+00 1851878480
3.776169 -0.384925 -1.662342 0.000000000000000e+00 1851878480
3.754422 -0.286848 -1.652768 0.000000000000000e+00 1851878480
3.739399 -0.190533 -1.646155 0.000000000000000e+00 1851878480
3.723437 -0.094453 -1.639128 0.000000000000000e+00 1851878480
3.738861 0.000000 -1.645918 0.000000000000000e+00 1851878480
3.866325 0.098078 -1.702030 0.000000000000000e+00 1851878480
3.560822 0.181434 -1.567542 0.000000000000000e+00 1768716611
4.070577 0.311003 -1.791946 0.000000000000000e+00 1851878480
4.159320 0.423981 -1.831012 0.000000000000000e+00 1851878480
3.778414 -0.580972 -1.676952 0.000000000000000e+00 1851878480
3.812989 -0.487105 -1.692297 0.000000000000000e+00 1851878480
3.786006 -0.386442 -1.680321 0.000000000000000e+00 1851878480
3.763768 -0.287945 -1.670452 0.000000000000000e+00 1851878480
3.748232 -0.191237 -1.663556 0.000000000000000e+00 1851878480
3.731804 -0.094791 -1.656265 0.000000000000000e+00 1851878480
3.747828 0.000000 -1.663377 0.000000000000000e+00 1851878480
3.877229 0.098485 -1.720808 0.000000000000000e+00 1851878480
3.563492 0.181812 -1.581564 0.000000000000000e+00 1768716611
4.081952 0.312288 -1.811669 0.000000000000000e+00 1851878480
4.168839 0.425519 -1.850232 0.000000000000000e+00 1851878480
3.787562 -0.583162 -1.694703 0.000000000000000e+00 1851878480
3.823159 -0.489061 -1.710631 0.000000000000000e+00 1851878480
3.796010 -0.387985 -1.698484 0.000000000000000e+00 1851878480
3.773305 -0.289063 -1.688325 0.000000000000000e+00 1851878480
3.757344 -0.191960 -1.681183 0.000000000000000e+00 1851878480
3.740283 -0.095135 -1.673549 0.000000000000000e+00 1851878480
3.756978 0.000000 -1.681019 0.000000000000000e+00 1851878480
3.888269 0.098899 -1.739764 0.000000000000000e+00 1851878480
3.568325 0.182303 -1.596608 0.000000000000000e+00 1768716611
4.093441 0.313588 -1.831566 0.000000000000000e+00 1851878480
4.179751 0.427206 -1.870185 0.000000000000000e+00 1851878480
3.796854 -0.585386 -1.712623 0.000000000000000e+00 1851878480
3.833520 -0.491052 -1.729162 0.000000000000000e+00 1851878480
3.806095 -0.389543 -1.716792 0.000000000000000e+00 1851878480
3.783126 -0.290208 -1.706431 0.000000000000000e+00 1851878480
3.766557 -0.192692 -1.698957 0.000000000000000e+00 1851878480
3.749165 -0.095490 -1.691112 0.000000000000000e+00 1851878480
3.766190 0.000000 -1.698792 0.000000000000000e+00 1851878480
3.899379 0.099316 -1.758868 0.000000000000000e+00 1851878480
4.018039 0.205557 -1.812392 0.000000000000000e+00 1851878480
4.105057 0.314904 -1.851642 0.000000000000000e+00 1851878480
4.208090 0.430686 -1.898117 0.000000000000000e+00 1851878480
3.806234 -0.587634 -1.730688 0.000000000000000e+00 1851878480
3.843977 -0.493064 -1.747849 0.000000000000000e+00 1851878480
3.816447 -0.391136 -1.735332 0.000000000000000e+00 1851878480
3.793030 -0.291366 -1.724684 0.000000000000000e+00 1851878480
3.776146 -0.193446 -1.717006 0.000000000000000e+00 1851878480
3.758107 -0.095848 -1.708804 0.000000000000000e+00 1851878480
3.775474 0.000000 -1.716701 0.000000000000000e+00 1851878480
3.910546 0.099736 -1.778118 0.000000000000000e+00 1851878480
4.028943 0.206397 -1.831953 0.000000000000000e+00 1851878480
4.116878 0.316243 -1.871937 0.000000000000000e+00 1851878480
4.222528 0.432754 -1.919976 0.000000000000000e+00 1851878480
3.815826 -0.589926 -1.748956 0.000000000000000e+00 1851878480
3.854671 -0.495117 -1.766760 0.000000000000000e+00 1851878480
3.826892 -0.392747 -1.754028 0.000000000000000e+00 1851878480
3.803171 -0.292547 -1.743155 0.000000000000000e+00 1851878480
3.785908 -0.194214 -1.735243 0.000000000000000e+00 1851878480
3.767153 -0.096211 -1.726647 0.000000000000000e+00 1851878480
3.784861 0.000000 -1.734763 0.000000000000000e+00 1851878480
3.921846 0.100162 -1.797549 0.000000000000000e+00 1851878480
4.040017 0.207249 -1.851712 0.000000000000000e+00 1851878480
4.128983 0.317609 -1.892488 0.000000000000000e+00 1851878480
4.237838 0.434922 -1.942382 0.000000000000000e+00 1851878480
3.825532 -0.592248 -1.767385 0.000000000000000e+00 1851878480
3.865491 -0.497196 -1.785846 0.000000000000000e+00 1851878480
3.837486 -0.394381 -1.772908 0.000000000000000e+00 1851878480
3.813505 -0.293750 -1.761829 0.000000000000000e+00 1851878480
3.795763 -0.194990 -1.753632 0.000000000000000e+00 1851878480
3.776470 -0.096583 -1.744718 0.000000000000000e+00 1851878480
3.794366 0.000000 -1.752986 0.000000000000000e+00 1851878480
3.933246 0.100593 -1.817149 0.000000000000000e+00 1851878480
4.051356 0.208120 -1.871715 0.000000000000000e+00 1851878480
4.141325 0.319001 -1.913281 0.000000000000000e+00 1851878480
4.253920 0.437178 -1.965299 0.000000000000000e+00 1851878480
3.835315 -0.594594 -1.785961 0.000000000000000e+00 1851878480
3.876462 -0.499305 -1.805122 0.000000000000000e+00 1851878480
3.848303 -0.396046 -1.792009 0.000000000000000e+00 1851878480
3.823925 -0.294965 -1.780657 0.000000000000000e+00 1851878480
3.806010 -0.195790 -1.772315 0.000000000000000e+00 1851878480
3.785896 -0.096960 -1.762948 0.000000000000000e+00 1851878480
3.803945 0.000000 -1.771353 0.000000000000000e+00 1851878480
3.944747 0.101028 -1.836919 0.000000000000000e+00 1851878480
4.062916 0.209006 -1.891946 0.000000000000000e+00 1851878480
4.153959 0.320422 -1.934341 0.000000000000000e+00 1851878480
4.271037 0.439552 -1.988860 0.000000000000000e+00 1851878480
3.845325 -0.596987 -1.804754 0.000000000000000e+00 1851878480
3.887597 -0.501446 -1.824594 0.000000000000000e+00 1851878480
3.859207 -0.397729 -1.811270 0.000000000000000e+00 1851878480
3.834629 -0.296208 -1.799734 0.000000000000000e+00 1851878480
3.816352 -0.196599 -1.791156 0.000000000000000e+00 1851878480
3.795461 -0.097342 -1.781351 0.000000000000000e+00 1851878480
3.813594 0.000000 -1.789862 0.000000000000000e+00 1851878480
3.956383 0.101469 -1.856878 0.000000000000000e+00 1851878480
4.074728 0.209909 -1.912422 0.000000000000000e+00 1851878480
4.166899 0.321874 -1.955681 0.000000000000000e+00 1851878480
4.289894 0.442115 -2.013407 0.000000000000000e+00 1851878480
3.855453 -0.599411 -1.823716 0.000000000000000e+00 1851878480
3.898769 -0.503602 -1.844206 0.000000000000000e+00 1851878480
3.870364 -0.399446 -1.830769 0.000000000000000e+00 1851878480
3.845459 -0.297467 -1.818989 0.000000000000000e+00 1851878480
3.826797 -0.197417 -1.810161 0.000000000000000e+00 1851878480
3.805213 -0.097731 -1.799951 0.000000000000000e+00 1851878480
3.823302 0.000000 -1.808508 0.000000000000000e+00 1851878480
3.968081 0.101914 -1.876992 0.000000000000000e+00 1851878480
4.086909 0.210836 -1.933200 0.000000000000000e+00 1851878480
4.180090 0.323352 -1.977277 0.000000000000000e+00 1851878480
4.310696 0.444891 -2.039056 0.000000000000000e+00 1851878480
3.865694 -0.601864 -1.842849 0.000000000000000e+00 1851878480
3.910165 -0.505798 -1.864049 0.000000000000000e+00 1851878480
3.881673 -0.401187 -1.850466 0.000000000000000e+00 1851878480
3.856431 -0.298743 -1.838432 0.000000000000000e+00 1851878480
3.837581 -0.198257 -1.829447 0.000000000000000e+00 1851878480
3.815057 -0.098124 -1.818709 0.000000000000000e+00 1851878480
3.833098 0.000000 -1.827309 0.000000000000000e+00 1851878480
3.979897 0.102364 -1.897291 0.000000000000000e+00 1851878480
4.099365 0.211782 -1.954244 0.000000000000000e+00 1851878480
4.193575 0.324860 -1.999156 0.000000000000000e+00 1851878480
4.337151 0.448263 -2.067601 0.000000000000000e+00 1851878480
3.876160 -0.604365 -1.862206 0.000000000000000e+00 1851878480
3.921717 -0.508025 -1.884092 0.000000000000000e+00 1851878480
3.893150 -0.402955 -1.870368 0.000000000000000e+00 1851878480
3.867660 -0.300046 -1.858122 0.000000000000000e+00 1851878480
3.848449 -0.199106 -1.848893 0.000000000000000e+00 1851878480
3.825104 -0.098525 -1.837677 0.000000000000000e+00 1851878480
3.842974 0.000000 -1.846262 0.000000000000000e+00 1851878480
3.991949 0.102822 -1.917833 0.000000000000000e+00 1851878480
4.112104 0.212747 -1.975559 0.000000000000000e+00 1851878480
4.207413 0.326403 -2.021348 0.000000000000000e+00 1851878480
4.374913 0.452819 -2.101819 0.000000000000000e+00 1851878480
3.886716 -0.606893 -1.881726 0.000000000000000e+00 1851878480
3.933467 -0.510289 -1.904360 0.000000000000000e+00 1851878480
3.904869 -0.404756 -1.890514 0.000000000000000e+00 1851878480
3.878982 -0.301362 -1.877982 0.000000000000000e+00 1851878480
3.859479 -0.199967 -1.868539 0.000000000000000e+00 1851878480
3.835297 -0.098931 -1.856832 0.000000000000000e+00 1851878480
3.852864 0.000000 -1.865337 0.000000000000000e+00 1851878480
4.004110 0.103286 -1.938561 0.000000000000000e+00 1851878480
4.125293 0.213740 -1.997231 0.000000000000000e+00 1851878480
4.221457 0.327969 -2.043789 0.000000000000000e+00 1851878480
3.897439 -0.609460 -1.901447 0.000000000000000e+00 1851878480
3.945361 -0.512583 -1.924827 0.000000000000000e+00 1851878480
3.916692 -0.406577 -1.910840 0.000000000000000e+00 1851878480
3.890548 -0.302704 -1.898085 0.000000000000000e+00 1851878480
3.870733 -0.200844 -1.888419 0.000000000000000e+00 1851878480
3.845576 -0.099342 -1.876145 0.000000000000000e+00 1851878480
3.862818 0.000000 -1.884557 0.000000000000000e+00 1851878480
4.016423 0.103755 -1.959496 0.000000000000000e+00 1851878480
4.138795 0.214754 -2.019198 0.000000000000000e+00 1851878480
4.235675 0.329556 -2.066463 0.000000000000000e+00 1851878480
3.908318 -0.612065 -1.921369 0.000000000000000e+00 1851878480
3.957429 -0.514911 -1.945513 0.000000000000000e+00 1851878480
3.928804 -0.408437 -1.931441 0.000000000000000e+00 1851878480
3.902267 -0.304064 -1.918395 0.000000000000000e+00 1851878480
3.882105 -0.201732 -1.908483 0.000000000000000e+00 1851878480
3.856072 -0.099760 -1.895685 0.000000000000000e+00 1851878480
3.872832 0.000000 -1.903924 0.000000000000000e+00 1851878480
4.028940 0.104232 -1.980669 0.000000000000000e+00 1851878480
4.152619 0.215789 -2.041471 0.000000000000000e+00 1851878480
4.250130 0.331170 -2.089408 0.000000000000000e+00 1851878480
3.919374 -0.614711 -1.941505 0.000000000000000e+00 1851878480
3.969392 -0.517236 -1.966281 0.000000000000000e+00 1851878480
3.941029 -0.410318 -1.952232 0.000000000000000e+00 1851878480
3.914159 -0.305445 -1.938921 0.000000000000000e+00 1851878480
3.893703 -0.202636 -1.928788 0.000000000000000e+00 1851878480
3.866730 -0.100185 -1.915426 0.000000000000000e+00 1851878480
3.882910 0.000000 -1.923442 0.000000000000000e+00 1851878480
4.041855 0.104722 -2.002177 0.000000000000000e+00 1851878480
4.166865 0.216852 -2.064102 0.000000000000000e+00 1851878480
4.264667 0.332798 -2.112549 0.000000000000000e+00 1851878480
3.930552 -0.617389 -1.961826 0.000000000000000e+00 1851878480
3.981164 -0.519549 -1.987087 0.000000000000000e+00 1851878480
3.953518 -0.412236 -1.973289 0.000000000000000e+00 1851878480
3.926270 -0.306850 -1.959689 0.000000000000000e+00 1851878480
3.905462 -0.203553 -1.949303 0.000000000000000e+00 1851878480
3.877479 -0.100614 -1.935336 0.000000000000000e+00 1851878480
3.893044 0.000000 -1.943105 0.000000000000000e+00 1851878480
4.055126 0.105224 -2.024003 0.000000000000000e+00 1851878480
4.181469 0.217939 -2.087065 0.000000000000000e+00 1851878480
4.279559 0.334461 -2.136023 0.000000000000000e+00 1851878480
3.941900 -0.620108 -1.982363 0.000000000000000e+00 1851878480
3.993054 -0.521889 -2.008088 0.000000000000000e+00 1851878480
3.966147 -0.414178 -1.994557 0.000000000000000e+00 1851878480
3.938536 -0.308274 -1.980671 0.000000000000000e+00 1851878480
3.917393 -0.204484 -1.970038 0.000000000000000e+00 1851878480
3.888425 -0.101051 -1.955470 0.000000000000000e+00 1851878480
3.903252 0.000000 -1.962927 0.000000000000000e+00 1851878480
4.068986 0.105743 -2.046274 0.000000000000000e+00 1851878480
4.196271 0.219041 -2.110285 0.000000000000000e+00 1851878480
4.294222 0.336114 -2.159544 0.000000000000000e+00 1851878480
3.953326 -0.622852 -2.003070 0.000000000000000e+00 1851878480
4.005002 -0.524248 -2.029254 0.000000000000000e+00 1851878480
3.979059 -0.416160 -2.016109 0.000000000000000e+00 1851878480
3.951043 -0.309724 -2.001914 0.000000000000000e+00 1851878480
3.929554 -0.205431 -1.991026 0.000000000000000e+00 1851878480
3.899525 -0.101494 -1.975810 0.000000000000000e+00 1851878480
3.913526 0.000000 -1.982904 0.000000000000000e+00 1851878480
4.083401 0.106279 -2.068977 0.000000000000000e+00 1851878480
4.211289 0.220160 -2.133775 0.000000000000000e+00 1851878480
