# .PCD v0.7 - Point Cloud Data file format
VERSION 0.7
FIELDS x y z rgb label
SIZE 4 4 4 4 4
TYPE F F F F U
COUNT 1 1 1 1 1
WIDTH 759
HEIGHT 1
VIEWPOINT 0 0 0 1 0 0 0
POINTS 759
DATA ascii
-1.701316 0.098374 -3.880563 0.000000000000000e+00 1851878480
-1.888846 0.219375 -4.308304 0.000000000000000e+00 1851878480
-1.344671 -0.793498 -3.067084 0.000000000000000e+00 1701537140
-1.306429 -0.691587 -2.979858 0.000000000000000e+00 1701537140
-1.305344 -0.612512 -2.977383 0.000000000000000e+00 1701537140
-1.322168 -0.537303 -2.991193 0.000000000000000e+00 1701537140
-1.312529 -0.456271 -2.969385 0.000000000000000e+00 1701537140
-1.315016 -0.379801 -2.975012 0.000000000000000e+00 1701537140
-1.328489 -0.306569 -3.005491 0.000000000000000e+00 1701537140
-1.321145 -0.228510 -2.988878 0.000000000000000e+00 1851878480
-1.337659 -0.154298 -3.026238 0.000000000000000e+00 1851878480
-1.364049 -0.078334 -3.085942 0.000000000000000e+00 1851878480
-1.610816 0.000000 -3.644211 0.000000000000000e+00 1851878480
-1.717791 0.098648 -3.886225 0.000000000000000e+00 1851878480
-1.922482 0.221757 -4.349305 0.000000000000000e+00 1851878480
-1.360900 -0.797592 -3.078816 0.000000000000000e+00 1701537140
-1.314802 -0.691267 -2.974528 0.000000000000000e+00 1701537140
-1.309111 -0.610086 -2.961653 0.000000000000000e+00 1701537140
-1.316211 -0.531260 -2.953596 0.000000000000000e+00 1701537140
-1.317361 -0.454849 -2.956176 0.000000000000000e+00 1701537140
-1.323558 -0.379679 -2.970082 0.000000000000000e+00 1701537140
-1.340919 -0.307342 -3.009040 0.000000000000000e+00 1701537140
-1.328317 -0.228195 -2.980761 0.000000000000000e+00 1851878480
-1.345500 -0.154151 -3.019318 0.000000000000000e+00 1851878480
-1.371878 -0.078250 -3.078512 0.000000000000000e+00 1851878480
-1.624899 0.000000 -3.646294 0.000000000000000e+00 1851878480
-1.734465 0.098931 -3.892161 0.000000000000000e+00 1851878480
-1.960296 0.224587 -4.398931 0.000000000000000e+00 1851878480
-1.378973 -0.802711 -3.094433 0.000000000000000e+00 1701537140
-1.323126 -0.690933 -2.969113 0.000000000000000e+00 1701537140
-1.315846 -0.609072 -2.952775 0.000000000000000e+00 1701537140
-1.322399 -0.530172 -2.943571 0.000000000000000e+00 1701537140
-1.324920 -0.454386 -2.949182 0.000000000000000e+00 1701537140
-1.332163 -0.379580 -2.965305 0.000000000000000e+00 1701537140
-1.353452 -0.308131 -3.012693 0.000000000000000e+00 1701537140
-1.335868 -0.227950 -2.973551 0.000000000000000e+00 1851878480
-1.353258 -0.153998 -3.012261 0.000000000000000e+00 1851878480
-1.379811 -0.078173 -3.071365 0.000000000000000e+00 1851878480
-1.639099 0.000000 -3.648524 0.000000000000000e+00 1851878480
-1.751389 0.099225 -3.898473 0.000000000000000e+00 1851878480
-2.007290 0.228426 -4.468091 0.000000000000000e+00 1851878480
-1.398554 -0.808641 -3.113086 0.000000000000000e+00 1701537140
-1.332611 -0.691211 -2.966302 0.000000000000000e+00 1701537140
-1.324131 -0.608789 -2.947425 0.000000000000000e+00 1701537140
-1.330595 -0.529903 -2.938075 0.000000000000000e+00 1701537140
-1.333479 -0.454274 -2.944444 0.000000000000000e+00 1701537140
-1.340590 -0.379436 -2.960146 0.000000000000000e+00 1701537140
-1.366131 -0.308945 -3.016544 0.000000000000000e+00 1701537140
-1.343609 -0.227743 -2.966812 0.000000000000000e+00 1851878480
-1.360962 -0.153843 -3.005130 0.000000000000000e+00 1851878480
-1.388202 -0.078125 -3.065277 0.000000000000000e+00 1851878480
-1.653516 0.000000 -3.651114 0.000000000000000e+00 1851878480
-1.768622 0.099534 -3.905281 0.000000000000000e+00 1851878480
-2.067766 0.233740 -4.565817 0.000000000000000e+00 1851878480
-1.430624 -0.821671 -3.158950 0.000000000000000e+00 1701537140
-1.345926 -0.693465 -2.971929 0.000000000000000e+00 1701537140
-1.332783 -0.608684 -2.942909 0.000000000000000e+00 1701537140
-1.339294 -0.529841 -2.933710 0.000000000000000e+00 1701537140
-1.342184 -0.454216 -2.940040 0.000000000000000e+00 1701537140
-1.351941 -0.380119 -2.961413 0.000000000000000e+00 1701537140
-1.342854 -0.301673 -2.941507 0.000000000000000e+00 1851878480
-1.351369 -0.227544 -2.960160 0.000000000000000e+00 1851878480
-1.368648 -0.153689 -2.998009 0.000000000000000e+00 1851878480
-1.397012 -0.078101 -3.060140 0.000000000000000e+00 1851878480
-1.668093 0.000000 -3.653941 0.000000000000000e+00 1851878480
-1.786173 0.099857 -3.912594 0.000000000000000e+00 1851878480
-1.359386 -0.695770 -2.977720 0.000000000000000e+00 1701537140
-1.341318 -0.608532 -2.938143 0.000000000000000e+00 1701537140
-1.347922 -0.529757 -2.929192 0.000000000000000e+00 1701537140
-1.350705 -0.454102 -2.935239 0.000000000000000e+00 1701537140
-1.364635 -0.381172 -2.965511 0.000000000000000e+00 1701537140
-1.350175 -0.301329 -2.934088 0.000000000000000e+00 1851878480
-1.359186 -0.227359 -2.953670 0.000000000000000e+00 1851878480
-1.376199 -0.153524 -2.990642 0.000000000000000e+00 1851878480
-1.406247 -0.078101 -3.055939 0.000000000000000e+00 1851878480
-1.682871 0.000000 -3.657076 0.000000000000000e+00 1851878480
-1.804087 0.100197 -3.920491 0.000000000000000e+00 1851878480
-1.373059 -0.698159 -2.983816 0.000000000000000e+00 1701537140
-1.350843 -0.608834 -2.935539 0.000000000000000e+00 1701537140
-1.357108 -0.529897 -2.925884 0.000000000000000e+00 1701537140
-1.362224 -0.454995 -2.936913 0.000000000000000e+00 1701537140
-1.377436 -0.382244 -2.969711 0.000000000000000e+00 1701537140
-1.357460 -0.300983 -2.926643 0.000000000000000e+00 1851878480
-1.366955 -0.227171 -2.947114 0.000000000000000e+00 1851878480
-1.383723 -0.153358 -2.983266 0.000000000000000e+00 1851878480
-1.416064 -0.078135 -3.052992 0.000000000000000e+00 1851878480
-1.697888 0.000000 -3.660595 0.000000000000000e+00 1851878480
-1.822449 0.100558 -3.929147 0.000000000000000e+00 1851878480
-1.387039 -0.700678 -2.990415 0.000000000000000e+00 1701537140
-1.363950 -0.610741 -2.940636 0.000000000000000e+00 1701537140
-1.370017 -0.531484 -2.930529 0.000000000000000e+00 1701537140
-1.375085 -0.456325 -2.941370 0.000000000000000e+00 1701537140
-1.390391 -0.383348 -2.974110 0.000000000000000e+00 1701537140
-1.364898 -0.300679 -2.919579 0.000000000000000e+00 1851878480
-1.374680 -0.226980 -2.940502 0.000000000000000e+00 1851878480
-1.391246 -0.153197 -2.975938 0.000000000000000e+00 1851878480
-1.426023 -0.078176 -3.050327 0.000000000000000e+00 1851878480
-1.713060 0.000000 -3.664312 0.000000000000000e+00 1851878480
-1.841433 0.100950 -3.938910 0.000000000000000e+00 1851878480
-1.401538 -0.703432 -2.997954 0.000000000000000e+00 1701537140
-1.377190 -0.612688 -2.945872 0.000000000000000e+00 1701537140
-1.383043 -0.533101 -2.935286 0.000000000000000e+00 1701537140
-1.388063 -0.457682 -2.945939 0.000000000000000e+00 1701537140
-1.367293 -0.374565 -2.901859 0.000000000000000e+00 1851878480
-1.372674 -0.300455 -2.913280 0.000000000000000e+00 1851878480
-1.382402 -0.226793 -2.933924 0.000000000000000e+00 1851878480
-1.398670 -0.153028 -2.968451 0.000000000000000e+00 1851878480
-1.436079 -0.078224 -3.047847 0.000000000000000e+00 1851878480
-1.728570 0.000000 -3.668611 0.000000000000000e+00 1851878480
-1.861044 0.101371 -3.949766 0.000000000000000e+00 1851878480
-1.416838 -0.706556 -3.007010 0.000000000000000e+00 1701537140
-1.390605 -0.614694 -2.951335 0.000000000000000e+00 1701537140
-1.396220 -0.534759 -2.940219 0.000000000000000e+00 1701537140
-1.401199 -0.459076 -2.950704 0.000000000000000e+00 1701537140
-1.374630 -0.374182 -2.894755 0.000000000000000e+00 1851878480
-1.380571 -0.300263 -2.907265 0.000000000000000e+00 1851878480
-1.390111 -0.226608 -2.927356 0.000000000000000e+00 1851878480
-1.406060 -0.152859 -2.960941 0.000000000000000e+00 1851878480
-1.446250 -0.078277 -3.045575 0.000000000000000e+00 1851878480
-1.744266 0.000000 -3.673150 0.000000000000000e+00 1851878480
-1.881304 0.101824 -3.961731 0.000000000000000e+00 1851878480
-1.432829 -0.709989 -3.017314 0.000000000000000e+00 1701537140
-1.404268 -0.616788 -2.957168 0.000000000000000e+00 1701537140
-1.409601 -0.536479 -2.945440 0.000000000000000e+00 1701537140
-1.379590 -0.449146 -2.882730 0.000000000000000e+00 1851878480
-1.381966 -0.373806 -2.887694 0.000000000000000e+00 1851878480
-1.388488 -0.300080 -2.901323 0.000000000000000e+00 1851878480
-1.397829 -0.226429 -2.920842 0.000000000000000e+00 1851878480
-1.413427 -0.152690 -2.953436 0.000000000000000e+00 1851878480
-1.456470 -0.078333 -3.043376 0.000000000000000e+00 1851878480
-1.760225 0.000000 -3.678090 0.000000000000000e+00 1851878480
-1.902276 0.102309 -3.974913 0.000000000000000e+00 1851878480
-1.449181 -0.713563 -3.028145 0.000000000000000e+00 1701537140
-1.418317 -0.619030 -2.963654 0.000000000000000e+00 1701537140
-1.386608 -0.524426 -2.875095 0.000000000000000e+00 1851878480
-1.386936 -0.448712 -2.875776 0.000000000000000e+00 1851878480
-1.389653 -0.373533 -2.881409 0.000000000000000e+00 1851878480
-1.396413 -0.299904 -2.895427 0.000000000000000e+00 1851878480
-1.405554 -0.226256 -2.914381 0.000000000000000e+00 1851878480
-1.420768 -0.152523 -2.945926 0.000000000000000e+00 1851878480
-1.466830 -0.078396 -3.041433 0.000000000000000e+00 1851878480
-1.776478 0.000000 -3.683482 0.000000000000000e+00 1851878480
-1.923980 0.102829 -3.989324 0.000000000000000e+00 1851878480
-1.466505 -0.717575 -3.040761 0.000000000000000e+00 1701537140
-1.432866 -0.621467 -2.971011 0.000000000000000e+00 1701537140
-1.393943 -0.523926 -2.868163 0.000000000000000e+00 1851878480
-1.394270 -0.448284 -2.868836 0.000000000000000e+00 1851878480
-1.397554 -0.373324 -2.875594 0.000000000000000e+00 1851878480
-1.404343 -0.299735 -2.889564 0.000000000000000e+00 1851878480
-1.413288 -0.226088 -2.907969 0.000000000000000e+00 1851878480
-1.428103 -0.152358 -2.938451 0.000000000000000e+00 1851878480
-1.477195 -0.078460 -3.039462 0.000000000000000e+00 1851878480
-1.792952 0.000000 -3.689161 0.000000000000000e+00 1851878480
-1.946570 0.103390 -4.005243 0.000000000000000e+00 1851878480
-1.485320 -0.722268 -3.056181 0.000000000000000e+00 1701537140
-1.399113 -0.603059 -2.878803 0.000000000000000e+00 1851878480
-1.401264 -0.523432 -2.861245 0.000000000000000e+00 1851878480
-1.401893 -0.447957 -2.862529 0.000000000000000e+00 1851878480
-1.405513 -0.373136 -2.869921 0.000000000000000e+00 1851878480
-1.412260 -0.299567 -2.883699 0.000000000000000e+00 1851878480
-1.421023 -0.225925 -2.901591 0.000000000000000e+00 1851878480
-1.435470 -0.152200 -2.931091 0.000000000000000e+00 1851878480
-1.487639 -0.078528 -3.037614 0.000000000000000e+00 1851878480
-1.809718 0.000000 -3.695268 0.000000000000000e+00 1851878480
-1.970454 0.104014 -4.023476 0.000000000000000e+00 1851878480
-1.505533 -0.727585 -3.074153 0.000000000000000e+00 1701537140
-1.406578 -0.602540 -2.872096 0.000000000000000e+00 1851878480
-1.408781 -0.523021 -2.854764 0.000000000000000e+00 1851878480
-1.409794 -0.447726 -2.856818 0.000000000000000e+00 1851878480
-1.413491 -0.372959 -2.864309 0.000000000000000e+00 1851878480
-1.420176 -0.299403 -2.877856 0.000000000000000e+00 1851878480
-1.428756 -0.225765 -2.895241 0.000000000000000e+00 1851878480
-1.442843 -0.152047 -2.923788 0.000000000000000e+00 1851878480
-1.498191 -0.078601 -3.035945 0.000000000000000e+00 1851878480
-1.826770 0.000000 -3.701781 0.000000000000000e+00 1851878480
-1.996001 0.104718 -4.044713 0.000000000000000e+00 1851878480
-1.425128 -0.684515 -2.887889 0.000000000000000e+00 1851878480
-1.414030 -0.602028 -2.865402 0.000000000000000e+00 1851878480
-1.416613 -0.522737 -2.848953 0.000000000000000e+00 1851878480
-1.417747 -0.447519 -2.851233 0.000000000000000e+00 1851878480
-1.421473 -0.372789 -2.858727 0.000000000000000e+00 1851878480
-1.428089 -0.299244 -2.872033 0.000000000000000e+00 1851878480
-1.436466 -0.225605 -2.888879 0.000000000000000e+00 1851878480
-1.450206 -0.151895 -2.916512 0.000000000000000e+00 1851878480
-1.508740 -0.078674 -3.034231 0.000000000000000e+00 1851878480
-1.844078 0.000000 -3.708629 0.000000000000000e+00 1851878480
-2.023668 0.105525 -4.069803 0.000000000000000e+00 1851878480
-1.432635 -0.683944 -2.881176 0.000000000000000e+00 1851878480
-1.421626 -0.601588 -2.859035 0.000000000000000e+00 1851878480
-1.424539 -0.522495 -2.843351 0.000000000000000e+00 1851878480
-1.425709 -0.447321 -2.845684 0.000000000000000e+00 1851878480
-1.429461 -0.372625 -2.853175 0.000000000000000e+00 1851878480
-1.435962 -0.299081 -2.866150 0.000000000000000e+00 1851878480
-1.444170 -0.225449 -2.882534 0.000000000000000e+00 1851878480
-1.457756 -0.151766 -2.909650 0.000000000000000e+00 1851878480
-1.519437 -0.078755 -3.032764 0.000000000000000e+00 1851878480
-1.861683 0.000000 -3.715881 0.000000000000000e+00 1851878480
-2.054129 0.106468 -4.099999 0.000000000000000e+00 1851878480
-1.440141 -0.683385 -2.874491 0.000000000000000e+00 1851878480
-1.429479 -0.601267 -2.853211 0.000000000000000e+00 1851878480
-1.432467 -0.522261 -2.837772 0.000000000000000e+00 1851878480
-1.433661 -0.447127 -2.840137 0.000000000000000e+00 1851878480
-1.437427 -0.372461 -2.847596 0.000000000000000e+00 1851878480
-1.443839 -0.298924 -2.860300 0.000000000000000e+00 1851878480
-1.451845 -0.225292 -2.876160 0.000000000000000e+00 1851878480
-1.465348 -0.151644 -2.902909 0.000000000000000e+00 1851878480
-1.530262 -0.078841 -3.031507 0.000000000000000e+00 1851878480
-1.879698 0.000000 -3.723752 0.000000000000000e+00 1851878480
-2.087424 0.107547 -4.135265 0.000000000000000e+00 1851878480
-1.447938 -0.682977 -2.868420 0.000000000000000e+00 1851878480
-1.437410 -0.600987 -2.847563 0.000000000000000e+00 1851878480
-1.440381 -0.522030 -2.832183 0.000000000000000e+00 1851878480
-1.441597 -0.446934 -2.834575 0.000000000000000e+00 1851878480
-1.445393 -0.372303 -2.842039 0.000000000000000e+00 1851878480
-1.451652 -0.298758 -2.854346 0.000000000000000e+00 1851878480
-1.459483 -0.225133 -2.869743 0.000000000000000e+00 1851878480
-1.473207 -0.151553 -2.896729 0.000000000000000e+00 1851878480
-1.541152 -0.078931 -3.030327 0.000000000000000e+00 1851878480
-1.898067 0.000000 -3.732119 0.000000000000000e+00 1851878480
-2.125126 0.108840 -4.178579 0.000000000000000e+00 1851878480
-1.455913 -0.682663 -2.862724 0.000000000000000e+00 1851878480
-1.445340 -0.600717 -2.841933 0.000000000000000e+00 1851878480
-1.448276 -0.521800 -2.826578 0.000000000000000e+00 1851878480
-1.449513 -0.446740 -2.828991 0.000000000000000e+00 1851878480
-1.453345 -0.372146 -2.836470 0.000000000000000e+00 1851878480
-1.459454 -0.298594 -2.848393 0.000000000000000e+00 1851878480
-1.467041 -0.224966 -2.863202 0.000000000000000e+00 1851878480
-1.481213 -0.151479 -2.890860 0.000000000000000e+00 1851878480
-1.552207 -0.079029 -3.029419 0.000000000000000e+00 1851878480
-1.916834 0.000000 -3.741056 0.000000000000000e+00 1851878480
-2.172119 0.110591 -4.239291 0.000000000000000e+00 1851878480
-1.463925 -0.682377 -2.857120 0.000000000000000e+00 1851878480
-1.453250 -0.600446 -2.836284 0.000000000000000e+00 1851878480
-1.456138 -0.521564 -2.820925 0.000000000000000e+00 1851878480
-1.457404 -0.446546 -2.823377 0.000000000000000e+00 1851878480
-1.461285 -0.371991 -2.830896 0.000000000000000e+00 1851878480
-1.467194 -0.298422 -2.842345 0.000000000000000e+00 1851878480
-1.474582 -0.224800 -2.856657 0.000000000000000e+00 1851878480
-1.490055 -0.151492 -2.886631 0.000000000000000e+00 1851878480
-1.563380 -0.079133 -3.028682 0.000000000000000e+00 1851878480
-1.936047 0.000000 -3.750637 0.000000000000000e+00 1851878480
-1.471937 -0.682099 -2.851532 0.000000000000000e+00 1851878480
-1.461147 -0.600179 -2.830629 0.000000000000000e+00 1851878480
-1.463980 -0.521330 -2.815253 0.000000000000000e+00 1851878480
-1.465271 -0.446351 -2.817736 0.000000000000000e+00 1851878480
-1.469196 -0.371834 -2.825284 0.000000000000000e+00 1851878480
-1.474837 -0.298236 -2.836131 0.000000000000000e+00 1851878480
-1.482171 -0.224645 -2.850234 0.000000000000000e+00 1851878480
-1.499214 -0.151538 -2.883008 0.000000000000000e+00 1851878480
-1.574542 -0.079235 -3.027865 0.000000000000000e+00 1851878480
-1.955764 0.000000 -3.760961 0.000000000000000e+00 1851878480
-1.479926 -0.681821 -2.845917 0.000000000000000e+00 1851878480
-1.469015 -0.599908 -2.824934 0.000000000000000e+00 1851878480
-1.471769 -0.521084 -2.809500 0.000000000000000e+00 1851878480
-1.473117 -0.446155 -2.812073 0.000000000000000e+00 1851878480
-1.477080 -0.371676 -2.819638 0.000000000000000e+00 1851878480
-1.482423 -0.298043 -2.829838 0.000000000000000e+00 1851878480
-1.489902 -0.224516 -2.844115 0.000000000000000e+00 1851878480
-1.508600 -0.151608 -2.879808 0.000000000000000e+00 1851878480
-1.585853 -0.079344 -3.027278 0.000000000000000e+00 1851878480
-1.976019 0.000000 -3.772077 0.000000000000000e+00 1851878480
-1.487903 -0.681546 -2.840297 0.000000000000000e+00 1851878480
-1.476866 -0.599640 -2.819230 0.000000000000000e+00 1851878480
-1.479546 -0.520841 -2.803740 0.000000000000000e+00 1851878480
-1.480946 -0.445961 -2.806394 0.000000000000000e+00 1851878480
-1.484908 -0.371508 -2.813903 0.000000000000000e+00 1851878480
-1.489938 -0.297840 -2.823434 0.000000000000000e+00 1851878480
-1.497716 -0.224403 -2.838173 0.000000000000000e+00 1851878480
-1.518106 -0.151691 -2.876813 0.000000000000000e+00 1851878480
-1.597171 -0.079454 -3.026641 0.000000000000000e+00 1851878480
-1.996809 0.000000 -3.783955 0.000000000000000e+00 1851878480
-1.495840 -0.681263 -2.834619 0.000000000000000e+00 1851878480
-1.484686 -0.599367 -2.813481 0.000000000000000e+00 1851878480
-1.487286 -0.520593 -2.797931 0.000000000000000e+00 1851878480
-1.488757 -0.445767 -2.800699 0.000000000000000e+00 1851878480
-1.492673 -0.371330 -2.808066 0.000000000000000e+00 1851878480
-1.497416 -0.297635 -2.816989 0.000000000000000e+00 1851878480
-1.505668 -0.224313 -2.832513 0.000000000000000e+00 1851878480
-1.527663 -0.151779 -2.873891 0.000000000000000e+00 1851878480
-1.608650 -0.079570 -3.026246 0.000000000000000e+00 1851878480
-2.018178 0.000000 -3.796663 0.000000000000000e+00 1851878480
-1.503767 -0.680984 -2.828937 0.000000000000000e+00 1851878480
-1.492476 -0.599091 -2.807695 0.000000000000000e+00 1851878480
-1.495005 -0.520344 -2.792102 0.000000000000000e+00 1851878480
-1.496554 -0.445576 -2.794996 0.000000000000000e+00 1851878480
-1.500374 -0.371142 -2.802129 0.000000000000000e+00 1851878480
-1.504971 -0.297450 -2.810714 0.000000000000000e+00 1851878480
-1.514133 -0.224303 -2.827825 0.000000000000000e+00 1851878480
-1.537077 -0.151854 -2.870676 0.000000000000000e+00 1851878480
-1.620212 -0.079690 -3.025942 0.000000000000000e+00 1851878480
-2.040235 0.000000 -3.810385 0.000000000000000e+00 1851878480
-1.511643 -0.680692 -2.823176 0.000000000000000e+00 1851878480
-1.500243 -0.598814 -2.801885 0.000000000000000e+00 1851878480
-1.502700 -0.520096 -2.786249 0.000000000000000e+00 1851878480
-1.504334 -0.445386 -2.789278 0.000000000000000e+00 1851878480
-1.507992 -0.370939 -2.796060 0.000000000000000e+00 1851878480
-1.512821 -0.297329 -2.805015 0.000000000000000e+00 1851878480
-1.525036 -0.224654 -2.827663 0.000000000000000e+00 1700951363
-1.546635 -0.151943 -2.867712 0.000000000000000e+00 1851878480
-1.631890 -0.079816 -3.025788 0.000000000000000e+00 1851878480
-2.063074 0.000000 -3.825272 0.000000000000000e+00 1851878480
-1.519513 -0.680406 -2.817422 0.000000000000000e+00 1851878480
-1.507980 -0.598534 -2.796040 0.000000000000000e+00 1851878480
-1.510368 -0.519845 -2.780363 0.000000000000000e+00 1851878480
-1.512103 -0.445198 -2.783558 0.000000000000000e+00 1851878480
-1.515579 -0.370734 -2.789956 0.000000000000000e+00 1851878480
-1.521100 -0.297295 -2.800118 0.000000000000000e+00 1851878480
-1.533142 -0.224593 -2.822286 0.000000000000000e+00 1700951363
-1.556136 -0.152027 -2.864616 0.000000000000000e+00 1851878480
-1.643651 -0.079944 -3.025718 0.000000000000000e+00 1851878480
-2.086950 0.000000 -3.841764 0.000000000000000e+00 1851878480
-1.527332 -0.680108 -2.811591 0.000000000000000e+00 1851878480
-1.515702 -0.598256 -2.790183 0.000000000000000e+00 1851878480
-1.518023 -0.519597 -2.774472 0.000000000000000e+00 1851878480
-1.519861 -0.445014 -2.777831 0.000000000000000e+00 1851878480
-1.523206 -0.370544 -2.783945 0.000000000000000e+00 1851878480
-1.529557 -0.297298 -2.795553 0.000000000000000e+00 1851878480
-1.541243 -0.224534 -2.816911 0.000000000000000e+00 1700951363
-1.565587 -0.152106 -2.861405 0.000000000000000e+00 1851878480
-1.655446 -0.080074 -3.025638 0.000000000000000e+00 1851878480
-2.112135 0.000000 -3.860324 0.000000000000000e+00 1851878480
-1.535139 -0.679813 -2.805755 0.000000000000000e+00 1851878480
-1.523383 -0.597970 -2.784268 0.000000000000000e+00 1851878480
-1.525635 -0.519343 -2.768524 0.000000000000000e+00 1851878480
-1.527615 -0.444834 -2.772118 0.000000000000000e+00 1851878480
-1.530988 -0.370397 -2.778237 0.000000000000000e+00 1851878480
-1.541728 -0.298023 -2.797727 0.000000000000000e+00 1700951363
-1.549399 -0.224486 -2.811647 0.000000000000000e+00 1700951363
-1.575179 -0.152200 -2.858430 0.000000000000000e+00 1851878480
-1.666515 -0.080167 -3.024176 0.000000000000000e+00 1851878480
-2.138892 0.000000 -3.881382 0.000000000000000e+00 1851878480
-1.542905 -0.679509 -2.799863 0.000000000000000e+00 1851878480
-1.531058 -0.597691 -2.778365 0.000000000000000e+00 1851878480
-1.533249 -0.519096 -2.762596 0.000000000000000e+00 1851878480
-1.535376 -0.444663 -2.766428 0.000000000000000e+00 1851878480
-1.539200 -0.370358 -2.773320 0.000000000000000e+00 1851878480
-1.549950 -0.297983 -2.792689 0.000000000000000e+00 1700951363
-1.557552 -0.224440 -2.806386 0.000000000000000e+00 1700951363
-1.584754 -0.152292 -2.855398 0.000000000000000e+00 1851878480
-1.676142 -0.080192 -3.020060 0.000000000000000e+00 1851878480
-2.167526 0.000000 -3.905432 0.000000000000000e+00 1851878480
-1.550641 -0.679202 -2.793933 0.000000000000000e+00 1851878480
-1.538677 -0.597398 -2.772376 0.000000000000000e+00 1851878480
-1.540798 -0.518835 -2.756571 0.000000000000000e+00 1851878480
-1.543159 -0.444503 -2.760795 0.000000000000000e+00 1851878480
-1.547717 -0.370396 -2.768949 0.000000000000000e+00 1851878480
-1.558157 -0.297943 -2.787628 0.000000000000000e+00 1700951363
-1.565701 -0.224396 -2.801125 0.000000000000000e+00 1700951363
-1.594269 -0.152379 -2.852234 0.000000000000000e+00 1851878480
-1.685884 -0.080223 -3.016137 0.000000000000000e+00 1851878480
-2.198617 0.000000 -3.933445 0.000000000000000e+00 1851878480
-1.558344 -0.678890 -2.787962 0.000000000000000e+00 1851878480
-1.546283 -0.597110 -2.766385 0.000000000000000e+00 1851878480
-1.548365 -0.518587 -2.750599 0.000000000000000e+00 1851878480
-1.551015 -0.444371 -2.755306 0.000000000000000e+00 1851878480
-1.556721 -0.370554 -2.765441 0.000000000000000e+00 1851878480
-1.566385 -0.297910 -2.782610 0.000000000000000e+00 1700951363
-1.573847 -0.224354 -2.795866 0.000000000000000e+00 1700951363
-1.603898 -0.152478 -2.849250 0.000000000000000e+00 1851878480
-1.695608 -0.080253 -3.012168 0.000000000000000e+00 1851878480
-2.233203 0.000000 -3.967182 0.000000000000000e+00 1851878480
-1.565988 -0.678562 -2.781905 0.000000000000000e+00 1851878480
-1.553820 -0.596802 -2.760288 0.000000000000000e+00 1851878480
-1.555901 -0.518336 -2.744589 0.000000000000000e+00 1851878480
-1.559062 -0.444298 -2.750165 0.000000000000000e+00 1851878480
-1.568604 -0.371394 -2.766998 0.000000000000000e+00 1851878480
-1.574636 -0.297885 -2.777638 0.000000000000000e+00 1700951363
-1.581990 -0.224314 -2.790610 0.000000000000000e+00 1700951363
-1.613569 -0.152580 -2.846314 0.000000000000000e+00 1851878480
-1.705473 -0.080290 -3.008432 0.000000000000000e+00 1851878480
-2.273870 0.000000 -4.011076 0.000000000000000e+00 1851878480
-1.573600 -0.678230 -2.775810 0.000000000000000e+00 1851878480
-1.561336 -0.596496 -2.754177 0.000000000000000e+00 1851878480
-1.563435 -0.518092 -2.738594 0.000000000000000e+00 1851878480
-1.567422 -0.444318 -2.745578 0.000000000000000e+00 1851878480
-1.576439 -0.371276 -2.761373 0.000000000000000e+00 1851878480
-1.582886 -0.297862 -2.772666 0.000000000000000e+00 1700951363
-1.590348 -0.224306 -2.785735 0.000000000000000e+00 1700951363
-1.623220 -0.152681 -2.843317 0.000000000000000e+00 1851878480
-1.715402 -0.080330 -3.004788 0.000000000000000e+00 1851878480
-2.331534 0.000000 -4.084037 0.000000000000000e+00 1851878480
-1.581111 -0.677864 -2.769557 0.000000000000000e+00 1851878480
-1.568806 -0.596181 -2.748003 0.000000000000000e+00 1851878480
-1.571030 -0.517875 -2.732722 0.000000000000000e+00 1851878480
-1.576112 -0.444436 -2.741562 0.000000000000000e+00 1851878480
-1.585235 -0.371387 -2.757431 0.000000000000000e+00 1851878480
-1.591135 -0.297842 -2.767694 0.000000000000000e+00 1700951363
-1.599037 -0.224348 -2.781440 0.000000000000000e+00 1700951363
-1.632909 -0.152786 -2.840358 0.000000000000000e+00 1851878480
-1.725483 -0.080378 -3.001385 0.000000000000000e+00 1851878480
-1.588587 -0.677493 -2.763261 0.000000000000000e+00 1851878480
-1.576262 -0.595869 -2.741822 0.000000000000000e+00 1851878480
-1.578733 -0.517701 -2.727054 0.000000000000000e+00 1851878480
-1.585179 -0.444662 -2.738188 0.000000000000000e+00 1851878480
-1.594036 -0.371502 -2.753487 0.000000000000000e+00 1851878480
-1.599382 -0.297825 -2.762722 0.000000000000000e+00 1700951363
-1.607730 -0.224391 -2.777142 0.000000000000000e+00 1700951363
-1.642684 -0.152900 -2.837521 0.000000000000000e+00 1851878480
-1.735885 -0.080441 -2.998513 0.000000000000000e+00 1851878480
-1.596003 -0.677107 -2.756885 0.000000000000000e+00 1851878480
-1.583726 -0.595569 -2.735678 0.000000000000000e+00 1851878480
-1.586738 -0.517632 -2.721917 0.000000000000000e+00 1851878480
-1.635239 -0.456329 -2.805115 0.000000000000000e+00 1851878480
-1.602841 -0.371620 -2.749540 0.000000000000000e+00 1851878480
-1.607627 -0.297810 -2.757751 0.000000000000000e+00 1700951363
-1.616426 -0.224437 -2.772843 0.000000000000000e+00 1700951363
-1.652495 -0.153016 -2.834717 0.000000000000000e+00 1851878480
-1.746622 -0.080519 -2.996184 0.000000000000000e+00 1851878480
-1.603401 -0.676723 -2.750500 0.000000000000000e+00 1851878480
-1.591278 -0.595311 -2.729704 0.000000000000000e+00 1851878480
-1.595242 -0.517730 -2.717632 0.000000000000000e+00 1851878480
-1.645820 -0.456920 -2.803796 0.000000000000000e+00 1851878480
-1.611653 -0.371741 -2.745591 0.000000000000000e+00 1851878480
-1.616254 -0.297869 -2.753429 0.000000000000000e+00 1700951363
-1.625125 -0.224484 -2.768541 0.000000000000000e+00 1700951363
-1.662358 -0.153138 -2.831971 0.000000000000000e+00 1851878480
-1.757643 -0.080611 -2.994297 0.000000000000000e+00 1851878480
-1.610831 -0.676363 -2.744189 0.000000000000000e+00 1851878480
-1.599048 -0.595141 -2.724116 0.000000000000000e+00 1851878480
-1.604166 -0.517967 -2.714053 0.000000000000000e+00 1851878480
-1.656427 -0.457516 -2.802473 0.000000000000000e+00 1851878480
-1.620471 -0.371866 -2.741639 0.000000000000000e+00 1851878480
-1.624982 -0.297948 -2.749271 0.000000000000000e+00 1700951363
-1.633828 -0.224534 -2.764237 0.000000000000000e+00 1700951363
-1.672284 -0.153266 -2.829300 0.000000000000000e+00 1851878480
-1.769366 -0.080734 -2.993551 0.000000000000000e+00 1851878480
-1.618412 -0.676075 -2.738154 0.000000000000000e+00 1851878480
-1.607202 -0.595121 -2.719188 0.000000000000000e+00 1851878480
-1.613214 -0.518247 -2.710664 0.000000000000000e+00 1851878480
-1.667061 -0.458118 -2.801144 0.000000000000000e+00 1851878480
-1.629294 -0.371994 -2.737683 0.000000000000000e+00 1851878480
-1.633749 -0.298036 -2.745170 0.000000000000000e+00 1700951363
-1.642511 -0.224582 -2.759892 0.000000000000000e+00 1700951363
-1.682241 -0.153396 -2.826650 0.000000000000000e+00 1851878480
-1.781639 -0.080882 -2.993668 0.000000000000000e+00 1851878480
-1.626390 -0.675962 -2.732804 0.000000000000000e+00 1851878480
-1.615588 -0.595192 -2.714653 0.000000000000000e+00 1851878480
-1.622342 -0.518554 -2.707390 0.000000000000000e+00 1851878480
-1.677724 -0.458726 -2.799812 0.000000000000000e+00 1851878480
-1.638123 -0.372126 -2.733725 0.000000000000000e+00 1851878480
-1.642521 -0.298127 -2.741065 0.000000000000000e+00 1700951363
-1.651170 -0.224629 -2.755497 0.000000000000000e+00 1700951363
-1.692293 -0.153535 -2.824124 0.000000000000000e+00 1851878480
-1.794220 -0.081042 -2.994222 0.000000000000000e+00 1851878480
-1.634784 -0.676028 -2.728153 0.000000000000000e+00 1851878480
-1.624010 -0.595281 -2.710173 0.000000000000000e+00 1851878480
-1.631566 -0.518893 -2.704251 0.000000000000000e+00 1851878480
-1.688414 -0.459339 -2.798474 0.000000000000000e+00 1851878480
-1.646959 -0.372261 -2.729763 0.000000000000000e+00 1851878480
-1.651299 -0.298220 -2.736957 0.000000000000000e+00 1700951363
-1.660166 -0.224722 -2.751653 0.000000000000000e+00 1700951363
-1.702367 -0.153677 -2.821599 0.000000000000000e+00 1851878480
-1.807336 -0.081226 -2.995582 0.000000000000000e+00 1851878480
-1.643325 -0.676160 -2.723741 0.000000000000000e+00 1851878480
-1.632391 -0.595359 -2.705617 0.000000000000000e+00 1851878480
-1.640897 -0.519267 -2.701264 0.000000000000000e+00 1851878480
-1.699132 -0.459957 -2.797131 0.000000000000000e+00 1851878480
-1.655801 -0.372400 -2.725799 0.000000000000000e+00 1851878480
-1.660082 -0.298316 -2.732846 0.000000000000000e+00 1700951363
-1.669399 -0.224849 -2.748185 0.000000000000000e+00 1700951363
-1.712463 -0.153820 -2.819077 0.000000000000000e+00 1851878480
-1.820764 -0.081423 -2.997363 0.000000000000000e+00 1851878480
-1.651923 -0.676320 -2.719415 0.000000000000000e+00 1851878480
-1.640763 -0.595438 -2.701043 0.000000000000000e+00 1851878480
-1.650468 -0.519718 -2.698646 0.000000000000000e+00 1851878480
-1.709877 -0.460581 -2.795784 0.000000000000000e+00 1851878480
-1.664648 -0.372542 -2.721831 0.000000000000000e+00 1851878480
-1.668869 -0.298415 -2.728732 0.000000000000000e+00 1700951363
-1.678642 -0.224978 -2.744712 0.000000000000000e+00 1700951363
-1.722645 -0.153971 -2.816659 0.000000000000000e+00 1851878480
-1.834507 -0.081633 -2.999563 0.000000000000000e+00 1851878480
-1.660497 -0.676475 -2.715043 0.000000000000000e+00 1851878480
-1.649170 -0.595536 -2.696523 0.000000000000000e+00 1851878480
-1.662712 -0.521006 -2.700333 0.000000000000000e+00 1851878480
-1.720652 -0.461211 -2.794431 0.000000000000000e+00 1851878480
-1.673503 -0.372688 -2.717859 0.000000000000000e+00 1851878480
-1.677663 -0.298517 -2.724615 0.000000000000000e+00 1700951363
-1.687896 -0.225110 -2.741234 0.000000000000000e+00 1700951363
-1.732859 -0.154124 -2.814256 0.000000000000000e+00 1851878480
-1.848541 -0.081854 -3.002131 0.000000000000000e+00 1851878480
-1.669089 -0.676641 -2.710690 0.000000000000000e+00 1851878480
-1.657583 -0.595639 -2.692004 0.000000000000000e+00 1851878480
-1.716771 -0.535326 -2.769385 0.000000000000000e+00 1851878480
-1.731455 -0.461847 -2.793073 0.000000000000000e+00 1851878480
-1.682365 -0.372837 -2.713884 0.000000000000000e+00 1851878480
-1.686791 -0.298680 -2.721024 0.000000000000000e+00 1700951363
-1.697161 -0.225243 -2.737752 0.000000000000000e+00 1700951363
-1.743108 -0.154281 -2.811871 0.000000000000000e+00 1851878480
-1.862727 -0.082081 -3.004832 0.000000000000000e+00 1851878480
-1.666075 -0.595775 -2.687606 0.000000000000000e+00 1851878480
-1.727491 -0.536063 -2.768002 0.000000000000000e+00 1851878480
-1.742287 -0.462489 -2.791711 0.000000000000000e+00 1851878480
-1.691233 -0.372989 -2.709906 0.000000000000000e+00 1851878480
-1.696086 -0.298873 -2.717682 0.000000000000000e+00 1700951363
-1.706404 -0.225374 -2.734215 0.000000000000000e+00 1700951363
-1.753385 -0.154440 -2.809494 0.000000000000000e+00 1851878480
-1.877047 -0.082312 -3.007640 0.000000000000000e+00 1851878480
-1.674590 -0.595923 -2.683238 0.000000000000000e+00 1851878480
-1.738240 -0.536807 -2.766613 0.000000000000000e+00 1851878480
-1.753149 -0.463136 -2.790343 0.000000000000000e+00 1851878480
-1.700110 -0.373145 -2.705925 0.000000000000000e+00 1851878480
-1.705429 -0.299075 -2.714390 0.000000000000000e+00 1700951363
-1.715644 -0.225506 -2.730650 0.000000000000000e+00 1700951363
-1.763709 -0.154603 -2.807150 0.000000000000000e+00 1851878480
-1.891355 -0.082540 -3.010314 0.000000000000000e+00 1851878480
-1.683190 -0.596106 -2.678995 0.000000000000000e+00 1851878480
-1.749017 -0.537558 -2.765218 0.000000000000000e+00 1851878480
-1.764041 -0.463789 -2.788970 0.000000000000000e+00 1851878480
-1.708993 -0.373304 -2.701939 0.000000000000000e+00 1851878480
-1.714783 -0.299280 -2.711094 0.000000000000000e+00 1700951363
-1.725363 -0.225701 -2.727820 0.000000000000000e+00 1700951363
-1.774070 -0.154769 -2.804826 0.000000000000000e+00 1851878480
-1.905609 -0.082766 -3.012791 0.000000000000000e+00 1851878480
-1.691884 -0.596325 -2.674890 0.000000000000000e+00 1851878480
-1.759825 -0.538315 -2.763819 0.000000000000000e+00 1851878480
-1.774962 -0.464448 -2.787592 0.000000000000000e+00 1851878480
-1.718127 -0.373520 -2.698332 0.000000000000000e+00 1851878480
-1.724151 -0.299489 -2.707792 0.000000000000000e+00 1700951363
-1.735229 -0.225915 -2.725190 0.000000000000000e+00 1700951363
-1.784409 -0.154933 -2.802428 0.000000000000000e+00 1851878480
-1.919780 -0.082986 -3.015030 0.000000000000000e+00 1851878480
-1.700649 -0.596573 -2.670882 0.000000000000000e+00 1851878480
-1.770661 -0.539079 -2.762414 0.000000000000000e+00 1851878480
-1.785914 -0.465113 -2.786209 0.000000000000000e+00 1851878480
-1.727945 -0.373886 -2.695772 0.000000000000000e+00 1851878480
-1.733530 -0.299700 -2.704485 0.000000000000000e+00 1700951363
-1.745086 -0.226129 -2.722514 0.000000000000000e+00 1700951363
-1.794801 -0.155101 -2.800074 0.000000000000000e+00 1851878480
-1.933769 -0.083197 -3.016878 0.000000000000000e+00 1851878480
-1.709652 -0.596906 -2.667233 0.000000000000000e+00 1851878480
-1.781528 -0.539850 -2.761003 0.000000000000000e+00 1851878480
-1.796896 -0.465783 -2.784820 0.000000000000000e+00 1851878480
-1.737783 -0.374255 -2.693207 0.000000000000000e+00 1851878480
-1.742923 -0.299914 -2.701173 0.000000000000000e+00 1700951363
-1.755053 -0.226356 -2.719972 0.000000000000000e+00 1700951363
-1.805220 -0.155272 -2.797721 0.000000000000000e+00 1851878480
-1.947663 -0.083403 -3.018477 0.000000000000000e+00 1851878480
-1.718729 -0.597268 -2.663677 0.000000000000000e+00 1851878480
-1.792426 -0.540627 -2.759587 0.000000000000000e+00 1851878480
-1.807910 -0.466460 -2.783427 0.000000000000000e+00 1851878480
-1.747640 -0.374629 -2.690636 0.000000000000000e+00 1851878480
-1.752500 -0.300160 -2.698117 0.000000000000000e+00 1700951363
-1.765071 -0.226590 -2.717472 0.000000000000000e+00 1700951363
-1.815622 -0.155440 -2.795300 0.000000000000000e+00 1851878480
-1.961412 -0.083601 -3.019756 0.000000000000000e+00 1851878480
-1.728083 -0.597727 -2.660527 0.000000000000000e+00 1851878480
-1.803353 -0.541412 -2.758165 0.000000000000000e+00 1851878480
-1.818955 -0.467143 -2.782027 0.000000000000000e+00 1851878480
-1.757517 -0.375006 -2.688060 0.000000000000000e+00 1851878480
-1.762250 -0.300436 -2.695298 0.000000000000000e+00 1700951363
-1.775109 -0.226827 -2.714967 0.000000000000000e+00 1700951363
-1.826088 -0.155614 -2.792936 0.000000000000000e+00 1851878480
-1.975140 -0.083797 -3.020907 0.000000000000000e+00 1851878480
-1.737502 -0.598210 -2.657448 0.000000000000000e+00 1851878480
-1.814311 -0.542203 -2.756737 0.000000000000000e+00 1851878480
-1.830031 -0.467832 -2.780622 0.000000000000000e+00 1851878480
-1.767413 -0.375388 -2.685478 0.000000000000000e+00 1851878480
-1.772016 -0.300716 -2.692473 0.000000000000000e+00 1700951363
-1.785173 -0.227066 -2.712464 0.000000000000000e+00 1700951363
-1.836567 -0.155790 -2.790554 0.000000000000000e+00 1851878480
-1.988936 -0.083996 -3.022070 0.000000000000000e+00 1851878480
-1.747152 -0.598774 -2.654694 0.000000000000000e+00 1851878480
-1.825301 -0.543002 -2.755304 0.000000000000000e+00 1851878480
-1.841139 -0.468526 -2.779212 0.000000000000000e+00 1851878480
-1.777330 -0.375774 -2.682891 0.000000000000000e+00 1851878480
-1.781953 -0.301024 -2.689870 0.000000000000000e+00 1700951363
-1.795259 -0.227308 -2.709955 0.000000000000000e+00 1700951363
-1.847035 -0.155964 -2.788111 0.000000000000000e+00 1851878480
-2.002894 -0.084200 -3.023382 0.000000000000000e+00 1851878480
-1.756880 -0.599364 -2.652022 0.000000000000000e+00 1851878480
-1.836323 -0.543807 -2.753865 0.000000000000000e+00 1851878480
-1.852281 -0.469228 -2.777797 0.000000000000000e+00 1851878480
-1.787267 -0.376164 -2.680298 0.000000000000000e+00 1851878480
-1.792104 -0.301368 -2.687552 0.000000000000000e+00 1700951363
-1.805366 -0.227553 -2.707441 0.000000000000000e+00 1700951363
-1.857577 -0.156144 -2.785739 0.000000000000000e+00 1851878480
-2.017012 -0.084409 -3.024839 0.000000000000000e+00 1851878480
-1.766761 -0.600006 -2.649546 0.000000000000000e+00 1851878480
-1.847375 -0.544619 -2.752421 0.000000000000000e+00 1851878480
-1.863453 -0.469935 -2.776376 0.000000000000000e+00 1851878480
-1.797224 -0.376558 -2.677700 0.000000000000000e+00 1851878480
-1.802276 -0.301716 -2.685228 0.000000000000000e+00 1700951363
-1.815494 -0.227801 -2.704921 0.000000000000000e+00 1700951363
-1.868117 -0.156323 -2.783325 0.000000000000000e+00 1851878480
-2.031477 -0.084632 -3.026717 0.000000000000000e+00 1851878480
-1.776648 -0.600650 -2.647045 0.000000000000000e+00 1851878480
-1.858461 -0.545439 -2.750971 0.000000000000000e+00 1851878480
-1.874048 -0.470494 -2.774044 0.000000000000000e+00 1851878480
-1.807202 -0.376957 -2.675095 0.000000000000000e+00 1851878480
-1.812464 -0.302065 -2.682884 0.000000000000000e+00 1700951363
-1.825637 -0.228050 -2.702384 0.000000000000000e+00 1700951363
-1.878659 -0.156503 -2.780869 0.000000000000000e+00 1851878480
-2.046127 -0.084862 -3.028762 0.000000000000000e+00 1851878480
-1.786594 -0.601313 -2.644591 0.000000000000000e+00 1851878480
-1.869579 -0.546266 -2.749514 0.000000000000000e+00 1851878480
-1.884592 -0.471041 -2.771593 0.000000000000000e+00 1851878480
-1.817201 -0.377360 -2.672485 0.000000000000000e+00 1851878480
-1.822602 -0.302406 -2.680428 0.000000000000000e+00 1700951363
-1.835882 -0.228311 -2.699958 0.000000000000000e+00 1700951363
-1.889276 -0.156688 -2.778482 0.000000000000000e+00 1851878480
-2.061010 -0.085099 -3.031044 0.000000000000000e+00 1851878480
-1.796569 -0.601985 -2.642142 0.000000000000000e+00 1851878480
-1.880729 -0.547100 -2.748051 0.000000000000000e+00 1851878480
-1.895160 -0.471593 -2.769137 0.000000000000000e+00 1851878480
-1.827222 -0.377767 -2.669869 0.000000000000000e+00 1851878480
-1.832762 -0.302750 -2.677964 0.000000000000000e+00 1700951363
-1.846608 -0.228632 -2.698195 0.000000000000000e+00 1700951363
-1.900002 -0.156883 -2.776213 0.000000000000000e+00 1851878480
-2.076177 -0.085347 -3.033633 0.000000000000000e+00 1851878480
-1.806586 -0.602672 -2.639717 0.000000000000000e+00 1851878480
-1.891912 -0.547941 -2.746583 0.000000000000000e+00 1851878480
-1.905752 -0.472150 -2.766675 0.000000000000000e+00 1851878480
-1.837264 -0.378178 -2.667247 0.000000000000000e+00 1851878480
-1.842945 -0.303098 -2.675496 0.000000000000000e+00 1700951363
-1.857363 -0.228956 -2.696427 0.000000000000000e+00 1700951363
-1.910956 -0.157096 -2.774230 0.000000000000000e+00 1851878480
-2.091545 -0.085602 -3.036401 0.000000000000000e+00 1851878480
-1.816686 -0.603385 -2.637374 0.000000000000000e+00 1851878480
-1.903130 -0.548789 -2.745109 0.000000000000000e+00 1851878480
-1.916370 -0.472713 -2.764207 0.000000000000000e+00 1851878480
-1.847438 -0.378616 -2.664779 0.000000000000000e+00 1851878480
-1.853210 -0.303459 -2.673104 0.000000000000000e+00 1700951363
-1.868113 -0.229278 -2.694600 0.000000000000000e+00 1700951363
-1.921962 -0.157313 -2.772273 0.000000000000000e+00 1851878480
-2.107141 -0.085865 -3.039378 0.000000000000000e+00 1851878480
-1.826813 -0.604106 -2.635029 0.000000000000000e+00 1851878480
-1.914381 -0.549645 -2.743629 0.000000000000000e+00 1851878480
-1.927013 -0.473282 -2.761732 0.000000000000000e+00 1851878480
-1.858096 -0.379153 -2.662964 0.000000000000000e+00 1851878480
-1.863664 -0.303850 -2.670942 0.000000000000000e+00 1700951363
-1.878872 -0.229601 -2.692739 0.000000000000000e+00 1700951363
-1.933066 -0.157537 -2.770408 0.000000000000000e+00 1851878480
-2.123001 -0.086137 -3.042617 0.000000000000000e+00 1851878480
-1.836966 -0.604835 -2.632680 0.000000000000000e+00 1851878480
-1.923929 -0.550012 -2.739669 0.000000000000000e+00 1851878480
-1.937682 -0.473856 -2.759252 0.000000000000000e+00 1851878480
-1.868785 -0.379694 -2.661143 0.000000000000000e+00 1851878480
-1.874143 -0.304245 -2.668773 0.000000000000000e+00 1700951363
-1.889734 -0.229935 -2.690975 0.000000000000000e+00 1700951363
-1.944405 -0.157780 -2.768826 0.000000000000000e+00 1851878480
-2.139211 -0.086422 -3.046229 0.000000000000000e+00 1851878480
-1.847235 -0.605601 -2.630455 0.000000000000000e+00 1851878480
-1.932560 -0.550119 -2.734388 0.000000000000000e+00 1851878480
-1.948376 -0.474436 -2.756766 0.000000000000000e+00 1851878480
-1.879503 -0.380241 -2.659317 0.000000000000000e+00 1851878480
-1.884981 -0.304698 -2.667068 0.000000000000000e+00 1700951363
-1.900815 -0.230296 -2.689472 0.000000000000000e+00 1700951363
-1.956086 -0.158050 -2.767675 0.000000000000000e+00 1851878480
-2.155842 -0.086721 -3.050311 0.000000000000000e+00 1851878480
-1.857539 -0.606378 -2.628240 0.000000000000000e+00 1851878480
-1.941160 -0.550222 -2.729056 0.000000000000000e+00 1851878480
-1.959097 -0.475021 -2.754273 0.000000000000000e+00 1851878480
-1.890253 -0.380792 -2.657485 0.000000000000000e+00 1851878480
-1.895890 -0.305160 -2.665411 0.000000000000000e+00 1700951363
-1.911931 -0.230659 -2.687963 0.000000000000000e+00 1700951363
-1.968058 -0.158342 -2.766871 0.000000000000000e+00 1851878480
-2.173306 -0.087053 -3.055427 0.000000000000000e+00 1851878480
-1.867869 -0.607162 -2.626017 0.000000000000000e+00 1851878480
-1.949516 -0.550259 -2.723376 0.000000000000000e+00 1851878480
-1.969844 -0.475613 -2.751773 0.000000000000000e+00 1851878480
-1.901033 -0.381349 -2.655648 0.000000000000000e+00 1851878480
-1.906791 -0.305620 -2.663691 0.000000000000000e+00 1700951363
-1.923082 -0.231026 -2.686450 0.000000000000000e+00 1700951363
-1.980418 -0.158664 -2.766544 0.000000000000000e+00 1851878480
-2.191622 -0.087416 -3.061586 0.000000000000000e+00 1851878480
-1.878303 -0.607978 -2.623895 0.000000000000000e+00 1851878480
-1.957615 -0.550230 -2.717338 0.000000000000000e+00 1851878480
-1.980618 -0.476210 -2.749268 0.000000000000000e+00 1851878480
-1.911845 -0.381911 -2.653805 0.000000000000000e+00 1851878480
-1.917714 -0.306083 -2.661952 0.000000000000000e+00 1700951363
-1.934309 -0.231401 -2.684987 0.000000000000000e+00 1700951363
-1.993218 -0.159021 -2.766758 0.000000000000000e+00 1851878480
-2.210766 -0.087810 -3.068734 0.000000000000000e+00 1851878480
-1.888815 -0.608819 -2.621838 0.000000000000000e+00 1851878480
-1.965675 -0.550195 -2.711247 0.000000000000000e+00 1851878480
-1.991419 -0.476813 -2.746755 0.000000000000000e+00 1851878480
-1.922688 -0.382477 -2.651956 0.000000000000000e+00 1851878480
-1.928670 -0.306550 -2.660207 0.000000000000000e+00 1700951363
-1.946476 -0.231887 -2.684766 0.000000000000000e+00 1700951363
-2.006522 -0.159415 -2.767587 0.000000000000000e+00 1851878480
-2.230999 -0.088245 -3.077208 0.000000000000000e+00 1851878480
-1.897029 -0.608920 -2.616565 0.000000000000000e+00 1851878480
-1.973848 -0.550196 -2.705314 0.000000000000000e+00 1851878480
-2.002248 -0.477422 -2.744236 0.000000000000000e+00 1851878480
-1.933565 -0.383049 -2.650101 0.000000000000000e+00 1851878480
-1.939778 -0.307039 -2.658618 0.000000000000000e+00 1700951363
-1.958945 -0.232406 -2.684887 0.000000000000000e+00 1700951363
-2.020192 -0.159837 -2.768831 0.000000000000000e+00 1851878480
-2.252306 -0.088719 -3.086961 0.000000000000000e+00 1851878480
-1.908141 -0.609952 -2.615256 0.000000000000000e+00 1851878480
-1.982848 -0.550432 -2.700505 0.000000000000000e+00 1851878480
-2.013104 -0.478037 -2.741711 0.000000000000000e+00 1851878480
-1.944473 -0.383626 -2.648241 0.000000000000000e+00 1851878480
-1.951044 -0.307553 -2.657190 0.000000000000000e+00 1700951363
-1.970827 -0.232855 -2.684134 0.000000000000000e+00 1851878480
-2.034165 -0.160281 -2.770396 0.000000000000000e+00 1851878480
-2.274419 -0.089222 -3.097605 0.000000000000000e+00 1851878480
-1.919644 -0.611106 -2.614426 0.000000000000000e+00 1851878480
-1.991716 -0.550634 -2.695504 0.000000000000000e+00 1851878480
-2.023987 -0.478657 -2.739179 0.000000000000000e+00 1851878480
-1.955414 -0.384208 -2.646375 0.000000000000000e+00 1851878480
-1.962344 -0.308070 -2.655754 0.000000000000000e+00 1700951363
-1.981062 -0.233107 -2.681086 0.000000000000000e+00 1851878480
-2.048360 -0.160740 -2.772165 0.000000000000000e+00 1851878480
-2.297502 -0.089759 -3.109343 0.000000000000000e+00 1851878480
-1.931519 -0.612374 -2.614037 0.000000000000000e+00 1851878480
-2.000326 -0.550769 -2.690144 0.000000000000000e+00 1851878480
-2.030178 -0.478172 -2.730291 0.000000000000000e+00 1851878480
-1.966388 -0.384796 -2.644502 0.000000000000000e+00 1851878480
-1.973683 -0.308592 -2.654313 0.000000000000000e+00 1700951363
-1.991853 -0.233425 -2.678749 0.000000000000000e+00 1851878480
-2.062699 -0.161208 -2.774026 0.000000000000000e+00 1851878480
-2.321843 -0.090341 -3.122536 0.000000000000000e+00 1851878480
-1.943513 -0.613674 -2.613739 0.000000000000000e+00 1851878480
-2.008924 -0.550904 -2.684758 0.000000000000000e+00 1851878480
-2.036299 -0.477678 -2.721343 0.000000000000000e+00 1851878480
-1.978036 -0.385513 -2.643479 0.000000000000000e+00 1851878480
-1.985059 -0.309118 -2.652865 0.000000000000000e+00 1700951363
-2.002988 -0.233783 -2.676826 0.000000000000000e+00 1851878480
-2.077101 -0.161678 -2.775872 0.000000000000000e+00 1851878480
-2.347234 -0.090961 -3.136882 0.000000000000000e+00 1851878480
-1.955644 -0.615013 -2.613554 0.000000000000000e+00 1851878480
-2.017507 -0.551040 -2.679346 0.000000000000000e+00 1851878480
-2.042413 -0.477191 -2.712422 0.000000000000000e+00 1851878480
-1.989890 -0.386268 -2.642669 0.000000000000000e+00 1851878480
-1.996790 -0.309698 -2.651833 0.000000000000000e+00 1700951363
-2.014353 -0.234167 -2.675156 0.000000000000000e+00 1851878480
-2.091497 -0.162146 -2.777608 0.000000000000000e+00 1851878480
-2.373926 -0.091626 -3.152687 0.000000000000000e+00 1851878480
-2.054934 -0.643647 -2.729050 0.000000000000000e+00 1851878480
-2.026077 -0.551175 -2.673907 0.000000000000000e+00 1851878480
-2.048516 -0.476710 -2.703520 0.000000000000000e+00 1851878480
-2.001792 -0.387030 -2.641856 0.000000000000000e+00 1851878480
-2.009114 -0.310368 -2.651520 0.000000000000000e+00 1700951363
-2.025980 -0.234580 -2.673778 0.000000000000000e+00 1851878480
-2.105822 -0.162606 -2.779150 0.000000000000000e+00 1851878480
-2.402401 -0.092356 -3.170558 0.000000000000000e+00 1851878480
-2.073817 -0.646973 -2.736910 0.000000000000000e+00 1851878480
-2.034704 -0.551330 -2.668534 0.000000000000000e+00 1851878480
-2.055151 -0.476360 -2.695349 0.000000000000000e+00 1851878480
-2.013740 -0.387799 -2.641040 0.000000000000000e+00 1851878480
-2.021668 -0.311071 -2.651437 0.000000000000000e+00 1700951363
-2.037886 -0.235024 -2.672707 0.000000000000000e+00 1851878480
-2.120033 -0.163055 -2.780444 0.000000000000000e+00 1851878480
-2.433698 -0.093189 -3.191818 0.000000000000000e+00 1851878480
-2.095952 -0.651289 -2.748861 0.000000000000000e+00 1851878480
-2.043812 -0.551619 -2.663778 0.000000000000000e+00 1851878480
-2.062161 -0.476104 -2.687693 0.000000000000000e+00 1851878480
-2.025736 -0.388573 -2.640219 0.000000000000000e+00 1851878480
-2.034279 -0.311779 -2.651353 0.000000000000000e+00 1700951363
-2.049939 -0.235484 -2.671764 0.000000000000000e+00 1851878480
-2.134133 -0.163494 -2.781496 0.000000000000000e+00 1851878480
-2.470835 -0.094238 -3.220333 0.000000000000000e+00 1851878480
-2.145248 -0.663984 -2.795984 0.000000000000000e+00 1851878480
-2.052917 -0.551910 -2.659003 0.000000000000000e+00 1851878480
-2.069177 -0.475856 -2.680063 0.000000000000000e+00 1851878480
-2.037779 -0.389355 -2.639395 0.000000000000000e+00 1851878480
-2.046945 -0.312493 -2.651268 0.000000000000000e+00 1700951363
-2.061944 -0.235937 -2.670694 0.000000000000000e+00 1851878480
