# .PCD v0.7 - Point Cloud Data file format
VERSION 0.7
FIELDS x y z rgb label
SIZE 4 4 4 4 4
TYPE F F F F U
COUNT 1 1 1 1 1
WIDTH 775
HEIGHT 1
VIEWPOINT 0 0 0 1 0 0 0
POINTS 775
DATA ascii
3.134919 -0.146698 -0.260602 0.000000000000000e+00 1700951363
3.125184 -0.072808 -0.259793 0.000000000000000e+00 1700951363
3.179053 0.000000 -0.264271 0.000000000000000e+00 1851878480
3.313473 0.077194 -0.275445 0.000000000000000e+00 1851878480
3.110586 -0.438784 -0.268028 0.000000000000000e+00 1851878480
3.211826 -0.376419 -0.276752 0.000000000000000e+00 1851878480
3.282619 -0.307388 -0.282852 0.000000000000000e+00 1851878480
3.293736 -0.231174 -0.283809 0.000000000000000e+00 1851878480
3.149949 -0.147439 -0.271420 0.000000000000000e+00 1700951363
3.143498 -0.073253 -0.270864 0.000000000000000e+00 1700951363
3.195910 0.000000 -0.275380 0.000000000000000e+00 1851878480
3.273992 0.076294 -0.282108 0.000000000000000e+00 1851878480
3.111460 -0.439024 -0.277559 0.000000000000000e+00 1851878480
3.206292 -0.375870 -0.286019 0.000000000000000e+00 1851878480
3.276665 -0.306911 -0.292297 0.000000000000000e+00 1851878480
3.268036 -0.229431 -0.291527 0.000000000000000e+00 1851878480
3.136856 -0.146865 -0.279825 0.000000000000000e+00 1700951363
3.126467 -0.072876 -0.278898 0.000000000000000e+00 1700951363
3.192266 0.000000 -0.284768 0.000000000000000e+00 1851878480
3.289207 0.076669 -0.293415 0.000000000000000e+00 1851878480
3.099524 -0.437459 -0.285920 0.000000000000000e+00 1851878480
3.193507 -0.374474 -0.294589 0.000000000000000e+00 1851878480
3.279777 -0.307287 -0.302547 0.000000000000000e+00 1851878480
3.257012 -0.228719 -0.300447 0.000000000000000e+00 1851878480
3.159407 -0.147961 -0.291444 0.000000000000000e+00 1700951363
3.122458 -0.072802 -0.288035 0.000000000000000e+00 1700951363
3.172579 0.000000 -0.292659 0.000000000000000e+00 1851878480
3.286948 0.076637 -0.303209 0.000000000000000e+00 1851878480
3.114158 -0.439649 -0.296744 0.000000000000000e+00 1851878480
3.209756 -0.376486 -0.305854 0.000000000000000e+00 1851878480
3.271961 -0.306641 -0.311781 0.000000000000000e+00 1851878480
3.280580 -0.230440 -0.312602 0.000000000000000e+00 1851878480
3.159592 -0.148012 -0.301073 0.000000000000000e+00 1700951363
3.118836 -0.072738 -0.297190 0.000000000000000e+00 1700951363
3.178940 0.000000 -0.302917 0.000000000000000e+00 1851878480
3.290327 0.076738 -0.313531 0.000000000000000e+00 1851878480
3.111962 -0.439467 -0.306008 0.000000000000000e+00 1851878480
3.206213 -0.376180 -0.315276 0.000000000000000e+00 1851878480
3.179619 -0.298074 -0.312661 0.000000000000000e+00 1851878480
3.272211 -0.229919 -0.321766 0.000000000000000e+00 1851878480
3.144976 -0.147370 -0.309255 0.000000000000000e+00 1700951363
3.120161 -0.072790 -0.306815 0.000000000000000e+00 1700951363
3.178667 0.000000 -0.312568 0.000000000000000e+00 1851878480
3.300617 0.077000 -0.324559 0.000000000000000e+00 1851878480
3.105838 -0.438734 -0.314867 0.000000000000000e+00 1851878480
3.220778 -0.378003 -0.326519 0.000000000000000e+00 1851878480
3.178291 -0.298040 -0.322212 0.000000000000000e+00 1851878480
3.264413 -0.229440 -0.330943 0.000000000000000e+00 1851878480
3.158899 -0.148067 -0.320246 0.000000000000000e+00 1700951363
3.130423 -0.073052 -0.317359 0.000000000000000e+00 1700951363
3.177405 0.000000 -0.322122 0.000000000000000e+00 1851878480
3.261297 0.076106 -0.330627 0.000000000000000e+00 1851878480
3.118196 -0.440617 -0.325623 0.000000000000000e+00 1851878480
3.203681 -0.376113 -0.334550 0.000000000000000e+00 1851878480
3.174161 -0.297745 -0.331468 0.000000000000000e+00 1851878480
3.268734 -0.229815 -0.341344 0.000000000000000e+00 1851878480
3.143884 -0.147409 -0.328306 0.000000000000000e+00 1700951363
3.110492 -0.072609 -0.324819 0.000000000000000e+00 1700951363
3.175840 0.000000 -0.331643 0.000000000000000e+00 1851878480
3.277968 0.076519 -0.342308 0.000000000000000e+00 1851878480
4.665305 0.218745 -0.487183 0.000000000000000e+00 1851878480
3.120484 -0.441081 -0.335379 0.000000000000000e+00 1851878480
3.203620 -0.376226 -0.344314 0.000000000000000e+00 1851878480
3.181285 -0.298508 -0.341914 0.000000000000000e+00 1851878480
3.257959 -0.229131 -0.350154 0.000000000000000e+00 1851878480
3.151395 -0.147809 -0.338701 0.000000000000000e+00 1700951363
3.109238 -0.072603 -0.334170 0.000000000000000e+00 1700951363
3.177574 0.000000 -0.341515 0.000000000000000e+00 1851878480
3.276789 0.076516 -0.352178 0.000000000000000e+00 1851878480
4.608716 0.216161 -0.495329 0.000000000000000e+00 1851878480
3.106469 -0.439244 -0.343353 0.000000000000000e+00 1851878480
3.210925 -0.377208 -0.354898 0.000000000000000e+00 1851878480
3.170852 -0.297627 -0.350469 0.000000000000000e+00 1851878480
3.155248 -0.221980 -0.348745 0.000000000000000e+00 1851878480
3.148436 -0.147718 -0.347992 0.000000000000000e+00 1700951363
3.113067 -0.072716 -0.344082 0.000000000000000e+00 1700951363
3.162567 0.000000 -0.349554 0.000000000000000e+00 1851878480
3.261710 0.076188 -0.360512 0.000000000000000e+00 1851878480
4.550646 0.213507 -0.502976 0.000000000000000e+00 1851878480
3.115942 -0.440733 -0.353915 0.000000000000000e+00 1851878480
3.207874 -0.376977 -0.364357 0.000000000000000e+00 1851878480
3.175563 -0.298170 -0.360687 0.000000000000000e+00 1851878480
3.172695 -0.223283 -0.360362 0.000000000000000e+00 1851878480
3.146812 -0.147692 -0.357422 0.000000000000000e+00 1700951363
3.116971 -0.072832 -0.354032 0.000000000000000e+00 1700951363
3.182146 0.000000 -0.361435 0.000000000000000e+00 1851878480
3.269351 0.076393 -0.371340 0.000000000000000e+00 1851878480
4.516417 0.211973 -0.512984 0.000000000000000e+00 1851878480
3.106720 -0.439581 -0.362362 0.000000000000000e+00 1851878480
3.219691 -0.378497 -0.375538 0.000000000000000e+00 1851878480
3.174256 -0.298151 -0.370239 0.000000000000000e+00 1851878480
3.160850 -0.222527 -0.368675 0.000000000000000e+00 1851878480
3.145996 -0.147705 -0.366943 0.000000000000000e+00 1700951363
3.115135 -0.072815 -0.363343 0.000000000000000e+00 1700951363
3.162676 0.000000 -0.368888 0.000000000000000e+00 1851878480
3.267762 0.076382 -0.381145 0.000000000000000e+00 1851878480
4.478354 0.210260 -0.522346 0.000000000000000e+00 1851878480
3.123294 -0.442084 -0.373846 0.000000000000000e+00 1851878480
3.221521 -0.378847 -0.385603 0.000000000000000e+00 1851878480
3.196508 -0.300348 -0.382610 0.000000000000000e+00 1851878480
3.142176 -0.221291 -0.376106 0.000000000000000e+00 1851878480
3.144116 -0.147669 -0.376338 0.000000000000000e+00 1700951363
3.093302 -0.072330 -0.370256 0.000000000000000e+00 1700951363
3.149644 0.000000 -0.377000 0.000000000000000e+00 1851878480
3.257635 0.076173 -0.389926 0.000000000000000e+00 1851878480
4.459103 0.209430 -0.533737 0.000000000000000e+00 1851878480
3.110721 -0.440465 -0.381861 0.000000000000000e+00 1851878480
3.203211 -0.376831 -0.393214 0.000000000000000e+00 1851878480
3.186936 -0.299558 -0.391216 0.000000000000000e+00 1851878480
3.165130 -0.222989 -0.388540 0.000000000000000e+00 1851878480
3.120428 -0.146611 -0.383052 0.000000000000000e+00 1851878480
3.114762 -0.072858 -0.382357 0.000000000000000e+00 1700951363
3.155584 0.000000 -0.387368 0.000000000000000e+00 1851878480
3.252139 0.076072 -0.399221 0.000000000000000e+00 1851878480
4.422984 0.207810 -0.542949 0.000000000000000e+00 1851878480
3.115541 -0.441313 -0.391994 0.000000000000000e+00 1851878480
3.209731 -0.377740 -0.403845 0.000000000000000e+00 1851878480
3.173959 -0.298450 -0.399344 0.000000000000000e+00 1851878480
3.163538 -0.222960 -0.398033 0.000000000000000e+00 1851878480
3.130623 -0.147145 -0.393892 0.000000000000000e+00 1851878480
3.124310 -0.073109 -0.393097 0.000000000000000e+00 1700951363
3.160180 0.000000 -0.397610 0.000000000000000e+00 1851878480
3.236432 0.075733 -0.407204 0.000000000000000e+00 1851878480
4.411027 0.207326 -0.554991 0.000000000000000e+00 1851878480
3.130794 -0.443644 -0.403508 0.000000000000000e+00 1851878480
3.210660 -0.377995 -0.413802 0.000000000000000e+00 1851878480
3.175029 -0.298665 -0.409209 0.000000000000000e+00 1851878480
3.146079 -0.221815 -0.405478 0.000000000000000e+00 1851878480
3.134257 -0.147372 -0.403955 0.000000000000000e+00 1851878480
3.117212 -0.072971 -0.401758 0.000000000000000e+00 1700951363
3.148947 0.000000 -0.405848 0.000000000000000e+00 1851878480
3.254704 0.076190 -0.419478 0.000000000000000e+00 1851878480
4.336655 0.203909 -0.558924 0.000000000000000e+00 1851878480
3.110308 -0.440914 -0.410408 0.000000000000000e+00 1851878480
3.227150 -0.380085 -0.425826 0.000000000000000e+00 1851878480
3.187749 -0.299980 -0.420627 0.000000000000000e+00 1851878480
3.162591 -0.223067 -0.417307 0.000000000000000e+00 1851878480
3.126351 -0.147058 -0.412525 0.000000000000000e+00 1851878480
3.104078 -0.072692 -0.409586 0.000000000000000e+00 1700951363
3.152883 0.000000 -0.416026 0.000000000000000e+00 1851878480
3.267821 0.076527 -0.431192 0.000000000000000e+00 1851878480
4.323104 0.203351 -0.570438 0.000000000000000e+00 1851878480
3.123371 -0.442944 -0.421719 0.000000000000000e+00 1851878480
3.203671 -0.377472 -0.432562 0.000000000000000e+00 1851878480
3.171580 -0.298579 -0.428229 0.000000000000000e+00 1851878480
3.166491 -0.223432 -0.427542 0.000000000000000e+00 1851878480
3.130577 -0.147316 -0.422692 0.000000000000000e+00 1851878480
3.106231 -0.072772 -0.419405 0.000000000000000e+00 1851878480
3.130274 0.000000 -0.422651 0.000000000000000e+00 1851878480
3.237449 0.075846 -0.437122 0.000000000000000e+00 1851878480
4.303606 0.202516 -0.581075 0.000000000000000e+00 1851878480
3.115205 -0.441968 -0.430187 0.000000000000000e+00 1851878480
3.186982 -0.375660 -0.440099 0.000000000000000e+00 1851878480
3.194590 -0.300869 -0.441150 0.000000000000000e+00 1851878480
3.179354 -0.224432 -0.439046 0.000000000000000e+00 1851878480
3.142636 -0.147945 -0.433976 0.000000000000000e+00 1851878480
3.117280 -0.073061 -0.430474 0.000000000000000e+00 1851878480
3.145573 0.000000 -0.434381 0.000000000000000e+00 1851878480
3.223048 0.075540 -0.445080 0.000000000000000e+00 1851878480
4.274340 0.201221 -0.590256 0.000000000000000e+00 1851878480
3.094593 -0.439229 -0.436856 0.000000000000000e+00 1851878480
3.195672 -0.376843 -0.451125 0.000000000000000e+00 1851878480
3.178490 -0.299478 -0.448700 0.000000000000000e+00 1851878480
3.166786 -0.223639 -0.447047 0.000000000000000e+00 1851878480
3.132037 -0.147508 -0.442142 0.000000000000000e+00 1851878480
3.098256 -0.072646 -0.437373 0.000000000000000e+00 1851878480
3.131092 0.000000 -0.442008 0.000000000000000e+00 1851878480
3.217115 0.075432 -0.454152 0.000000000000000e+00 1851878480
4.248765 0.200102 -0.599788 0.000000000000000e+00 1851878480
3.115458 -0.442381 -0.449389 0.000000000000000e+00 1851878480
3.206006 -0.378225 -0.462450 0.000000000000000e+00 1851878480
3.175278 -0.299305 -0.458018 0.000000000000000e+00 1851878480
3.141594 -0.221955 -0.453159 0.000000000000000e+00 1851878480
3.135381 -0.147729 -0.452263 0.000000000000000e+00 1851878480
3.110700 -0.072969 -0.448703 0.000000000000000e+00 1851878480
3.137636 0.000000 -0.452588 0.000000000000000e+00 1851878480
3.233728 0.075855 -0.466449 0.000000000000000e+00 1851878480
4.239934 0.199772 -0.611589 0.000000000000000e+00 1851878480
3.128283 -0.444397 -0.460874 0.000000000000000e+00 1851878480
3.195880 -0.377196 -0.470833 0.000000000000000e+00 1851878480
3.173389 -0.299258 -0.467519 0.000000000000000e+00 1851878480
3.145844 -0.222353 -0.463461 0.000000000000000e+00 1851878480
3.145705 -0.148280 -0.463441 0.000000000000000e+00 1851878480
3.114813 -0.073097 -0.458890 0.000000000000000e+00 1851878480
3.135759 0.000000 -0.461975 0.000000000000000e+00 1851878480
3.211465 0.075366 -0.473129 0.000000000000000e+00 1851878480
4.217130 0.198785 -0.621288 0.000000000000000e+00 1851878480
3.106130 -0.441448 -0.467186 0.000000000000000e+00 1851878480
3.190847 -0.376771 -0.479928 0.000000000000000e+00 1851878480
3.202907 -0.302177 -0.481742 0.000000000000000e+00 1851878480
3.148851 -0.222666 -0.473611 0.000000000000000e+00 1851878480
3.124452 -0.147345 -0.469941 0.000000000000000e+00 1851878480
3.101874 -0.072826 -0.466545 0.000000000000000e+00 1851878480
3.146462 0.000000 -0.473252 0.000000000000000e+00 1851878480
3.206224 0.075276 -0.482240 0.000000000000000e+00 1851878480
4.207596 0.198424 -0.632854 0.000000000000000e+00 1851878480
4.720576 0.333808 -0.710011 0.000000000000000e+00 1851878480
3.124743 -0.444297 -0.479627 0.000000000000000e+00 1851878480
3.209599 -0.379159 -0.492652 0.000000000000000e+00 1851878480
3.176057 -0.299782 -0.487503 0.000000000000000e+00 1851878480
3.178810 -0.224887 -0.487926 0.000000000000000e+00 1851878480
3.117001 -0.147061 -0.478439 0.000000000000000e+00 1851878480
3.108713 -0.073020 -0.477167 0.000000000000000e+00 1851878480
3.123776 0.000000 -0.479479 0.000000000000000e+00 1851878480
3.211775 0.075441 -0.492986 0.000000000000000e+00 1851878480
4.182318 0.197323 -0.641958 0.000000000000000e+00 1851878480
4.600363 0.325456 -0.706125 0.000000000000000e+00 1851878480
3.093161 -0.440012 -0.484332 0.000000000000000e+00 1851878480
3.212960 -0.379733 -0.503090 0.000000000000000e+00 1851878480
3.189886 -0.301228 -0.499477 0.000000000000000e+00 1851878480
3.163196 -0.223887 -0.495298 0.000000000000000e+00 1851878480
3.133743 -0.147920 -0.490687 0.000000000000000e+00 1851878480
3.097273 -0.072786 -0.484976 0.000000000000000e+00 1851878480
3.128188 0.000000 -0.489817 0.000000000000000e+00 1851878480
3.206706 0.075357 -0.502111 0.000000000000000e+00 1851878480
4.168460 0.196761 -0.652704 0.000000000000000e+00 1851878480
4.531788 0.320755 -0.709595 0.000000000000000e+00 1851878480
3.125724 -0.444857 -0.499094 0.000000000000000e+00 1851878480
3.206646 -0.379168 -0.512015 0.000000000000000e+00 1851878480
3.179638 -0.300403 -0.507702 0.000000000000000e+00 1851878480
3.138773 -0.222265 -0.501177 0.000000000000000e+00 1851878480
3.125475 -0.147600 -0.499054 0.000000000000000e+00 1851878480
3.114599 -0.073228 -0.497317 0.000000000000000e+00 1851878480
3.127001 0.000000 -0.499298 0.000000000000000e+00 1851878480
3.193821 0.075090 -0.509967 0.000000000000000e+00 1851878480
4.156297 0.196280 -0.663649 0.000000000000000e+00 1851878480
4.500813 0.318714 -0.718658 0.000000000000000e+00 1851878480
3.121287 -0.444441 -0.508043 0.000000000000000e+00 1851878480
3.212833 -0.380084 -0.522944 0.000000000000000e+00 1851878480
3.182643 -0.300833 -0.518030 0.000000000000000e+00 1851878480
3.151707 -0.223289 -0.512995 0.000000000000000e+00 1851878480
3.124633 -0.147632 -0.508588 0.000000000000000e+00 1851878480
3.115720 -0.073290 -0.507137 0.000000000000000e+00 1851878480
3.126128 0.000000 -0.508831 0.000000000000000e+00 1851878480
3.206950 0.075436 -0.521987 0.000000000000000e+00 1851878480
4.135377 0.195387 -0.673104 0.000000000000000e+00 1851878480
4.450116 0.315278 -0.724333 0.000000000000000e+00 1851878480
3.104892 -0.442326 -0.514992 0.000000000000000e+00 1851878480
3.204270 -0.379259 -0.531475 0.000000000000000e+00 1851878480
3.178288 -0.300571 -0.527166 0.000000000000000e+00 1851878480
3.186614 -0.225874 -0.528547 0.000000000000000e+00 1851878480
3.128873 -0.147906 -0.518970 0.000000000000000e+00 1851878480
3.107239 -0.073127 -0.515381 0.000000000000000e+00 1851878480
3.160813 0.000000 -0.524267 0.000000000000000e+00 1851878480
3.186765 0.074998 -0.528572 0.000000000000000e+00 1851878480
4.133023 0.195373 -0.685523 0.000000000000000e+00 1851878480
4.414315 0.312896 -0.732179 0.000000000000000e+00 1851878480
3.421577 -0.570112 -0.578127 0.000000000000000e+00 1701537140
3.121171 -0.444870 -0.527369 0.000000000000000e+00 1851878480
3.194316 -0.378272 -0.539728 0.000000000000000e+00 1851878480
3.183172 -0.301184 -0.537845 0.000000000000000e+00 1851878480
3.149695 -0.223370 -0.532189 0.000000000000000e+00 1851878480
3.138977 -0.148458 -0.530378 0.000000000000000e+00 1851878480
3.104923 -0.073109 -0.524624 0.000000000000000e+00 1851878480
3.127050 0.000000 -0.528362 0.000000000000000e+00 1851878480
3.183005 0.074947 -0.537817 0.000000000000000e+00 1851878480
4.109431 0.194356 -0.694351 0.000000000000000e+00 1851878480
4.365711 0.309607 -0.737653 0.000000000000000e+00 1851878480
3.388452 -0.564883 -0.583047 0.000000000000000e+00 1701537140
3.242718 -0.462432 -0.557971 0.000000000000000e+00 1701537140
3.203702 -0.379579 -0.551257 0.000000000000000e+00 1851878480
3.182595 -0.301285 -0.547625 0.000000000000000e+00 1851878480
3.163735 -0.224481 -0.544380 0.000000000000000e+00 1851878480
3.140726 -0.148617 -0.540421 0.000000000000000e+00 1851878480
3.113842 -0.073357 -0.535795 0.000000000000000e+00 1851878480
3.138025 0.000000 -0.539956 0.000000000000000e+00 1851878480
3.185505 0.075045 -0.548126 0.000000000000000e+00 1851878480
4.094728 0.193760 -0.704575 0.000000000000000e+00 1851878480
4.334686 0.307565 -0.745864 0.000000000000000e+00 1851878480
3.384192 -0.564469 -0.592828 0.000000000000000e+00 1701537140
3.193895 -0.455708 -0.559493 0.000000000000000e+00 1701537140
3.221716 -0.381913 -0.564366 0.000000000000000e+00 1851878480
3.196533 -0.302763 -0.559955 0.000000000000000e+00 1851878480
3.163094 -0.224553 -0.554097 0.000000000000000e+00 1851878480
3.123628 -0.147886 -0.547183 0.000000000000000e+00 1851878480
3.104042 -0.073164 -0.543752 0.000000000000000e+00 1851878480
3.136742 0.000000 -0.549481 0.000000000000000e+00 1851878480
3.183631 0.075040 -0.557694 0.000000000000000e+00 1851878480
4.076314 0.192990 -0.714071 0.000000000000000e+00 1851878480
4.303494 0.305512 -0.753867 0.000000000000000e+00 1851878480
3.358627 -0.560503 -0.598795 0.000000000000000e+00 1701537140
3.193453 -0.455888 -0.569347 0.000000000000000e+00 1701537140
3.280613 -0.389102 -0.584886 0.000000000000000e+00 1701537140
3.184100 -0.301746 -0.567679 0.000000000000000e+00 1851878480
3.162959 -0.224663 -0.563910 0.000000000000000e+00 1851878480
3.143204 -0.148892 -0.560388 0.000000000000000e+00 1851878480
3.089513 -0.072860 -0.550816 0.000000000000000e+00 1851878480
3.145841 0.000000 -0.560858 0.000000000000000e+00 1851878480
3.183995 0.075089 -0.567661 0.000000000000000e+00 1851878480
4.063998 0.192509 -0.724553 0.000000000000000e+00 1851878480
4.299090 0.305362 -0.766466 0.000000000000000e+00 1851878480
3.327400 -0.555593 -0.603588 0.000000000000000e+00 1701537140
3.181649 -0.454449 -0.577149 0.000000000000000e+00 1701537140
3.275309 -0.388684 -0.594139 0.000000000000000e+00 1701537140
3.270930 -0.310143 -0.593344 0.000000000000000e+00 1701537140
3.167758 -0.225126 -0.574629 0.000000000000000e+00 1851878480
3.127335 -0.148220 -0.567296 0.000000000000000e+00 1851878480
3.117668 -0.073564 -0.565543 0.000000000000000e+00 1851878480
3.145590 0.000000 -0.570608 0.000000000000000e+00 1851878480
3.175145 0.074921 -0.575969 0.000000000000000e+00 1851878480
4.066199 0.192718 -0.737605 0.000000000000000e+00 1851878480
4.272415 0.303632 -0.775013 0.000000000000000e+00 1851878480
3.316597 -0.554095 -0.611965 0.000000000000000e+00 1701537140
3.175660 -0.453844 -0.585960 0.000000000000000e+00 1701537140
3.254612 -0.386441 -0.600528 0.000000000000000e+00 1701537140
3.243736 -0.307734 -0.598521 0.000000000000000e+00 1701537140
3.151179 -0.224072 -0.581443 0.000000000000000e+00 1851878480
3.109164 -0.147441 -0.573691 0.000000000000000e+00 1851878480
3.115450 -0.073553 -0.574851 0.000000000000000e+00 1851878480
3.156420 0.000000 -0.582410 0.000000000000000e+00 1851878480
3.194935 0.075429 -0.589517 0.000000000000000e+00 1851878480
4.058684 0.192468 -0.748892 0.000000000000000e+00 1851878480
4.265238 0.303289 -0.787005 0.000000000000000e+00 1851878480
3.294811 -0.550764 -0.618227 0.000000000000000e+00 1701537140
3.143680 -0.449526 -0.589869 0.000000000000000e+00 1701537140
3.241728 -0.385127 -0.608267 0.000000000000000e+00 1701537140
3.221369 -0.305784 -0.604446 0.000000000000000e+00 1701537140
3.163203 -0.225053 -0.593532 0.000000000000000e+00 1851878480
3.131952 -0.148605 -0.587669 0.000000000000000e+00 1851878480
3.107547 -0.073407 -0.583089 0.000000000000000e+00 1851878480
3.156061 0.000000 -0.592192 0.000000000000000e+00 1851878480
3.178050 0.075073 -0.596318 0.000000000000000e+00 1851878480
4.038973 0.191641 -0.757859 0.000000000000000e+00 1851878480
4.240399 0.301692 -0.795654 0.000000000000000e+00 1851878480
3.268398 -0.546661 -0.623481 0.000000000000000e+00 1701537140
3.137813 -0.448943 -0.598570 0.000000000000000e+00 1701537140
3.236667 -0.384745 -0.617428 0.000000000000000e+00 1701537140
3.223066 -0.306119 -0.614833 0.000000000000000e+00 1701537140
3.224039 -0.229512 -0.615019 0.000000000000000e+00 1701537140
3.139100 -0.149029 -0.598816 0.000000000000000e+00 1851878480
3.112361 -0.073563 -0.593715 0.000000000000000e+00 1851878480
3.161509 0.000000 -0.603090 0.000000000000000e+00 1851878480
3.180244 0.075167 -0.606664 0.000000000000000e+00 1851878480
4.033078 0.191470 -0.769351 0.000000000000000e+00 1851878480
4.209879 0.299692 -0.803078 0.000000000000000e+00 1851878480
3.250677 -0.544013 -0.630267 0.000000000000000e+00 1701537140
3.141960 -0.449797 -0.609188 0.000000000000000e+00 1701537140
3.212790 -0.382129 -0.622921 0.000000000000000e+00 1701537140
3.221558 -0.306154 -0.624621 0.000000000000000e+00 1701537140
3.229681 -0.230047 -0.626196 0.000000000000000e+00 1701537140
3.144922 -0.149392 -0.609762 0.000000000000000e+00 1851878480
3.122588 -0.073847 -0.605432 0.000000000000000e+00 1851878480
3.165715 0.000000 -0.613794 0.000000000000000e+00 1851878480
3.158359 0.074693 -0.612367 0.000000000000000e+00 1851878480
4.027732 0.191327 -0.780928 0.000000000000000e+00 1851878480
4.192864 0.298654 -0.812946 0.000000000000000e+00 1851878480
3.268765 -0.547362 -0.644009 0.000000000000000e+00 1701537140
3.129456 -0.448271 -0.616562 0.000000000000000e+00 1701537140
3.259430 -0.387905 -0.642170 0.000000000000000e+00 1701537140
3.214874 -0.305698 -0.633391 0.000000000000000e+00 1701537140
3.196791 -0.227839 -0.629829 0.000000000000000e+00 1701537140
3.152101 -0.149821 -0.621024 0.000000000000000e+00 1851878480
3.136563 -0.074222 -0.617962 0.000000000000000e+00 1851878480
3.148050 0.000000 -0.620226 0.000000000000000e+00 1851878480
3.174351 0.075116 -0.625407 0.000000000000000e+00 1851878480
4.009076 0.190553 -0.789864 0.000000000000000e+00 1851878480
4.196659 0.299100 -0.826821 0.000000000000000e+00 1851878480
3.241998 -0.543205 -0.648899 0.000000000000000e+00 1701537140
3.125493 -0.447972 -0.625580 0.000000000000000e+00 1701537140
3.248466 -0.386831 -0.650193 0.000000000000000e+00 1701537140
3.212787 -0.305683 -0.643052 0.000000000000000e+00 1701537140
3.212193 -0.229074 -0.642933 0.000000000000000e+00 1701537140
3.231292 -0.153677 -0.646756 0.000000000000000e+00 1701537140
3.118030 -0.073827 -0.624086 0.000000000000000e+00 1851878480
3.158062 0.000000 -0.632099 0.000000000000000e+00 1851878480
3.156496 0.074738 -0.631785 0.000000000000000e+00 1851878480
3.993700 0.189936 -0.799355 0.000000000000000e+00 1851878480
4.165027 0.297024 -0.833646 0.000000000000000e+00 1851878480
3.388165 -0.651025 -0.678155 0.000000000000000e+00 1701537140
3.228876 -0.541336 -0.656406 0.000000000000000e+00 1701537140
3.134022 -0.449468 -0.637123 0.000000000000000e+00 1701537140
3.213943 -0.382953 -0.653371 0.000000000000000e+00 1701537140
3.191591 -0.303851 -0.648827 0.000000000000000e+00 1701537140
3.195968 -0.228055 -0.649716 0.000000000000000e+00 1701537140
3.229808 -0.153700 -0.656596 0.000000000000000e+00 1701537140
3.105937 -0.073586 -0.631414 0.000000000000000e+00 1851878480
3.166893 0.000000 -0.643806 0.000000000000000e+00 1851878480
3.183064 0.075413 -0.647093 0.000000000000000e+00 1851878480
3.999158 0.190312 -0.812999 0.000000000000000e+00 1851878480
4.143067 0.295637 -0.842254 0.000000000000000e+00 1851878480
3.346720 -0.643452 -0.680363 0.000000000000000e+00 1701537140
3.209659 -0.538446 -0.662586 0.000000000000000e+00 1701537140
3.128567 -0.448963 -0.645846 0.000000000000000e+00 1701537140
3.239357 -0.386220 -0.668717 0.000000000000000e+00 1701537140
3.223020 -0.307033 -0.665344 0.000000000000000e+00 1701537140
3.210597 -0.229241 -0.662779 0.000000000000000e+00 1701537140
3.193812 -0.152081 -0.659314 0.000000000000000e+00 1701537140
3.135331 -0.074328 -0.647242 0.000000000000000e+00 1851878480
3.154556 0.000000 -0.651211 0.000000000000000e+00 1851878480
3.159637 0.074904 -0.652260 0.000000000000000e+00 1851878480
3.974803 0.189270 -0.820538 0.000000000000000e+00 1851878480
4.128486 0.294779 -0.852264 0.000000000000000e+00 1851878480
4.910219 0.467760 -1.013641 0.000000000000000e+00 1851878480
3.324064 -0.639491 -0.686203 0.000000000000000e+00 1701537140
3.247473 -0.545132 -0.680610 0.000000000000000e+00 1701537140
3.155918 -0.453172 -0.661422 0.000000000000000e+00 1701537140
3.264776 -0.389495 -0.684237 0.000000000000000e+00 1701537140
3.220832 -0.307017 -0.675027 0.000000000000000e+00 1701537140
3.190851 -0.227974 -0.668743 0.000000000000000e+00 1701537140
3.201696 -0.152552 -0.671016 0.000000000000000e+00 1701537140
3.113655 -0.073860 -0.652564 0.000000000000000e+00 1851878480
3.164252 0.000000 -0.663169 0.000000000000000e+00 1851878480
3.157950 0.074911 -0.661848 0.000000000000000e+00 1851878480
3.981649 0.189715 -0.834480 0.000000000000000e+00 1851878480
4.109997 0.293643 -0.861379 0.000000000000000e+00 1851878480
4.795558 0.457124 -1.005060 0.000000000000000e+00 1851878480
3.283114 -0.632010 -0.688080 0.000000000000000e+00 1701537140
3.234682 -0.543331 -0.688120 0.000000000000000e+00 1701537140
3.347055 -0.480924 -0.712025 0.000000000000000e+00 1701537140
3.264023 -0.389653 -0.694362 0.000000000000000e+00 1701537140
3.442350 -0.328342 -0.732297 0.000000000000000e+00 1701537140
3.199450 -0.228734 -0.680625 0.000000000000000e+00 1701537140
3.203247 -0.152723 -0.681433 0.000000000000000e+00 1701537140
3.128915 -0.074270 -0.665620 0.000000000000000e+00 1851878480
3.173629 0.000000 -0.675132 0.000000000000000e+00 1851878480
3.171994 0.075292 -0.674784 0.000000000000000e+00 1851878480
3.979578 0.189737 -0.846583 0.000000000000000e+00 1851878480
4.095232 0.292774 -0.871186 0.000000000000000e+00 1851878480
4.703192 0.448605 -1.000518 0.000000000000000e+00 1851878480
3.291508 -0.634029 -0.700208 0.000000000000000e+00 1701537140
3.230940 -0.543053 -0.697516 0.000000000000000e+00 1701537140
3.348180 -0.481397 -0.722826 0.000000000000000e+00 1701537140
3.263324 -0.389821 -0.704507 0.000000000000000e+00 1701537140
3.448506 -0.329142 -0.744485 0.000000000000000e+00 1701537140
3.203807 -0.229193 -0.691658 0.000000000000000e+00 1701537140
3.186411 -0.152019 -0.687902 0.000000000000000e+00 1701537140
3.115531 -0.074000 -0.672601 0.000000000000000e+00 1851878480
3.173998 0.000000 -0.685223 0.000000000000000e+00 1851878480
3.163321 0.075135 -0.682918 0.000000000000000e+00 1851878480
3.964491 0.189140 -0.855879 0.000000000000000e+00 1851878480
4.101946 0.293444 -0.885554 0.000000000000000e+00 1851878480
4.644832 0.443324 -1.002756 0.000000000000000e+00 1851878480
3.264667 -0.629266 -0.704797 0.000000000000000e+00 1701537140
3.224972 -0.542406 -0.706413 0.000000000000000e+00 1701537140
3.367148 -0.484442 -0.737556 0.000000000000000e+00 1701537140
3.253541 -0.388908 -0.712671 0.000000000000000e+00 1701537140
3.428849 -0.327480 -0.751072 0.000000000000000e+00 1701537140
3.199003 -0.229000 -0.700725 0.000000000000000e+00 1701537140
3.172036 -0.151432 -0.694818 0.000000000000000e+00 1701537140
3.128026 -0.074345 -0.685178 0.000000000000000e+00 1851878480
3.179423 0.000000 -0.696436 0.000000000000000e+00 1851878480
3.176193 0.075490 -0.695729 0.000000000000000e+00 1851878480
3.955623 0.188840 -0.866459 0.000000000000000e+00 1851878480
4.092727 0.292977 -0.896491 0.000000000000000e+00 1851878480
4.616302 0.440891 -1.011177 0.000000000000000e+00 1851878480
3.265472 -0.629834 -0.715285 0.000000000000000e+00 1701537140
3.238258 -0.545003 -0.719566 0.000000000000000e+00 1701537140
3.370300 -0.485218 -0.748906 0.000000000000000e+00 1701537140
3.257891 -0.389687 -0.723928 0.000000000000000e+00 1701537140
3.445456 -0.329285 -0.765607 0.000000000000000e+00 1701537140
3.251384 -0.232904 -0.722482 0.000000000000000e+00 1701537140
3.181984 -0.152008 -0.707061 0.000000000000000e+00 1701537140
3.246628 -0.077216 -0.721426 0.000000000000000e+00 1701537140
3.172207 0.000000 -0.704889 0.000000000000000e+00 1851878480
3.172383 0.075450 -0.704928 0.000000000000000e+00 1851878480
3.955470 0.188959 -0.878935 0.000000000000000e+00 1851878480
4.068492 0.291436 -0.904050 0.000000000000000e+00 1851878480
4.559183 0.435725 -1.013085 0.000000000000000e+00 1851878480
3.265442 -0.630247 -0.725606 0.000000000000000e+00 1701537140
3.572660 -0.601689 -0.805187 0.000000000000000e+00 1701537140
3.371517 -0.485721 -0.759854 0.000000000000000e+00 1701537140
3.278079 -0.392366 -0.738795 0.000000000000000e+00 1701537140
3.471326 -0.331982 -0.782349 0.000000000000000e+00 1701537140
3.230978 -0.231599 -0.728180 0.000000000000000e+00 1701537140
3.190008 -0.152494 -0.718947 0.000000000000000e+00 1701537140
3.204167 -0.076257 -0.722138 0.000000000000000e+00 1701537140
3.167173 0.000000 -0.713800 0.000000000000000e+00 1851878480
3.180674 0.075698 -0.716843 0.000000000000000e+00 1851878480
3.937838 0.188243 -0.887488 0.000000000000000e+00 1851878480
4.047094 0.290099 -0.912112 0.000000000000000e+00 1851878480
4.528966 0.433129 -1.020714 0.000000000000000e+00 1851878480
3.237826 -0.625339 -0.729724 0.000000000000000e+00 1701537140
3.318067 -0.559194 -0.758331 0.000000000000000e+00 1701537140
3.386079 -0.488153 -0.773875 0.000000000000000e+00 1701537140
3.267921 -0.391418 -0.746870 0.000000000000000e+00 1701537140
3.437680 -0.328989 -0.785668 0.000000000000000e+00 1701537140
3.226580 -0.231442 -0.737422 0.000000000000000e+00 1701537140
3.199323 -0.153044 -0.731192 0.000000000000000e+00 1701537140
3.216759 -0.076609 -0.735177 0.000000000000000e+00 1701537140
3.184988 0.000000 -0.727916 0.000000000000000e+00 1851878480
3.164403 0.075362 -0.723211 0.000000000000000e+00 1851878480
3.913159 0.187192 -0.894336 0.000000000000000e+00 1851878480
4.046212 0.290234 -0.924745 0.000000000000000e+00 1851878480
4.492531 0.429939 -1.026750 0.000000000000000e+00 1851878480
3.246495 -0.627443 -0.741973 0.000000000000000e+00 1701537140
3.303848 -0.557185 -0.765573 0.000000000000000e+00 1701537140
3.389000 -0.488913 -0.785304 0.000000000000000e+00 1701537140
3.284720 -0.393704 -0.761140 0.000000000000000e+00 1701537140
3.449976 -0.330395 -0.799434 0.000000000000000e+00 1701537140
3.246460 -0.233030 -0.752275 0.000000000000000e+00 1701537140
3.205475 -0.153445 -0.742777 0.000000000000000e+00 1701537140
3.186562 -0.075943 -0.738395 0.000000000000000e+00 1701537140
3.179248 0.000000 -0.736700 0.000000000000000e+00 1851878480
3.181407 0.075820 -0.737200 0.000000000000000e+00 1851878480
3.908965 0.187121 -0.905791 0.000000000000000e+00 1851878480
4.024580 0.288883 -0.932582 0.000000000000000e+00 1851878480
4.488828 0.429883 -1.040158 0.000000000000000e+00 1851878480
3.258494 -0.630199 -0.755063 0.000000000000000e+00 1701537140
3.302636 -0.557372 -0.775794 0.000000000000000e+00 1701537140
3.394486 -0.490049 -0.797370 0.000000000000000e+00 1701537140
3.338116 -0.400385 -0.784129 0.000000000000000e+00 1701537140
3.429611 -0.328676 -0.805621 0.000000000000000e+00 1701537140
3.250067 -0.233453 -0.763446 0.000000000000000e+00 1701537140
3.201836 -0.153379 -0.752116 0.000000000000000e+00 1701537140
3.192849 -0.076146 -0.750005 0.000000000000000e+00 1701537140
3.174556 0.000000 -0.745708 0.000000000000000e+00 1851878480
3.171946 0.075648 -0.745095 0.000000000000000e+00 1851878480
3.904756 0.187051 -0.917233 0.000000000000000e+00 1851878480
4.022090 0.288907 -0.944795 0.000000000000000e+00 1851878480
4.462273 0.427641 -1.048195 0.000000000000000e+00 1851878480
3.255697 -0.630101 -0.764768 0.000000000000000e+00 1701537140
3.302777 -0.557794 -0.786346 0.000000000000000e+00 1701537140
3.394969 -0.490469 -0.808295 0.000000000000000e+00 1701537140
3.337007 -0.400538 -0.794495 0.000000000000000e+00 1701537140
3.410426 -0.327071 -0.811976 0.000000000000000e+00 1701537140
3.260225 -0.234349 -0.776214 0.000000000000000e+00 1701537140
3.227468 -0.154717 -0.768416 0.000000000000000e+00 1701537140
3.202741 -0.076437 -0.762529 0.000000000000000e+00 1701537140
3.177153 0.000000 -0.756436 0.000000000000000e+00 1851878480
3.205771 0.076509 -0.763250 0.000000000000000e+00 1851878480
3.910043 0.187438 -0.930927 0.000000000000000e+00 1851878480
3.996248 0.287256 -0.951451 0.000000000000000e+00 1851878480
4.433694 0.425205 -1.055601 0.000000000000000e+00 1851878480
3.236638 -0.626859 -0.770599 0.000000000000000e+00 1701537140
3.293909 -0.556698 -0.794739 0.000000000000000e+00 1701537140
3.279829 -0.474177 -0.791342 0.000000000000000e+00 1701537140
3.339082 -0.401077 -0.805638 0.000000000000000e+00 1701537140
3.388980 -0.325249 -0.817677 0.000000000000000e+00 1701537140
3.273917 -0.235504 -0.789916 0.000000000000000e+00 1701537140
3.572867 -0.171398 -0.862045 0.000000000000000e+00 1701537140
3.193244 -0.076265 -0.770451 0.000000000000000e+00 1701537140
3.175191 0.000000 -0.766095 0.000000000000000e+00 1851878480
3.186370 0.076101 -0.768793 0.000000000000000e+00 1851878480
3.894463 0.186826 -0.939638 0.000000000000000e+00 1851878480
4.008378 0.288336 -0.967123 0.000000000000000e+00 1851878480
4.431911 0.425341 -1.069311 0.000000000000000e+00 1851878480
3.264645 -0.632741 -0.787679 0.000000000000000e+00 1701537140
3.279706 -0.554704 -0.801787 0.000000000000000e+00 1701537140
3.256869 -0.471203 -0.796204 0.000000000000000e+00 1701537140
3.334235 -0.400788 -0.815118 0.000000000000000e+00 1701537140
3.372590 -0.323913 -0.824495 0.000000000000000e+00 1701537140
3.279859 -0.236104 -0.801825 0.000000000000000e+00 1701537140
3.586142 -0.172161 -0.876701 0.000000000000000e+00 1701537140
3.197004 -0.076411 -0.781569 0.000000000000000e+00 1701537140
3.195706 0.000000 -0.781252 0.000000000000000e+00 1851878480
3.197686 0.076427 -0.781736 0.000000000000000e+00 1851878480
3.888353 0.186670 -0.950583 0.000000000000000e+00 1851878480
3.996820 0.287715 -0.977100 0.000000000000000e+00 1851878480
4.391659 0.421787 -1.073626 0.000000000000000e+00 1851878480
3.267904 -0.633837 -0.798902 0.000000000000000e+00 1701537140
3.324296 -0.562663 -0.823321 0.000000000000000e+00 1701537140
3.250098 -0.470572 -0.804944 0.000000000000000e+00 1701537140
3.330523 -0.400639 -0.824863 0.000000000000000e+00 1701537140
3.355072 -0.322470 -0.830943 0.000000000000000e+00 1701537140
3.264960 -0.235206 -0.808625 0.000000000000000e+00 1701537140
3.562064 -0.171132 -0.882208 0.000000000000000e+00 1701537140
3.207809 -0.076726 -0.794471 0.000000000000000e+00 1701537140
3.182711 0.000000 -0.788255 0.000000000000000e+00 1851878480
3.198946 0.076514 -0.792276 0.000000000000000e+00 1851878480
3.881293 0.186469 -0.961271 0.000000000000000e+00 1851878480
3.982236 0.286878 -0.986272 0.000000000000000e+00 1851878480
4.365558 0.419592 -1.081208 0.000000000000000e+00 1851878480
3.264399 -0.633627 -0.808486 0.000000000000000e+00 1701537140
3.329318 -0.563937 -0.835230 0.000000000000000e+00 1701537140
3.211916 -0.465394 -0.805777 0.000000000000000e+00 1701537140
3.347056 -0.402931 -0.839680 0.000000000000000e+00 1701537140
3.320281 -0.319366 -0.832963 0.000000000000000e+00 1701537140
3.268543 -0.235641 -0.819983 0.000000000000000e+00 1701537140
3.568302 -0.171561 -0.895184 0.000000000000000e+00 1701537140
3.196404 -0.076511 -0.801886 0.000000000000000e+00 1701537140
3.189569 0.000000 -0.800171 0.000000000000000e+00 1851878480
3.189316 0.076341 -0.800107 0.000000000000000e+00 1851878480
3.870455 0.186088 -0.970985 0.000000000000000e+00 1851878480
3.978711 0.286840 -0.998144 0.000000000000000e+00 1851878480
4.376888 0.420997 -1.098035 0.000000000000000e+00 1851878480
3.291741 -0.639415 -0.825803 0.000000000000000e+00 1701537140
3.294439 -0.558454 -0.837049 0.000000000000000e+00 1701537140
3.247133 -0.470855 -0.825029 0.000000000000000e+00 1701537140
3.337089 -0.402037 -0.847885 0.000000000000000e+00 1701537140
3.331415 -0.320681 -0.846444 0.000000000000000e+00 1701537140
3.478870 -0.250996 -0.883909 0.000000000000000e+00 1701537140
3.566150 -0.171588 -0.906085 0.000000000000000e+00 1701537140
3.189098 -0.076394 -0.810284 0.000000000000000e+00 1701537140
3.195036 0.000000 -0.811792 0.000000000000000e+00 1851878480
3.209683 0.076887 -0.815514 0.000000000000000e+00 1851878480
3.877968 0.186591 -0.985311 0.000000000000000e+00 1851878480
3.942697 0.284460 -1.001758 0.000000000000000e+00 1851878480
4.340215 0.417788 -1.102759 0.000000000000000e+00 1851878480
3.282038 -0.638016 -0.833898 0.000000000000000e+00 1701537140
3.317148 -0.562737 -0.853477 0.000000000000000e+00 1701537140
3.268986 -0.474389 -0.841085 0.000000000000000e+00 1701537140
3.371575 -0.406505 -0.867481 0.000000000000000e+00 1701537140
3.339707 -0.321727 -0.859281 0.000000000000000e+00 1701537140
3.498754 -0.252625 -0.900203 0.000000000000000e+00 1701537140
3.544032 -0.170655 -0.911853 0.000000000000000e+00 1701537140
3.208289 -0.076913 -0.825468 0.000000000000000e+00 1701537140
3.205341 0.000000 -0.824710 0.000000000000000e+00 1851878480
3.213271 0.077032 -0.826750 0.000000000000000e+00 1851878480
3.860562 0.185897 -0.993293 0.000000000000000e+00 1851878480
3.937469 0.284302 -1.013081 0.000000000000000e+00 1851878480
4.326964 0.416833 -1.113295 0.000000000000000e+00 1851878480
3.296785 -0.641377 -0.848238 0.000000000000000e+00 1701537140
3.555268 -0.603604 -0.926185 0.000000000000000e+00 1701537140
3.253134 -0.472458 -0.847475 0.000000000000000e+00 1701537140
3.340649 -0.403091 -0.870274 0.000000000000000e+00 1701537140
3.336622 -0.321681 -0.869225 0.000000000000000e+00 1701537140
3.489887 -0.252182 -0.909152 0.000000000000000e+00 1701537140
3.551554 -0.171151 -0.925217 0.000000000000000e+00 1701537140
3.209949 -0.077013 -0.836225 0.000000000000000e+00 1701537140
3.204172 0.000000 -0.834720 0.000000000000000e+00 1851878480
3.216075 0.077160 -0.837821 0.000000000000000e+00 1851878480
3.867431 0.186373 -1.007506 0.000000000000000e+00 1851878480
3.943066 0.284929 -1.027210 0.000000000000000e+00 1851878480
4.336893 0.418116 -1.129806 0.000000000000000e+00 1851878480
3.282096 -0.639018 -0.855020 0.000000000000000e+00 1701537140
3.531543 -0.600050 -0.931386 0.000000000000000e+00 1701537140
3.475487 -0.505149 -0.916603 0.000000000000000e+00 1701537140
3.371133 -0.407091 -0.889081 0.000000000000000e+00 1701537140
3.361454 -0.324331 -0.886528 0.000000000000000e+00 1701537140
3.376837 -0.244206 -0.890585 0.000000000000000e+00 1701537140
3.530783 -0.170285 -0.931186 0.000000000000000e+00 1701537140
3.205578 -0.076969 -0.845418 0.000000000000000e+00 1701537140
3.220112 0.000000 -0.849252 0.000000000000000e+00 1851878480
3.208847 0.077047 -0.846281 0.000000000000000e+00 1851878480
3.849346 0.185649 -1.015202 0.000000000000000e+00 1851878480
3.929263 0.284156 -1.036279 0.000000000000000e+00 1851878480
4.279363 0.412896 -1.128612 0.000000000000000e+00 1851878480
3.307482 -0.644470 -0.872294 0.000000000000000e+00 1701537140
3.538121 -0.601649 -0.944544 0.000000000000000e+00 1701537140
3.553283 -0.516870 -0.948591 0.000000000000000e+00 1701537140
3.357032 -0.405713 -0.896200 0.000000000000000e+00 1701537140
3.329394 -0.321495 -0.888821 0.000000000000000e+00 1701537140
3.355661 -0.242868 -0.895834 0.000000000000000e+00 1701537140
3.333548 -0.160901 -0.889930 0.000000000000000e+00 1701537140
3.238106 -0.077812 -0.864451 0.000000000000000e+00 1701537140
3.217633 0.000000 -0.858985 0.000000000000000e+00 1851878480
3.236982 0.077785 -0.864151 0.000000000000000e+00 1851878480
3.861369 0.186378 -1.030838 0.000000000000000e+00 1851878480
3.906679 0.282749 -1.042934 0.000000000000000e+00 1851878480
4.287284 0.413991 -1.144542 0.000000000000000e+00 1851878480
3.305779 -0.644654 -0.882517 0.000000000000000e+00 1701537140
3.521359 -0.599284 -0.951455 0.000000000000000e+00 1701537140
3.528871 -0.513735 -0.953484 0.000000000000000e+00 1701537140
3.371412 -0.407781 -0.910940 0.000000000000000e+00 1701537140
3.350582 -0.323803 -0.905312 0.000000000000000e+00 1701537140
3.341848 -0.242065 -0.902952 0.000000000000000e+00 1701537140
3.321606 -0.160455 -0.897482 0.000000000000000e+00 1701537140
3.238145 -0.077876 -0.874932 0.000000000000000e+00 1701537140
3.223792 0.000000 -0.871053 0.000000000000000e+00 1851878480
3.239269 0.077903 -0.875235 0.000000000000000e+00 1851878480
3.858872 0.186408 -1.042649 0.000000000000000e+00 1851878480
3.913686 0.283485 -1.057460 0.000000000000000e+00 1851878480
4.280294 0.413651 -1.156516 0.000000000000000e+00 1851878480
3.311541 -0.646300 -0.894763 0.000000000000000e+00 1701537140
3.497801 -0.595763 -0.956418 0.000000000000000e+00 1701537140
3.530261 -0.514359 -0.965294 0.000000000000000e+00 1701537140
3.366718 -0.407547 -0.920576 0.000000000000000e+00 1701537140
3.348265 -0.323845 -0.915530 0.000000000000000e+00 1701537140
3.335366 -0.241793 -0.912003 0.000000000000000e+00 1701537140
3.305478 -0.159807 -0.903831 0.000000000000000e+00 1701537140
3.234189 -0.077845 -0.884338 0.000000000000000e+00 1701537140
3.251207 0.000000 -0.888991 0.000000000000000e+00 1851878480
3.266115 0.078613 -0.893067 0.000000000000000e+00 1851878480
3.844960 0.185888 -1.051343 0.000000000000000e+00 1851878480
3.915307 0.283835 -1.070579 0.000000000000000e+00 1851878480
4.272365 0.413224 -1.168211 0.000000000000000e+00 1851878480
3.314680 -0.647444 -0.906347 0.000000000000000e+00 1701537140
3.507165 -0.597854 -0.970356 0.000000000000000e+00 1701537140
3.508202 -0.511569 -0.970643 0.000000000000000e+00 1701537140
3.391544 -0.410893 -0.938366 0.000000000000000e+00 1701537140
3.360040 -0.325253 -0.929650 0.000000000000000e+00 1701537140
3.325778 -0.241298 -0.920170 0.000000000000000e+00 1701537140
3.298449 -0.159599 -0.912609 0.000000000000000e+00 1701537140
3.217800 -0.077515 -0.890295 0.000000000000000e+00 1701537140
3.233832 0.000000 -0.894731 0.000000000000000e+00 1851878480
3.268330 0.078732 -0.904276 0.000000000000000e+00 1851878480
3.836448 0.185631 -1.061462 0.000000000000000e+00 1851878480
3.922329 0.284580 -1.085223 0.000000000000000e+00 1851878480
4.238535 0.410292 -1.172710 0.000000000000000e+00 1851878480
3.325389 -0.650074 -0.920063 0.000000000000000e+00 1701537140
3.485907 -0.594729 -0.975802 0.000000000000000e+00 1701537140
3.329398 -0.485904 -0.931991 0.000000000000000e+00 1701537140
3.413960 -0.413956 -0.955662 0.000000000000000e+00 1701537140
3.381419 -0.327598 -0.946553 0.000000000000000e+00 1701537140
3.345075 -0.242902 -0.936379 0.000000000000000e+00 1701537140
3.296782 -0.159652 -0.922861 0.000000000000000e+00 1701537140
3.237713 -0.078060 -0.906326 0.000000000000000e+00 1701537140
3.234594 0.000000 -0.905453 0.000000000000000e+00 1851878480
3.259076 0.078575 -0.912306 0.000000000000000e+00 1851878480
3.824068 0.185187 -1.070463 0.000000000000000e+00 1851878480
3.899367 0.283152 -1.091541 0.000000000000000e+00 1851878480
4.216725 0.408523 -1.180379 0.000000000000000e+00 1851878480
3.339426 -0.653367 -0.934798 0.000000000000000e+00 1701537140
3.502122 -0.598003 -0.991741 0.000000000000000e+00 1701537140
3.315149 -0.484235 -0.938793 0.000000000000000e+00 1701537140
3.658253 -0.443954 -1.035954 0.000000000000000e+00 1701537140
3.633173 -0.352287 -1.028852 0.000000000000000e+00 1701537140
3.341691 -0.242863 -0.946309 0.000000000000000e+00 1701537140
3.335179 -0.161649 -0.944465 0.000000000000000e+00 1701537140
3.246536 -0.078339 -0.919363 0.000000000000000e+00 1701537140
3.249160 0.000000 -0.920106 0.000000000000000e+00 1851878480
3.270919 0.078927 -0.926268 0.000000000000000e+00 1851878480
3.820301 0.185162 -1.081843 0.000000000000000e+00 1851878480
3.890341 0.282737 -1.101678 0.000000000000000e+00 1851878480
4.214872 0.408691 -1.193579 0.000000000000000e+00 1851878480
3.327457 -0.651578 -0.942278 0.000000000000000e+00 1701537140
3.459286 -0.591196 -0.990890 0.000000000000000e+00 1701537140
3.290011 -0.480976 -0.942402 0.000000000000000e+00 1701537140
3.619683 -0.439651 -1.036834 0.000000000000000e+00 1701537140
3.630801 -0.352360 -1.040019 0.000000000000000e+00 1701537140
3.572588 -0.259867 -1.023344 0.000000000000000e+00 1701537140
3.307614 -0.160451 -0.947444 0.000000000000000e+00 1701537140
3.252304 -0.078546 -0.931601 0.000000000000000e+00 1701537140
3.249699 0.000000 -0.930855 0.000000000000000e+00 1851878480
3.281432 0.079249 -0.939945 0.000000000000000e+00 1851878480
3.834507 0.186010 -1.098369 0.000000000000000e+00 1851878480
3.869845 0.281489 -1.108492 0.000000000000000e+00 1851878480
4.210479 0.408616 -1.206064 0.000000000000000e+00 1851878480
3.348915 -0.656343 -0.959275 0.000000000000000e+00 1701537140
3.451836 -0.590436 -1.000030 0.000000000000000e+00 1701537140
3.299654 -0.482805 -0.955941 0.000000000000000e+00 1701537140
3.616684 -0.439668 -1.047788 0.000000000000000e+00 1701537140
3.432785 -0.333432 -0.994511 0.000000000000000e+00 1701537140
3.568391 -0.259787 -1.033797 0.000000000000000e+00 1701537140
3.336172 -0.161977 -0.966521 0.000000000000000e+00 1701537140
3.268881 -0.079015 -0.947026 0.000000000000000e+00 1701537140
3.255063 0.000000 -0.943023 0.000000000000000e+00 1851878480
3.290356 0.079534 -0.953248 0.000000000000000e+00 1851878480
3.822356 0.185582 -1.107373 0.000000000000000e+00 1851878480
3.866067 0.281458 -1.120036 0.000000000000000e+00 1851878480
4.201617 0.408110 -1.217249 0.000000000000000e+00 1851878480
3.337584 -0.654691 -0.966930 0.000000000000000e+00 1701537140
3.423914 -0.586175 -1.003143 0.000000000000000e+00 1701537140
3.332719 -0.488072 -0.976425 0.000000000000000e+00 1701537140
3.631672 -0.441879 -1.064013 0.000000000000000e+00 1701537140
3.449403 -0.335341 -1.010611 0.000000000000000e+00 1701537140
3.533493 -0.257472 -1.035248 0.000000000000000e+00 1701537140
3.313624 -0.161023 -0.970830 0.000000000000000e+00 1701537140
3.287754 -0.079541 -0.963251 0.000000000000000e+00 1701537140
3.262770 0.000000 -0.955931 0.000000000000000e+00 1851878480
3.301531 0.079874 -0.967287 0.000000000000000e+00 1851878480
3.826440 0.185943 -1.121076 0.000000000000000e+00 1851878480
3.878406 0.282605 -1.136301 0.000000000000000e+00 1851878480
4.201289 0.408437 -1.230900 0.000000000000000e+00 1851878480
3.384248 -0.664428 -0.991522 0.000000000000000e+00 1701537140
3.408291 -0.584019 -1.009738 0.000000000000000e+00 1701537140
3.310883 -0.485305 -0.980880 0.000000000000000e+00 1701537140
3.604867 -0.439007 -1.067975 0.000000000000000e+00 1701537140
3.422051 -0.332978 -1.013814 0.000000000000000e+00 1701537140
3.548333 -0.258783 -1.051226 0.000000000000000e+00 1701537140
3.396193 -0.165182 -1.006154 0.000000000000000e+00 1701537140
3.288991 -0.079641 -0.974394 0.000000000000000e+00 1701537140
3.292096 0.000000 -0.975314 0.000000000000000e+00 1851878480
3.304608 0.080019 -0.979021 0.000000000000000e+00 1851878480
3.815439 0.185574 -1.130359 0.000000000000000e+00 1851878480
3.834667 0.279666 -1.136056 0.000000000000000e+00 1851878480
4.175096 0.406251 -1.236911 0.000000000000000e+00 1851878480
3.413525 -0.585441 -1.022497 0.000000000000000e+00 1701537140
3.336921 -0.489561 -0.999550 0.000000000000000e+00 1701537140
3.587409 -0.437274 -1.074582 0.000000000000000e+00 1701537140
3.420188 -0.333095 -1.024493 0.000000000000000e+00 1701537140
3.522072 -0.257099 -1.055011 0.000000000000000e+00 1701537140
3.381671 -0.164624 -1.012955 0.000000000000000e+00 1701537140
3.312227 -0.080276 -0.992154 0.000000000000000e+00 1701537140
3.292008 0.000000 -0.986097 0.000000000000000e+00 1851878480
3.326658 0.080626 -0.996476 0.000000000000000e+00 1851878480
3.809499 0.185451 -1.141108 0.000000000000000e+00 1851878480
3.833171 0.279808 -1.148198 0.000000000000000e+00 1851878480
4.151176 0.404287 -1.243455 0.000000000000000e+00 1851878480
3.420827 -0.587227 -1.035937 0.000000000000000e+00 1701537140
3.315651 -0.486883 -1.004086 0.000000000000000e+00 1701537140
3.607317 -0.440100 -1.092412 0.000000000000000e+00 1701537140
3.403417 -0.331763 -1.030665 0.000000000000000e+00 1701537140
3.506009 -0.256159 -1.061733 0.000000000000000e+00 1701537140
3.375503 -0.164473 -1.022211 0.000000000000000e+00 1701537140
