# .PCD v0.7 - Point Cloud Data file format
VERSION 0.7
FIELDS x y z
SIZE 4 4 4
TYPE F F F
COUNT 1 1 1
WIDTH 1475
HEIGHT 1
VIEWPOINT 0 0 0 1 0 0 0
POINTS 1475
DATA ascii
0.5500052 -7.978981 0.85307622
-0.053483009 -7.9988098 0.84297526
-0.62862718 -7.976438 0.82249761
-1.5774978 -7.8457184 0.8073073
0.82523859 -7.9565773 0.84186649
-1.3920557 -7.8375134 1.1545889
-0.91763413 -7.9906397 -0.073233843
4.6480618 6.3886003 1.5098343
-0.19427872 -7.9563217 1.1654084
4.583231 -5.7169709 3.3181129
-1.5209231 -7.8935318 0.28092027
4.4780164 6.4792223 1.6332755
-0.35222936 -7.9647083 1.0679766
0.37745667 -7.9897656 0.85014337
4.8385653 6.3006482 1.263062
-0.073322415 -7.9782929 1.0233405
-0.50517499 -7.9971504 0.70514566
0.79574621 -7.9874969 0.52436101
-0.28385186 -7.9953079 0.83906662
0.60552508 -7.9486146 1.0786667
7.4533248 -2.8892658 0.90167266
-0.88890791 -7.9948983 -0.072450995
-4.7738247 -6.4730392 -0.15589643
-0.19590843 -7.9886642 0.92567545
0.37057042 -8.0195351 0.51361841
0.39808184 -7.9801693 0.93410289
-3.8648987 -7.0543318 -0.12448168
0.14951932 -7.9988298 0.84623259
0.4281919 -8.0137081 0.56323159
-5.1042743 -6.2160006 -0.16730094
0.20839655 -7.9974952 0.84721017
-7.8306637 1.8255358 -0.26499069
0.51991332 -7.9828534 0.85242432
0.59676945 -8.0229025 0.035368443
-4.9789829 -6.3172636 -0.16302657
0.63335472 -7.9473257 1.078921
-5.3732347 -5.9853148 -0.17656171
-0.25159836 -7.956799 1.1647843
0.20921373 -7.9770255 1.0266731
0.48244727 -8.0310097 0.031060219
-0.40993404 -7.9639683 1.0672123
-0.71316612 -7.9958677 0.53804135
0.42755365 -7.9797735 0.93442667
-0.29542887 -7.9689312 1.068485
-0.51031053 -7.9765029 0.9211362
-5.0799861 -6.23699 -0.16658998
-3.9207742 -7.0247464 -0.12662804
4.6024132 6.4047489 1.5921348
-0.65957308 -7.9766994 0.82175565
-0.88439131 -7.9917445 0.29748845
4.9984698 6.2370524 0.92402869
4.5737772 -5.7386489 3.2997985
0.26841342 -7.9417305 1.2638038
-0.56188679 -7.9956102 0.7038638
4.9261303 6.2591166 1.1393416
-7.5916586 -2.5360041 0.82287532
-4.9531779 -6.3389163 -0.16231501
-1.6074598 -7.8427191 0.80656534
0.54362321 -7.9491568 1.1217686
-5.3268671 -6.0280952 -0.17513943
-0.10948884 -7.9606919 1.1660316
0.25632548 -7.9568343 1.1693606
0.34136093 -7.9849424 0.93313009
-0.38150382 -7.9663401 1.0674665
-1.3909377 -7.8612032 1.0072281
-1.3772279 -7.910593 0.52343059
-1.5017297 -7.9051657 -0.041409016
0.62763393 -7.9893088 0.72607172
4.6687264 6.3677373 1.551114
7.4904065 -2.8364675 0.77482748
5.1007056 -5.2983069 3.2655878
4.8572063 6.2989554 1.2183752
0.68904096 -7.9444633 1.0794293
0.29637086 -7.9416385 1.2639651
4.8028731 6.3062077 1.3856665
4.9270611 6.2670498 1.0974143
0.18367934 -7.9453192 1.2631576
0.88025373 -7.9914818 0.34473765
-1.4981654 -7.9059963 -0.0935992
0.4822697 -7.9781833 0.93507421
4.6029024 -5.7064719 3.3181138
0.87872928 -7.9992042 0.045422316
-5.1546817 -6.1775703 -0.16944146
0.57861787 -7.9539084 1.0781569
-5.2789183 -6.0717244 -0.17371523
-7.8701549 1.659394 -0.26646197
4.7502203 6.3372755 1.4278933
-0.22371221 -7.9911757 0.92502618
0.71546775 -7.9427657 1.0796833
0.31961787 -7.9965253 0.84883982
-8.0226536 -0.57622856 -0.26911306
-0.71765292 -7.973742 0.8206442
0.21176159 -7.9455419 1.2633188
-5.2549868 -6.0934005 -0.17300415
0.29363751 -7.9770932 1.0275052
-0.16681147 -7.961792 1.1654067
-0.43926024 -7.9653835 1.0667024
-0.74286556 -7.9961286 0.53703272
-1.4358916 -7.9022117 0.52191854
-0.047115445 -7.9831109 1.0233389
-1.4107987 -7.8244538 1.2518473
0.65719223 -7.9427075 1.1231365
-0.001281023 -7.9703765 1.1193944
0.068122029 -7.9829836 1.0247273
-3.1647582 7.3852119 0.47608376
0.45290047 -7.9503355 1.1710231
0.96285611 -7.9909377 0.048296452
-0.68906212 -7.9772015 0.82101429
-5.2309685 -6.1149807 -0.17229295
-8.0342045 -0.4060643 -0.26979303
-0.59144771 -7.9964409 0.70300871
0.3203671 -7.9767294 1.0277824
0.90675712 -7.9978642 0.046141028
-0.13850534 -7.9632564 1.1656146
-0.16830659 -7.9941444 0.92567378
-1.5810292 -7.8876967 0.27846384
-1.4878919 -7.8809795 0.68634903
-1.3650879 -7.8255634 1.3008231
-0.14009964 -8.0043268 0.84102052
0.34792888 -7.9971356 0.84916568
-5.3536015 -6.0086894 -0.17656815
0.12965405 -7.948956 1.2626725
0.016483665 -7.9502077 1.2618656
-0.19810617 -8.0033655 0.84004331
-0.13143241 -7.9835491 1.0222278
4.749135 6.3316145 1.4688734
-1.7282617 7.8229651 -0.7846595
0.66085303 -7.9499187 1.0789194
0.11696553 -7.963944 1.1679021
4.9927149 6.2327094 1.0144061
0.29204512 -7.9999824 0.84818786
0.0035085678 -7.9651055 1.1668622
-7.5329847 -2.6610205 0.98900193
-1.3851093 -7.9300385 -0.037824154
-1.4440905 -7.919652 -0.039975643
-0.49699855 -7.9640007 1.0659386
-1.5268321 -7.9036942 -0.095166564
-1.5750949 -7.8651385 0.68464005
0.0095080137 -7.9851041 1.0238936
-0.26786053 -7.9747944 1.0684834
0.044654727 -7.9510331 1.2620268
-0.10310745 -7.9848928 1.0225053
-0.76604259 -8.0142517 -0.015590191
0.62454236 -8.0264721 0.035368681
0.17859995 -8.0042276 0.84623241
5.053575 -5.7238717 2.5525436
0.49035573 -7.9907579 0.8514477
0.93452615 -7.9964008 0.046859741
-0.18149233 -7.9496803 1.2604101
0.031732678 -7.9659524 1.1670699
-3.8964701 -7.0442271 -0.12663174
-0.94265687 -7.9956994 -0.022046924
-3.8136024 -7.0896988 -0.12377119
0.26495337 -7.9811206 1.0269489
-1.8601093 7.7932086 -0.79402328
0.1513617 -7.9843597 1.0255589
0.45295858 -8.03862 0.028906345
-0.23947906 -7.9766521 1.0687375
-0.1695435 -8.0058441 0.84036911
0.072731495 -7.9517593 1.2621874
5.397656 -4.9982786 3.2728732
-0.040601969 -7.9521842 1.2613804
-0.79246366 -7.9980912 0.48386681
-0.62103558 -7.9971623 0.70215356
4.8855348 6.2907476 1.1797419
-0.15322423 -7.9512205 1.2605714
0.0072569847 -7.9851265 1.0358591
4.9258618 6.2752671 1.0921087
0.40603882 -7.9757771 1.0286145
-1.4687791 -7.9032354 0.46730101
-1.3662639 -7.8509846 1.1543782
4.9238176 6.2530508 1.2219762
0.8807981 -7.9594579 0.84222418
0.63252312 -7.9818158 0.85372871
4.5024738 6.4729276 1.6332988
-0.31224096 -7.9930344 0.92340291
0.31322467 -7.9607601 1.1695662
-1.0057966 -7.988924 -0.077935815
-0.54066634 -7.9814458 0.92016137
0.57568979 -7.9864836 0.85275054
-0.79744804 -8.0128918 -0.017025232
0.10088027 -7.9523811 1.2623485
-0.85634506 -8.0069113 -0.019177437
0.65277934 -8.0260382 0.036086917
-3.786689 -7.1056795 -0.12305689
-1.4074153 -7.8875666 0.80915684
0.23924506 -7.9496188 1.2633173
-0.91378856 -8.0009394 -0.021329761
-1.4546477 -7.8360958 1.1535439
-1.8909515 7.7873168 -0.79609251
4.6651535 6.378118 1.5520372
0.93723702 -7.9540277 0.84332681
0.094344854 -7.9873285 1.0247258
-0.76504159 -8.0023155 0.48435426
-1.4272212 -7.8834295 0.81954569
-0.52527475 -7.9654279 1.0654271
-0.70495951 -8.0079021 0.48581684
-5.2098432 -6.1390839 -0.1722995
0.03566587 -7.9868436 1.0360919
0.23258293 -8.0058699 0.84688443
0.76642829 -8.0003338 0.52240866
0.85184336 -8.0015039 0.34289467
-7.8316979 1.8604623 -0.26641726
0.9921658 -7.9480453 0.84442979
-0.65093946 -8.0278111 -0.012003303
-1.4990271 -7.8996882 0.46632636
0.23620796 -7.9850435 1.0263925
0.70975119 -8.0059557 0.5209434
0.73936003 -7.9872332 0.72735125
-0.68650901 -8.0070181 0.53753483
-0.48362613 -7.986979 0.92080915
-0.22356844 -7.966682 1.1645728
-0.06961 -7.9549685 1.2610564
0.90880394 -7.9587712 0.84258938
4.850091 6.2976222 1.3018132
-0.82607102 -8.0122671 -0.018460274
0.37606561 -7.9800401 1.0280582
-5.3089986 -6.0551114 -0.17586362
-0.74691749 -7.9782457 0.81953049
-5.4539671 -5.9249029 -0.18084788
0.99327701 -7.9934397 0.048297286
4.8628507 6.2877107 1.3044428
-1.4686404 -7.9029508 0.52040493
-1.3721615 -7.8601155 1.1052842
4.727334 6.344841 1.5104572
-0.73630023 -8.0068626 0.4848417
-0.42548394 -7.9595995 1.1626993
-0.030931115 -7.977284 1.1186985
0.32330728 -7.9493814 1.2638006
0.26096642 -8.006793 0.84721023
-0.85245669 -7.9960618 0.48191655
-5.4294481 -5.9485097 -0.18013728
-1.4373653 -7.8852243 0.80841488
-0.66292095 -8.0282736 -0.066973209
0.73788399 -8.0051689 0.52143222
0.6900785 -7.9808502 0.85438114
4.8065567 6.3239346 1.3436215
-1.3545041 -7.9410567 -0.090469122
-0.39705884 -7.961998 1.162907
-0.25157595 -8.0211983 0.70855916
-1.6111456 -7.8888245 0.27662075
-1.5348467 -7.908742 -0.044279099
-0.11656952 -7.9777112 1.1177733
5.1591792 6.1855946 0.16906381
4.9076843 6.2793746 1.1797414
0.3393712 -7.9642739 1.1695645
4.8189306 6.3151755 1.3451174
5.0429792 6.2286839 0.82788241
-0.97397327 -7.9978313 -0.024199724
7.6097121 -2.6295207 0.30494893
0.94271362 -8.001646 -0.020314932
-0.27297533 -7.9875484 1.020004
-1.3698658 -7.8972769 0.82019532
4.6994896 6.3776345 1.4687451
-0.83201134 -7.9962378 0.53400803
-1.4235017 -7.8664184 1.0061139
-1.5259891 -7.8943949 0.51889288
4.8683248 -5.784482 2.7857773
-0.36700284 -7.9645991 1.1631162
-8.0408297 -0.44051439 -0.27123523
0.47993863 -7.9575081 1.170812
5.0223327 6.2327089 0.92337996
-0.24733889 -7.9888401 1.0202813
0.46029401 -7.9783168 1.0288901
-0.25802624 -8.0097351 0.83841479
-3.8453181 -7.0798254 -0.12592113
-0.21134877 -7.955873 1.2599232
5.3879952 -5.0335112 3.2500405
-0.022770524 -7.9911265 1.0351602
-0.35944712 -7.98524 1.0188912
-0.43273771 -8.0029497 0.83548373
-1.4020048 -7.8579235 1.1048207
0.12197387 -7.9918075 1.0247241
0.053889155 -7.9798613 1.1193912
4.6429205 6.3905663 1.5937448
0.79958761 -7.9455099 1.0799341
-0.059931397 -7.9801507 1.1182351
4.7348385 6.3624811 1.4275233
-0.88749874 -8.0093832 -0.021330595
-1.5651431 -7.9048619 -0.045713782
0.48833776 -7.9775414 1.0291674
5.0753369 -5.7150893 2.5531595
0.88579297 -7.9896817 0.566208
-0.2971195 -7.9542236 1.2592771
4.7666273 6.3485479 1.3861377
0.17830956 -7.9899554 1.0374899
-0.31159627 -7.9685769 1.1635315
-1.4037182 -7.8839655 0.90751493
0.82734895 -7.9435363 1.0801883
-0.57110274 -7.9862595 0.91918689
4.9518852 6.2631707 1.0968572
-0.34101105 -7.9990301 0.92242813
0.1208632 -7.9913769 1.0367908
-1.4588624 -7.8837657 0.8185693
0.96337396 -7.9569483 0.84331977
-8.0489998 -0.30413264 -0.27192128
4.5711222 6.4330993 1.6354471
0.06329751 -7.9923749 1.036092
7.6143804 -2.6240778 0.30401528
4.6755953 6.3888526 1.509694
-2.2124434 7.7341428 0.49635446
-0.94480634 -7.9987702 0.29380286
-0.46384251 -8.0030022 0.83483255
5.1703959 6.1798558 0.19395256
0.85370231 -7.9413695 1.0804424
0.56849539 -7.9612818 1.121295
-0.052050352 -7.9931054 1.0346944
0.79491305 -7.9875846 0.72777611
-0.86180806 -7.9960508 0.53299952
-1.1245937 -7.9807749 -0.083421946
-1.5307746 -7.8997064 0.4648639
1.0181384 -7.9954014 0.048298359
0.74229276 -7.9530272 1.07917
-1.3910046 -7.8476458 1.2026032
-1.3975047 -7.8309336 1.3002663
0.48371625 -7.9675117 1.1201501
-0.51121902 -7.9598837 1.1616576
-0.10846996 -7.9931397 1.0339957
-0.094256639 -7.942904 1.3685715
-0.51947796 -8.0004034 0.83385587
-0.2845701 -7.9487901 1.3069072
0.46041048 -8.0024948 0.85014409
1.0210614 -7.9510641 0.84442228
0.43315363 -7.9831209 1.0283339
-0.076315403 -7.9686136 1.2131397
-0.14505553 -7.9526935 1.3077364
0.20672417 -7.9910636 1.0377228
-1.641757 -7.8507471 0.80470818
-0.38870847 -7.986855 1.0183353
-1.4636332 -7.8749361 0.90654171
-0.40030217 -7.9980974 0.9214552
0.82421291 -7.9857268 0.72820282
4.8401055 6.3045707 1.3451171
-1.3835189 -7.9280095 0.46827257
-0.087576985 -7.9831662 1.1177717
-0.82478547 -8.0047226 0.48191595
0.36691809 -7.9678774 1.1695628
-0.3263098 -7.956069 1.2589531
0.65964574 -7.9892163 0.85340327
0.46515429 -7.9807558 1.0407526
0.45238787 -7.9947853 0.93344873
-0.16190648 -7.9684892 1.2124002
1.0460801 -7.9935617 0.049017072
-0.047599077 -7.9604921 1.2737248
-1.4275188 -7.8502679 1.1533331
-1.0667733 -7.9906931 -0.08185482
-0.081373572 -7.9949751 1.0342287
4.5400543 -6.0445952 2.8015933
0.91368794 -8.0101748 -0.02266264
4.6300831 6.4052258 1.5921358
-0.17469108 -7.9827023 1.1168469
4.8849401 6.2974815 1.2178875
-0.6526264 -8.0054789 0.70044178
4.9548888 6.2576261 1.1385744
-0.97470343 -7.9981127 0.29257476
0.29399824 -7.9900384 1.0386539
0.026297092 -7.9556799 1.3087029
-5.4814024 -5.9099498 -0.18299484
-7.0793104 -3.768744 0.82899445
-1.0053362 -7.9998407 -0.026352644
-0.33156085 -7.9913135 1.0188911
-0.087254047 -7.9555893 1.3080118
0.76667809 -7.9934049 0.72692114
0.49053884 -7.9804254 1.0409863
-0.77569544 -8.0077667 0.5345093
4.6963835 6.3679171 1.5510452
-0.40118945 -7.9755669 1.1145333
1.0489659 -7.9498773 0.84478754
-8.0403309 -0.5430544 -0.27197611
-0.14632237 -7.9841814 1.1170778
1.0268748 -7.9773955 0.56971061
0.8850528 -8.0146999 -0.024225354
6.9401836 -3.9905546 0.96389228
4.5938177 6.4220777 1.6354499
1.0739187 -7.9916229 0.049736619
4.8669672 6.3042264 1.2623187
-0.40504479 -8.0101452 0.83548337
-0.42973423 -7.9995666 0.92080593
1.1036142 -7.9431119 0.84589016
-0.28403032 -7.974473 1.1635301
4.8307581 6.3156328 1.3435309
0.3488971 -7.9568462 1.2636361
-0.55661333 -7.9741659 1.0644054
-0.91852617 -8.0065012 0.29380131
0.2636323 -7.9929523 1.038188
-0.032184958 -7.9575605 1.3082876
-0.60489464 -8.023818 0.53803647
0.68297726 -7.9691925 1.0311098
0.51929736 -7.9756703 1.0763702
4.6901779 6.3744874 1.552086
-0.1909138 -7.9614692 1.2727916
0.91344559 -7.9929461 0.56620073
-1.5610217 -7.9117889 -0.099087119
0.090952158 -7.9978108 1.036092
-1.3826935 -7.8442822 1.2658104
-1.835886 7.8129869 -0.79609287
-1.4905441 -7.883975 0.81759292
0.14990592 -7.9968677 1.0367908
-0.31951737 -8.0153093 0.83678603
-5.5322337 -5.8658791 -0.18513441
1.0754679 -7.9484582 0.84515315
-0.45942962 -7.9861078 1.0295734
-0.050140381 -7.9734421 1.213138
1.1018224 -7.9895859 0.050455332
5.1393542 -5.2724986 3.2922654
5.4075484 -5.0240431 3.2510734
0.06522584 -7.9733295 1.2140635
-0.77868283 -7.986105 0.81804514
0.048011661 -7.9484086 1.3689921
-0.37635624 -8.0133743 0.83580881
4.7771049 6.3305831 1.468806
-1.5375226 -7.8475599 1.0534565
-0.83669388 -8.0219955 -0.074807525
-0.49319315 -8.0075302 0.83385545
-7.0462818 -3.6766853 1.375206
5.096087 -5.7068338 2.5537753
-1.359358 -7.8514838 1.2515182
-0.37124503 -8.0046139 0.92145354
-1.7340325 7.8417511 -0.74996388
-0.0079753399 -7.9491506 1.3687814
0.52216661 -7.9473524 1.2770032
-0.22048974 -7.9984341 1.0200007
1.131454 -7.9416285 0.84625554
-0.66331375 -8.0212011 0.53652465
0.2346288 -7.9959912 1.0377219
4.8324552 6.3084908 1.3853879
-0.16250074 -7.9638858 1.2729083
0.90646589 -7.9983478 0.52436459
0.62656671 -7.976007 1.0302751
-0.44749343 -7.9897566 1.0172226
0.74243581 -7.9869261 0.8543824
-0.2547133 -7.9964557 1.0319002
-0.28741384 -7.9841442 1.1154568
-0.47217917 -7.982234 1.0651696
-0.80789948 -8.025959 -0.074024796
-1.0391233 -7.999248 -0.081856489
-3.7398324 -7.1467414 -0.12378156
0.43459505 -7.9556007 1.2641213
0.12027931 -7.9742832 1.2144325
-0.34906805 -8.0161524 0.83613437
0.0064221621 -7.9754457 1.2135069
-1.4127024 -7.8411245 1.265578
0.35172009 -7.957994 1.2759484
0.19365191 -7.9479027 1.3694824
-5.6057649 -5.7984805 -0.18798399
0.9415493 -7.9921703 0.56669891
0.26865256 -7.9759955 1.1807677
-8.0557356 -0.33854777 -0.27336144
-0.16117215 -7.9795985 1.1771784
-0.17485595 -7.9590673 1.3073194
0.018927574 -7.9506483 1.3688517
0.31876934 -7.994205 1.0386544
4.787704 6.3347635 1.4270589
-1.6734982 -7.851212 0.80359298
-0.018664718 -7.9665952 1.2737247
-0.038495779 -7.9508896 1.3686413
-0.65981591 -7.9884133 0.91723919
4.9549699 6.2728615 1.0914135
-1.6094388 -7.8540249 0.90394586
4.8881021 6.2934885 1.2623181
-0.6279664 -7.9596367 1.1601988
-0.80978525 -7.9857769 0.81730324
1.0265338 -8.002739 -0.018767118
-0.13407946 -7.9662004 1.273025
-0.24207449 -7.9658661 1.2592738
-0.35640419 -7.9617085 1.2584661
0.82834333 -7.9800754 0.85568696
-1.5970615 -7.9087119 -0.048583984
0.99803752 -7.9863701 0.56820071
4.5301981 6.473845 1.6333696
-0.34652984 -7.9836617 1.1147625
0.93586963 -7.9969792 0.52485335
-0.46130657 -7.9781156 1.1136063
0.87806565 -8.0036907 0.52338785
-1.0978892 -7.9932733 -0.084206462
0.76948959 -7.9592161 1.0789125
-0.076374531 -7.9820762 1.1778309
-1.3651792 -7.861125 1.2024156
0.37641919 -7.9604411 1.2636346
-0.63119745 -7.9916711 0.91756296
-1.5808501 -7.8607635 0.90426975
-0.34254646 -7.9955897 1.0307367
-0.48459685 -7.9703712 1.1614466
4.5240345 -6.0649028 2.8037462
-0.59944725 -7.9627709 1.1604065
-0.30756056 -7.9624104 1.271975
5.1689444 -5.6465645 2.551935
-1.0057659 -8.0011282 0.29073179
-1.4427261 -7.8378506 1.2653456
0.02758646 -7.9442124 1.4160959
1.0830369 -7.9964614 -0.016426444
-0.31807578 -7.9857631 1.1149933
-0.47697425 -7.991035 1.0166662
0.71193314 -7.9717169 1.0311083
-0.43281722 -7.9806328 1.1138372
0.9980318 -8.0076752 -0.020330071
-0.80644727 -8.0116186 0.53299618
1.0186899 -7.9878335 0.52680767
0.40470785 -7.959971 1.2637973
-1.617674 -7.8892365 0.51536214
-0.72158396 -8.0372124 -0.071676612
-1.4363575 -7.8891354 0.90621471
-0.60257101 -7.9948244 0.91788673
-0.23086929 -7.9600048 1.306904
-1.6742548 -7.8896604 0.27293444
0.091426849 -7.9776855 1.2140619
0.96246678 -7.9952693 0.52534223
-3.6843452 -7.1789603 -0.12235284
4.6690865 6.3864679 1.5938401
4.8769698 6.2967587 1.3014663
-0.13510144 -7.9777946 1.2122123
-8.0497761 -0.50934964 -0.27340233
0.54503119 -7.9521484 1.2647659
0.51064038 -7.976119 1.1199094
-0.89383721 -8.0033741 0.53098083
5.0443182 6.2311301 0.92918605
0.96816951 -8.0123568 -0.021891832
-0.19616222 -8.0020018 1.0323656
-1.517154 -7.84268 1.1520818
-1.5534753 -7.8903933 0.68292505
0.23285902 -7.9754276 1.2151697
-0.31367242 -7.9985709 1.0309684
-0.5870744 -7.9789052 1.0636396
-0.10562015 -7.9838634 1.1775047
-1.6455498 -7.8966794 0.27354765
1.1294574 -7.9913764 0.050456405
-1.6394585 -7.8508983 0.90329659
-1.357484 -7.9422541 0.46778357
4.9788284 6.2495499 1.1383181
-7.8403473 1.896951 -0.26927817
-0.53640604 -7.9890609 1.0158324
4.8044624 6.3446884 1.3444219
-7.5047679 -2.7134569 1.2088066
-0.33700955 -7.9633465 1.2717419
-0.6355598 -8.0283346 0.53652298
0.65407151 -7.9786124 1.030273
-1.4900086 -7.8485689 1.1522896
-0.10681438 -7.9791441 1.2123969
-0.4907167 -7.9793806 1.113143
0.57423943 -7.9512205 1.2649264
-0.078472733 -7.9702191 1.2732577
0.88287044 -7.9774165 0.85634059
-1.5925422 -7.9123983 -0.101439
-0.374457 -7.9856648 1.1142991
0.26101756 -7.9754615 1.2153542
0.14786446 -7.9786716 1.2144308
-0.17039275 -8.0038252 1.0325985
-1.5931348 -7.8998766 0.4619391
-1.0357237 -8.0002422 0.28950346
-0.47177601 -7.9597664 1.2574962
0.035393596 -7.9804707 1.2135053
0.60074866 -7.9499083 1.2650876
0.88066053 -7.9511538 1.0799291
-3.7151031 -7.1655831 -0.12378502
-0.50644541 -7.9922094 1.0161098
-0.19256842 -7.9786868 1.2116574
0.12236202 -7.970346 1.2744269
-0.15304434 -7.9543309 1.3681505
0.71051586 -7.9625897 1.122422
-5.5604944 -5.8493233 -0.1872803
-0.22563899 -8.003334 1.0318997
1.1606166 -7.9441319 0.84625006
7.5402164 -2.7984941 0.69790614
0.17736506 -7.9792242 1.2146147
-0.0053423643 -7.9663992 1.3081464
0.91185653 -7.9669104 0.93585157
0.91108501 -7.9760041 0.85666573
0.90978742 -7.9489746 1.080183
-3.7716389 -7.1372023 -0.12593162
0.51666367 -7.9570923 1.264442
-1.5041533 -7.9152346 0.51737642
-0.55405891 -8.011652 0.83222806
-0.5472858 -7.9780388 1.1124487
-1.6694937 -7.8476558 0.90264726
-0.48263144 -7.9586425 1.2708091
-1.5641693 -7.9075131 0.46242571
-0.7714895 -8.0067787 0.69702125
-0.8693186 -7.9855375 0.81581938
0.12572682 -7.9865227 1.1792979
-1.6303095 -7.9076538 -0.05073595
0.59621871 -7.9737601 1.120821
0.87781405 -7.9933276 0.72777104
0.34397495 -7.9747791 1.2159075
0.42978191 -8.0180616 0.84851444
-0.10486794 -7.9726181 1.2730238
0.0089262724 -7.987854 1.1783202
0.93750358 -7.946609 1.0804373
0.068193913 -7.9875388 1.1788085
0.7995128 -7.989121 0.85470897
-1.0681909 -8.0034885 -0.030658007
-1.1581532 -7.9906011 -0.08734262
0.40740168 -7.9627585 1.2760664
1.0542326 -8.0055056 -0.01877439
-0.51876462 -7.9808693 1.1126796
-1.6260412 -7.8391361 1.0519263
0.43325078 -7.9961753 1.0395871
-0.06255126 -7.9682975 1.3077309
-3.6607623 -7.1966753 -0.12235594
-0.6876477 -7.993495 0.91626453
-0.50114691 -7.9609599 1.2571722
0.37206435 -7.9744148 1.2160919
-0.3865484 -7.9672322 1.2579794
0.037260294 -7.9740005 1.2738414
-0.91738582 -8.0087051 0.47801507
-1.4265836 -7.8828468 1.0177183
-3.5764494 -7.2392945 -0.11949492
4.8108382 6.3271465 1.4270147
-4.4442606 -6.7398181 -0.1970762
4.9807086 6.2615457 1.0960205
4.7022285 6.3895297 1.5095555
-1.6779385 -7.8827415 0.51334512
0.2360816 -7.9709048 1.275013
-5.5887928 -5.8263674 -0.18870842
-0.45406687 -7.9621205 1.2709255
0.46163857 -7.9628634 1.2639568
-0.60529065 -7.975956 1.1117543
0.9398734 -7.9661217 0.93617022
-0.33343971 -7.9777217 1.2103628
4.8774419 -5.7760024 2.8405495
-4.180582 -6.9071379 -0.1884532
-7.6704454 -2.4622126 0.57098067
-0.58612239 -7.9564686 1.2565258
-1.039242 -8.0091887 -0.029941082
-1.4033154 -7.8357925 1.3636885
1.1571021 -7.9930696 0.050457358
-0.0189116 -7.9902334 1.1779937
0.081869721 -7.9510884 1.4161428
0.62433255 -7.9740868 1.1210458
4.7171917 6.3696113 1.5521334
-0.57678568 -7.9789829 1.1119852
4.5532837 6.4678659 1.6333904
-1.6122731 -7.8849258 0.68121475
-3.5491037 -7.2543645 -0.11878049
-0.80153406 -8.0068254 0.69616461
-0.25949955 -7.9663243 1.3064868
-0.25011492 -7.9722071 1.2720913
0.76392555 -7.9619446 1.122874
4.5710287 -5.7786961 3.3091109
-1.5539305 -7.8840361 0.81564039
0.62818396 -7.9526091 1.2650859
-0.13441551 -7.9897389 1.1770149
0.10442853 -7.9595809 1.3689916
0.29697764 -7.9848952 1.1806045
0.3457917 -8.0026846 1.0384219
0.3153367 -7.9790025 1.215537
0.88227051 -7.9429865 1.1714854
0.066970706 -7.9758635 1.2739587
0.0080996752 -7.9762239 1.273608
5.0747991 6.2295051 0.82616931
-0.55763841 -7.9594769 1.2566872
0.60083306 -8.0099049 0.85112166
4.8678226 6.3040004 1.3446991
0.26458967 -7.9717751 1.2751288
-4.5998068 -6.6367502 -0.20256293
-0.73298872 -7.973846 1.0616013
-5.5180535 -5.8960319 -0.1865766
-0.45931613 -7.9804444 1.1612356
-1.5243236 -7.8555012 1.1025016
0.20357478 -7.9832044 1.2146131
-1.5550069 -7.874877 0.90394294
5.0260968 6.2419772 1.0124549
-1.0971067 -7.9976902 0.28704715
-1.4550334 -7.8542237 1.2013022
-4.3129487 -6.82726 -0.19315684
0.6812582 -7.97048 1.1217301
3.8570805 -5.6193485 4.3356247
-0.572855 -7.9735589 1.1601956
-1.6545117 -7.8364601 1.051416
0.2458843 -7.9572997 1.3694826
-0.71732569 -7.9938874 0.91561514
0.14981842 -7.9755359 1.2744274
1.184966 -7.9907355 0.05117619
-0.25095069 -7.9830713 1.2109163
-4.5241008 -6.6896815 -0.20021176
0.20990038 -7.9743619 1.2747787
0.092534065 -7.9768114 1.2740761
-0.37547565 -8.0037689 1.0298053
0.96041423 -7.941855 1.1253877
0.88287932 -7.9755163 0.93488073
-1.4327023 -7.8436918 1.2994304
4.7590122 6.3510036 1.5104594
4.6589127 6.4050603 1.5921366
-4.498363 -6.7074804 -0.19942808
-1.0682672 -8.0025873 0.28766036
-0.28093064 -7.9730268 1.2718581
-1.6113865 -7.839376 1.1015761
-0.20272088 -7.9698033 1.3067627
-1.6710736 -7.8747749 0.67993271
-0.36265457 -7.9794421 1.2099928
-1.5251597 -7.8914781 0.815965
0.76569194 -7.9761195 1.0311048
-0.74377441 -8.0143051 0.69701982
-0.84168804 -7.9933839 0.81581783
1.1867204 -7.9463053 0.84624338
-0.49217486 -7.9980302 1.028409
-0.18257165 -7.9624639 1.354369
0.73807561 -7.9664598 1.1224146
-0.43239856 -8.0014782 1.029107
0.9384678 -7.9784493 0.85666668
0.2927444 -7.9725471 1.2752466
4.7240853 6.3679814 1.5509764
-0.33919859 -7.98634 1.1752212
-1.4672059 -7.8682079 1.1029636
-4.4703279 -6.7272387 -0.19864464
1.1103613 -8.0029373 -0.017218709
-0.58496356 -8.0154562 0.83125091
0.078672171 -7.9726334 1.3084205
-7.5721493 -2.640084 0.98695755
-0.83134341 -8.0067587 0.69530946
-7.4560452 -2.7937686 1.3733016
0.17811882 -7.9767208 1.2745447
0.51367158 -7.9712405 1.2170141
0.036572337 -7.9934916 1.1783201
0.095831752 -7.9929695 1.1788085
5.189682 6.1908956 0.16514277
4.9380236 6.2861485 1.1785803
-7.8411341 1.9319663 -0.27070475
0.48780298 -7.9659042 1.2639551
0.77060902 -7.9980607 0.85373104
-3.635603 -7.2152338 -0.12235963
-1.0996864 -8.0051279 -0.032810688
-1.4386284 -7.8744044 1.1031945
-4.3938479 -6.7786894 -0.19629312
0.21974993 -7.9607663 1.3693421
0.16113567 -7.9622231 1.3691314
-4.3690505 -6.79497 -0.19550943
-1.1257374 -7.9968987 0.28581893
1.3249998 -7.9536691 0.53316027
-8.0064621 1.0590661 -0.27520001
1.1383157 -7.9799705 0.57069504
-1.3993056 -7.8935266 1.0177172
0.32097399 -7.973218 1.275364
-0.8629992 -7.9826612 0.91334414
-0.3749733 -7.9659724 1.3056544
0.23762143 -7.9908595 1.1799514
-0.033653498 -7.9559402 1.4158144
0.40378892 -8.003787 1.0388881
-0.89882231 -7.9894786 0.81470573
5.0554171 6.2367663 0.92175472
0.42911506 -7.9775205 1.2162747
1.0533302 -7.9920106 0.56818628
-4.3430066 -6.8121657 -0.19472539
-0.3106972 -7.9893227 1.1753843
-1.549879 -7.8473988 1.1512462
-0.94759536 -8.0115089 0.47655296
-1.5187986 -7.8737941 1.0033286
5.1228943 -5.7039862 2.5556207
-0.070175529 -7.96454 1.3682903
4.6930385 6.3833966 1.5939355
-0.34795594 -7.9678712 1.3057923
-0.3919853 -7.9810548 1.2096221
-0.024649858 -7.9902315 1.2125781
0.45577925 -7.9766884 1.2164592
-3.6084003 -7.2304778 -0.12164509
-0.14744401 -7.9554925 1.4155335
0.65570068 -7.9552202 1.2650844
-0.19430888 -7.9485869 1.4491251
0.40891081 -7.9567051 1.3572437
-5.6641264 -5.7619834 -0.19227636
-0.12637591 -7.9644465 1.36808
4.9148941 6.2993937 1.2172385
-4.2893505 -6.8472519 -0.19315755
-0.5301013 -7.9662638 1.2566855
-0.32443058 -7.9614601 1.3535633
-0.050409794 -7.9958363 1.1775042
1.1099913 -7.9854016 0.5696907
-4.5500641 -6.6767931 -0.20178008
-0.1841048 -7.9636188 1.3678697
-1.4350461 -7.8362522 1.3634799
7.5569081 -2.7808604 0.69693106
-1.4109373 -7.8433924 1.3481535
-5.6411433 -5.7851753 -0.19156551
-0.3192935 -7.9699697 1.3059318
0.014375091 -7.9739556 1.3211452
0.4838202 -7.975924 1.2166436
-0.54527831 -7.9803753 1.1601939
0.6835587 -7.9537544 1.2652454
-1.1882099 -7.994904 -0.036396503
4.8960419 6.2977309 1.3034678
-4.238122 -6.8799491 -0.19158971
0.8511349 -8.0210447 0.52094775
5.0701485 6.2261591 0.92844266
0.074588537 -7.9659553 1.3687812
-6.9257889 -3.95275 1.3211532
-0.0039283037 -7.9581132 1.4158611
-0.4224999 -8.0078163 1.016384
-0.3979646 -7.9726386 1.2710416
-0.67817354 -7.9843316 1.0618539
5.2024355 6.1835971 0.19036722
-0.77292585 -7.9624276 1.1581141
-1.3678783 -7.8404737 1.4126549
-0.28072166 -7.992538 1.1755471
-0.025511384 -7.9523745 1.4496039
-4.2106433 -6.8976235 -0.19080591
0.90990537 -7.9462628 1.171479
-0.11904895 -7.9577918 1.4155803
0.79328126 -7.9782343 1.0311031
0.21138024 -7.9942942 1.1796249
-4.4235315 -6.7632418 -0.19786155
1.2126081 -7.9922333 0.051177263
-0.40426517 -7.9675684 1.3053769
-1.3908477 -7.8774729 1.1664355
-4.731102 -6.5515938 -0.20805037
-0.51291692 -7.9670172 1.2703422
0.40860009 -7.986794 1.181258
0.35236096 -7.9615927 1.3568981
-0.64955556 -7.9876761 1.062108
1.017688 -7.9467678 1.0806897
0.28750503 -7.9872708 1.2149804
-0.76373935 -7.9778891 1.0608354
-4.6815419 -6.5876317 -0.20648301
4.9169474 6.2921667 1.2617605
-4.1339502 -6.9451361 -0.18845415
-0.27130342 -7.9635267 1.3675196
0.54124266 -7.9742422 1.2170124
-1.5703809 -7.8606601 1.0519233
-4.6549463 -6.6070995 -0.20569932
-5.7347994 -5.6955462 -0.19512653
-0.12133884 -7.977633 1.3070363
-0.36940622 -7.9758072 1.2711582
-7.0845356 -3.8066888 0.82736593
0.38039827 -7.9611835 1.3570127
7.4976497 -2.8892207 0.89738274
-0.94840336 -7.9454966 1.1564475
1.0753372 -7.9959292 0.52632028
4.5766096 6.4618058 1.6334139
1.0453424 -7.9440198 1.0809438
-0.92702401 -8.014389 0.52845716
1.214221 -7.9484987 0.84623635
-0.7158401 -7.9696507 1.158529
-0.61954498 -7.9912677 1.0623622
0.90455502 -7.9555788 1.1242362
-8.0667372 -0.47596493 -0.27626157
-0.61591399 -8.0191431 0.83027381
-1.6294107 -7.9062819 0.45950103
0.5994277 -7.9974079 1.0286027
-5.6901631 -5.7411175 -0.19370484
-4.5794811 -6.6606617 -0.20334816
-3.2411747 -7.4068046 -0.10948217
0.81950927 -7.9652429 1.1230924
0.1823076 -7.9971356 1.1792983
0.73714602 -7.9858398 1.0302695
7.5648994 -2.7942188 0.58637643
1.2686912 -7.940578 0.84733993
0.22475553 -7.957644 1.4163761
-0.20604539 -7.9583826 1.4153463
1.1380601 -8.0054083 -0.017225862
0.9378534 -7.9454732 1.1716818
-4.0544319 -6.9937 -0.18610251
-3.5262907 -7.2757359 -0.11950147
0.16755784 -7.9593701 1.4162354
-0.6872474 -7.973105 1.1587368
1.2432306 -7.9898362 0.051896334
-0.80257452 -7.962512 1.1576971
-0.071516275 -7.9715919 1.3547114
0.87684393 -7.9720483 1.0319351
-0.7064178 -7.9851098 1.0613439
-4.2668514 -6.8661761 -0.19315815
-1.1314888 -8.0066433 -0.034962535
0.32255888 -7.9932346 1.1804414
-1.5291457 -7.8888884 0.90361601
0.66071516 -7.9574809 1.2772408
0.46529269 -7.9714909 1.2760679
1.1018608 -7.9937487 0.52680922
-0.86227012 -8.0104065 0.69402599
-0.66146028 -7.975738 1.1589445
-3.2143903 7.4053688 0.4705286
0.13148558 -7.968812 1.3689203
0.63581944 -7.9742951 1.1830542
-7.5964866 -2.6114781 0.93106776
-3.4415774 -7.3168263 -0.11663961
0.51473188 -8.0045862 1.0274918
0.052723289 -7.961565 1.4159547
-3.2977843 -7.3828859 -0.11162996
-1.81484 7.8397007 -0.80023146
0.62269574 -7.97047 1.2175672
4.7885609 6.3586149 1.4270592
4.682117 6.3986135 1.5921369
-0.61755049 -7.9649811 1.2558763
-0.22357774 -7.9979715 1.175873
-0.27678597 -7.9599037 1.4013429
4.6253929 6.4288754 1.6358011
-1.5861139 -7.8881192 0.81433886
0.7096802 -7.9560523 1.2652438
0.5219748 -7.9833422 1.1820748
0.98918319 -8.0094118 0.52387953
1.2684202 -7.9870796 0.052615047
0.15179527 -7.9996095 1.178972
0.54890263 -7.967196 1.2765371
-3.0353498 7.4682565 0.64724016
4.9012356 -5.7712836 2.8421192
4.9849777 6.2744255 1.0904855
-0.25123012 -7.9612002 1.4014342
1.2420208 -7.9466233 0.84660167
-1.1569904 -7.9993205 0.28397596
0.77675593 -7.962666 1.184199
4.5126848 -6.0959554 2.8080487
4.7483048 6.3607469 1.5509531
-0.77770734 -7.9981809 0.91399175
-0.95836163 -8.0134315 0.52744877
1.1635567 -8.0036392 -0.016445637
-0.23539424 -7.9596648 1.4152527
0.43376768 -7.9748812 1.2758337
-4.1628156 -6.931798 -0.19002271
0.5638181 -7.9613247 1.3093504
-0.88048089 -7.9698925 1.0593069
-0.74545968 -7.9699492 1.158112
-0.76201761 -8.0094547 0.82767004
-1.2206956 -7.9949245 -0.092046261
0.77061856 -7.9835639 1.0428566
0.13855827 -7.9620399 1.4161414
-1.5502127 -7.8747482 1.002493
4.7319412 6.3931956 1.4682591
-3.2698328 -7.3970385 -0.11091495
0.37677622 -7.9782019 1.2754821
-1.5570896 -7.8602028 1.1015731
-1.4876838 -7.8591933 1.2005594
-0.032442451 -7.9460249 1.5105088
-0.35116136 -7.9559269 1.4149724
0.99528563 -7.9721704 0.93615758
-0.30750394 -7.9915237 1.209989
-1.1603769 -8.0048113 -0.036397457
-5.7609019 -5.6743684 -0.19655669
4.7237072 6.3700008 1.592135
-0.52393997 -8.0059757 1.0274776
-4.6344352 -6.6261854 -0.20570016
-0.070624352 -7.9549141 1.4632369
0.60721087 -7.978694 1.1827275
-3.3289728 -7.3711572 -0.11306238
0.57559705 -7.9667606 1.2766547
5.1621342 -5.6791153 2.5556226
-0.3883723 -7.9631848 1.3670303
-1.0105906 -8.0116119 0.47411501
-0.85181785 -7.9739757 1.059561
-3.4713497 -7.3053856 -0.11807227
-1.1918116 -8.0002861 -0.091263175
4.8088617 6.3364925 1.4686921
-0.58107626 -8.0026112 1.0267794
-1.403598 -7.8311911 1.4616779
-4.1087146 -6.9654627 -0.18845487
5.1447277 -5.6949339 2.5562363
-3.2082033 7.3978333 0.6437996
-0.080673575 -7.9663758 1.4020756
-1.6573459 -7.9169121 -0.10692847
0.56775039 -7.9770074 1.2170123
-7.8417931 1.9670126 -0.27213156
4.6931124 -5.6879878 3.3256645
-0.50902247 -7.982511 1.2083243
-0.67575896 -8.0184946 0.82897156
-0.46433783 -7.9701109 1.3048218
-1.3636671 -7.888042 1.1664345
0.53638256 -7.9649577 1.3090775
-0.73456383 -8.0135708 0.82799518
-0.64872372 -7.9652724 1.2555506
-0.41853428 -7.9804354 1.2571671
4.9069366 6.2986779 1.3010032
4.6763291 -5.7016501 3.3267417
-1.3790894 -7.8538656 1.3635467
-0.98837805 -7.9879527 0.81248009
1.0497768 -7.9754009 0.85764796
1.0727313 -7.9451632 1.0809416
-0.21186817 -7.9728842 1.3539053
4.8631706 6.3147607 1.3850411
-1.4224151 -7.8779817 1.165947
-4.080986 -6.9826155 -0.18767095
0.79864609 -7.9825368 1.0430905
0.37913692 -7.9943099 1.180768
1.0453342 -7.9427195 1.1258341
1.1576313 -7.9892807 0.52778697
0.10812879 -7.9643369 1.4160477
-0.7982378 -7.9867144 1.0113828
0.29515243 -7.9700317 1.3564361
-0.82315457 -7.977952 1.0598154
-1.5959978 -7.9145727 0.51334047
-1.4303056 -7.871675 1.20093
-1.639855 -7.838376 1.1499949
-0.30306721 -7.9681215 1.3673093
1.1915796 -8.0020151 -0.015667558
0.016832948 -7.956903 1.4633304
0.59713072 -7.9759817 1.2171967
-0.48049176 -7.9852238 1.2085087
-0.43587315 -7.9726338 1.3049598
0.99012119 7.9851236 0.84472662
-0.63638043 -7.9886465 1.1105933
-0.80773187 -7.9982371 0.91334087
-0.59421659 -7.977972 1.2075847
0.59337986 -7.9619794 1.3094828
-0.95962405 -7.9923973 0.81285018
0.57852662 -7.9829812 1.1824007
4.6660275 -5.7230163 3.307029
0.99370021 -7.9435978 1.1720871
-0.98162377 -8.0170546 0.47460234
1.0231966 -7.9710851 0.93647569
1.1017388 -7.9422698 1.0811957
-0.9102546 -7.9695392 1.0587969
-0.55231702 -8.0064611 1.027012
4.5325594 -6.0620461 2.8585563
-0.79449117 -7.9818263 1.0600696
-3.2155433 -7.4238873 -0.10948515
-1.5802443 -7.8718448 1.0019366
-1.3851366 -7.8569283 1.3480358
4.838841 6.3259001 1.4268773
1.2411672 -7.9778705 0.52974206
0.13871062 -7.9477572 1.5105119
7.5931101 -2.7331686 0.58638465
-0.64691758 -8.0227098 0.82929683
1.2478201 -7.9945569 -0.013326406
0.46445131 -7.9912038 1.1814216
-1.6613308 -7.9057803 0.45803881
-3.5011158 -7.2938237 -0.11950457
-1.6018268 -7.8613949 1.0511575
1.1279489 -7.9391794 1.0814497
-0.70572352 -8.0180006 0.82832044
0.99213076 -7.9575319 1.0799222
-0.17851114 -7.9647908 1.4153459
0.081459165 -7.9489036 1.5105107
1.1853986 -7.9869003 0.52827638
-3.9769778 -7.0444608 -0.18453515
-0.93088114 -7.9967279 0.81322044
5.0084634 6.2603903 1.095184
-0.5924474 -7.9535623 1.3662612
-0.70544386 -7.9627252 1.2550654
-4.712275 -6.5748568 -0.20883548
0.73719811 -7.9583769 1.265242
-0.29417896 -7.9618955 1.4150655
-3.4162383 -7.3346152 -0.11664271
-0.21526933 -7.9727855 1.3675892
0.045140982 -7.9585662 1.463354
0.56916368 -8.0063753 1.0277674
-0.53989244 -7.9832392 1.2079538
-1.654955 -7.904551 0.51182854
-1.5126355 -7.8507171 1.24941
1.018532 7.9832058 0.84510034
0.68962961 -7.9609628 1.2772416
0.47846901 -7.9714656 1.308531
-5.7856927 -5.6543789 -0.19798541
-0.22368813 -7.9668961 1.4014326
-0.12821472 -7.9771757 1.3542495
0.63171816 -7.9659681 1.2768897
4.7452078 6.368752 1.5522054
0.8219884 -7.9843311 1.0308223
-0.75011599 -8.0057192 0.9139896
0.33612168 -7.9606047 1.4165641
0.96138704 7.9909148 0.8439815
-1.0182897 -7.987215 0.81173819
1.2195609 -8.0002918 -0.014889717
-1.619331 -7.8872461 0.81336284
-0.83332491 -7.9663296 1.1570708
-0.59654427 -8.00704 1.0136037
-0.1319046 -7.9835067 1.3202111
-5.039216 -6.3289557 -0.21980691
1.1830668 -7.9328032 1.0819581
0.62145591 -7.9623098 1.3096147
-1.1302719 -8.0000372 0.47070324
-1.4666544 -7.8525414 1.2987342
0.7728495 -7.9542694 1.2777095
-0.19533443 -7.9685736 1.4015239
-0.89324117 -8.0139341 0.69274241
-1.6457033 -7.8474336 1.100415
1.0511731 -7.9698982 0.93679464
-5.7172403 -5.7251253 -0.19585145
-1.4593395 -7.8344073 1.4123297
-0.54606545 -7.9745154 1.2698756
-3.3887217 -7.3490744 -0.11592782
-0.56385946 -7.9574637 1.3663309
0.052419543 -7.9512825 1.5105098
0.5360024 -7.950634 1.4170351
-0.26571071 -7.9647241 1.4151121
4.6021929 6.4546294 1.6334369
0.49929607 -7.9614105 1.3701158
-1.2809267 -7.9913168 -0.095180869
1.3375865 -7.97507 0.34695697
-0.5678879 -8.0100756 1.0138811
-0.92063987 -7.9578729 1.1562366
0.79424202 -7.9548669 1.2655643
-1.5012805 -7.8768969 1.1018026
0.47939694 -7.9546251 1.4168935
-0.055874944 -7.9631023 1.4493263
0.074792147 -7.9604015 1.4633782
4.8021703 6.3667588 1.3852097
-0.16700006 -7.9701476 1.4016155
0.047821522 -7.987741 1.3077244
-0.6016438 -7.9714165 1.2695261
-4.8903928 -6.4463258 -0.21510577
0.96280175 -7.9640045 1.0794125
0.73391461 -7.9684157 1.2181183
-0.32223487 -7.9631891 1.4149719
-4.0326405 -7.0158772 -0.18688738
-0.16835463 -7.9619436 1.4489839
0.60315895 -7.9703803 1.2766554
-0.045671821 -7.9859285 1.3205845
0.99614745 -7.9872794 0.85634249
-3.0653205 7.4639049 0.6459533
0.78994191 -7.9775057 1.1221672
0.43688858 -7.9681697 1.3570094
5.0103264 6.2554426 1.1370403
0.32852769 -7.9714217 1.3694828
-1.0420674 -8.0135946 0.4726522
-4.8391738 -6.4857612 -0.21353865
-0.9866575 -8.0174036 0.52593517
-4.0060816 -7.031776 -0.18610358
-1.1012956 -8.0059185 0.47119021
-4.7911062 -6.5215297 -0.2119714
-1.5425649 -7.8479533 1.2490859
-0.16127193 -7.9850903 1.3200245
-1.4350471 -7.831676 1.4616081
1.0163785 -7.9518514 1.12514
0.22444081 -7.9610386 1.4501469
4.8664036 6.3283248 1.3428814
-0.45254672 -7.9917369 1.2085087
1.3094754 -7.9811754 0.34573293
0.54200095 -8.0115528 1.0272112
-1.4548113 -7.8401575 1.3964753
-4.7644634 -6.5414386 -0.21118736
-0.53526437 -7.9612641 1.3664006
-1.4294976 -7.8420467 1.4123756
0.84842479 -7.9507537 1.2658865
-0.56661189 -7.9848757 1.2075832
0.097647309 -7.9806948 1.3552848
0.39908004 -7.9939499 1.2153459
4.7317343 6.3931608 1.5093706
0.097951531 -7.9865594 1.3212386
-1.454044 -7.8783617 1.1654584
0.023343801 -7.9535527 1.5105091
1.0212915 -7.9852562 0.85666937
-1.339869 -7.9835391 -0.097530723
-0.74190044 -7.9980049 1.0116588
0.34959149 -8.0017157 1.1802782
1.1292644 -7.9994888 0.52632236
-0.82324243 -8.0115089 0.82604206
-1.584157 -7.8556929 1.1502011
0.040397286 -7.9874067 1.3209583
-1.6889843 -7.9171443 -0.10928023
0.66291565 -7.9816942 1.1828914
4.9856825 6.2610588 1.2200919
-3.9526031 -7.0632658 -0.18453562
-0.89585483 -8.0322943 0.47606277
-0.92307353 -8.0135193 0.69188786
-0.33341599 -7.9729323 1.3670987
-1.6284904 -7.8320475 1.2484378
0.67775691 -7.9756112 1.2175634
-0.44882536 -7.9857225 1.2566803
4.9049873 -5.804924 2.7922235
4.9669051 6.2845736 1.177883
1.2813158 -7.9871802 0.34450877
0.35675037 -7.9719868 1.3695531
-0.79332125 -7.9594669 1.2542561
-0.44986999 -7.9677954 1.36668
0.76472205 -7.9606042 1.2652403
-0.14947653 -7.9531918 1.5105072
-7.1414847 -3.7248895 0.8257432
-0.71320903 -8.0015697 1.0119362
-1.3110671 -7.9893398 -0.096748114
4.9850001 6.2705469 1.1781151
-5.0666494 -6.31179 -0.22137499
-1.0723147 -8.0116911 0.4716773
-1.4022363 -7.8485165 1.4124213
1.1051354 -7.9752746 0.8579762
1.0211085 -7.9464841 1.1720791
-0.37126076 -8.002984 1.174242
0.30103874 -7.9749331 1.3693421
0.54240489 -8.0119095 1.0395901
-0.1861496 -7.9618812 1.4630476
-0.42957389 -8.0003452 1.173753
7.6547561 -2.6238379 0.29777408
-0.50528646 -7.9653316 1.3664702
0.71577978 -7.9640217 1.2772424
0.60242498 -8.007781 1.0402888
0.70707512 -7.9741721 1.2177479
4.7221646 6.3820882 1.5940775
0.55686569 -7.9613986 1.3702564
1.2754889 -7.9965453 -0.013333559
-0.94108462 -7.9729013 1.0580316
-0.18787098 -7.9871993 1.3198376
-0.68452001 -8.0050297 1.0122135
-7.9694462 1.3990904 -0.32288766
0.068799138 -7.988996 1.3210517
-1.5201091 -7.8839912 1.0516645
-1.484237 -7.8749032 1.1651332
-1.0166608 -8.016633 0.52492654
-0.24256825 -7.9609895 1.4629769
0.42059243 -7.9619513 1.4167054
-1.3654702 -7.9652233 0.51736879
-0.66255987 -7.9705639 1.2690601
1.2118852 -7.9334912 1.0819561
0.99476975 -7.9685745 1.0449603
-0.043926835 -7.9647212 1.4632133
-1.1895282 -8.0053759 0.28151774
-0.063514113 -7.9558048 1.5105083
-1.3608603 -7.9064832 1.1029574
1.10707 -7.9672265 0.93743223
4.7888956 6.3534908 1.5104617
0.087037206 -7.9755263 1.4025325
-4.8681068 -6.4683557 -0.21510661
-0.38122153 -7.9647684 1.4147849
-0.36153519 -7.9740982 1.3669586
0.37240362 -8.0231247 1.0374901
-7.7022247 -2.4729881 0.38181818
-5.8829141 -5.5621119 -0.20226288
0.34004748 -7.9687619 1.4035404
1.3250434 -7.9443769 0.84732586
0.3066572 -7.9678493 1.4164232
4.5167398 -6.0828791 2.8609071
-0.73607528 -7.9669013 1.2545787
-0.55119646 -7.9739079 1.3039894
0.50620556 -7.9761515 1.3085244
-1.0286095 -7.963181 1.0570114
-1.6512154 -7.8868141 0.81238669
0.82175517 -7.9568934 1.2655627
-4.8190107 -6.5054297 -0.21353948
1.3250724 -7.9894419 0.052617311
4.6506414 6.4253745 1.6359437
0.9400267 -7.9760284 1.0442595
0.32358682 -7.9779401 1.3563181
-0.10288918 -7.9899321 1.3202109
-3.3632808 -7.3666773 -0.11593103
0.88236964 -7.9828401 1.0435588
4.9238086 6.296968 1.3029798
4.9662075 6.2803497 1.2196748
-0.47808993 -7.9685454 1.3665401
-0.098748565 -7.9651604 1.4631423
-0.67174101 -8.0057716 1.0251503
-0.72658324 -7.9897733 1.1092033
0.76147354 -7.9706421 1.2181166
-1.1618533 -8.001545 0.46924043
-0.46067107 -8.0004292 1.1734271
0.25090528 -7.9704151 1.4162822
1.0770047 -7.9813533 0.85732347
0.74376619 -7.9631729 1.2773601
0.46331769 -7.9712663 1.3570094
-0.95161629 -8.0134048 0.69103271
-0.14080846 -7.967361 1.4489824
0.11525643 -7.9760814 1.402624
4.7081256 6.3951564 1.5921371
0.82586336 -7.9893565 1.0428584
-0.57684791 -7.9784093 1.2695259
-5.8371029 -5.6114616 -0.20084202
-1.6700617 -7.9251862 -0.056476712
0.52685034 -7.965322 1.3701158
-1.049401 -7.990171 0.81062448
1.0490019 -7.9452972 1.172282
-7.100421 -3.7828665 0.93630505
-3.1337926 -7.467967 -0.10805821
0.50692737 -7.9586196 1.4168935
1.2956395 -7.9504294 0.84658808
-1.3466024 -7.9171891 1.0534471
0.44873559 -7.9621944 1.4167525
-0.8641324 -7.9700289 1.1564443
-0.27333903 -7.9618411 1.4629298
-0.2175535 -7.9885759 1.319652
-7.045269e-05 -7.9691067 1.4493929
-0.57643032 -7.9937806 1.1724505
1.3637936 -7.9766741 0.34695029
0.78934133 -7.9687867 1.2183011
0.2565819 -7.9733725 1.4031734
-1.2252107 -8.0066786 -0.040702701
0.96476054 -7.9967065 0.85536408
-1.2485651 -7.998343 0.27967644
-0.42489433 -7.9981427 1.2085073
0.4913246 -7.9704595 1.357124
0.7126931 -8.0011873 1.0414573
0.96482688 -8.0227013 0.56315231
-0.6324836 -7.9750929 1.2691762
-8.0721045 -0.6136778 -0.27844644
-0.68029428 -7.973536 1.2549011
-3.1920128 -7.4441752 -0.11020577
-0.075804591 -7.9917436 1.3203044
0.82816064 -7.9560409 1.2778286
0.18507409 -7.9650908 1.463475
-3.9281716 -7.0819869 -0.18453598
-1.3425924 -7.9884067 -0.045005798
-0.83013892 -7.9943705 1.0102684
1.2957244 -7.9961476 0.051180363
0.24044573 -7.9885163 1.3217996
4.9448018 6.2912979 1.2612034
-1.0466843 -8.015749 0.52391815
0.61164093 -7.9606156 1.3703974
-0.12931681 -7.9665751 1.4630948
-0.58702791 -7.9657183 1.3517151
-0.085596085 -7.9697804 1.4491186
4.8350353 6.3316832 1.4686481
4.7496858 6.3663754 1.5921354
0.16686845 -7.9571166 1.5105114
-0.5272454 -7.9590602 1.4144124
1.3527727 -7.9421072 0.84769136
0.74562722 -7.979342 1.1833825
-1.2196568 -8.0037918 0.28028977
1.212757 -7.9923444 0.52778965
-7.9784303 1.3665905 -0.3236748
-3.9013219 -7.0974846 -0.18375206
-3.105834 -7.4813542 -0.1073432
-1.6948401 -7.9088035 0.45608866
4.4833627 -5.2081747 4.2900381
-5.0190239 -6.3553901 -0.22059226
-0.83966553 -8.0058565 0.91204083
1.0411882 -7.9335561 1.2670159
0.12559569 -7.9918723 1.3212385
0.5931983 -7.9543395 1.4170811
-1.1907712 -7.9996767 0.46826577
-1.3861187 -7.8729773 1.3141649
-0.79691589 -8.0196505 0.8260414
-4.9705787 -6.3936176 -0.21902525
-3.8756709 -7.1119537 -0.18296814
5.0576992 6.2475915 1.010829
-0.0065637827 -7.9596324 1.5105079
-0.30636108 -7.9878116 1.319185
-0.30276608 -7.9629087 1.4628829
-1.1053826 -7.9851918 0.80951256
4.4680867 -5.2209239 4.2917271
0.44129682 -7.9730711 1.3697641
0.52635062 -7.9512434 1.4638835
0.25085914 -7.9560342 1.5105134
-1.6117824 -7.8768034 1.0008222
-4.9197607 -6.4336925 -0.21745825
-0.9815799 -8.0127716 0.69017768
-5.9084005 -5.5402784 -0.20369136
0.93304265 -7.9480658 1.2662086
-0.30159318 -7.9827523 1.3530965
-3.8474932 -7.1281686 -0.18218398
-1.3743851 -7.9847455 -0.046440125
-0.12195754 -7.9593763 1.510507
-1.0793749 -7.989203 0.80988264
-0.4162823 -7.9778337 1.3525212
0.26875782 -7.9893861 1.3218932
1.2379458 -7.934021 1.0819547
0.79986835 -7.9611726 1.2775943
0.83145261 -7.9724169 1.1840366
0.15608966 -7.9678655 1.4634271
0.33650863 -7.9646912 1.4503512
4.8016801 6.3593726 1.4682572
-7.9311457 1.6267536 -0.32286966
1.0795054 -8.0104856 0.56615627
-3.0778522 -7.4946342 -0.10662818
0.21143687 -7.9914837 1.3216126
-0.73299909 -8.0043354 1.0242195
0.21610904 -7.9666395 1.4634991
-0.14019215 -7.9794745 1.4015206
0.57011425 -8.0156584 1.0395908
-1.5913519 -7.8685007 1.100412
0.22785187 -7.9772816 1.4029889
-7.9629817 1.4641112 -0.32366681
-1.2789828 -7.9965348 0.27844667
-1.5278579 -7.8510842 1.2980396
0.09879601 -7.9691772 1.4633552
-0.84363091 -7.9824944 1.1078131
-0.40189052 -8.0075293 1.1737527
-1.2225055 -7.9967065 0.46729088
0.56298053 -7.9583912 1.4169881
4.8163548 6.3583064 1.4267808
-3.7944989 -7.157527 -0.18061578
-0.27316248 -7.9846988 1.3532112
-7.9970798 1.2661296 -0.32446659
-0.17686832 -7.9592443 1.5105062
-8.0909243 0.30535302 -0.32610428
0.64916325 -7.9850249 1.2170072
0.64842749 -7.9704494 1.3094671
0.36318064 -7.9641838 1.4504193
0.15536666 -7.9934139 1.321332
-1.6584034 -7.8330922 1.2479508
-0.52361786 -7.9806356 1.3039877
-0.48493052 -7.9582424 1.447884
-0.85994291 -7.9942179 1.009712
1.2161286 -7.9564943 0.93903482
-5.8187037 -5.6363931 -0.2008487
-0.020528555 -7.9641213 1.4964
-8.07897 0.53937918 -0.32608807
-8.0943327 0.20666531 -0.32611144
-1.4321045 -7.844008 1.4450719
-8.0811729 0.50596088 -0.32609105
5.2202482 6.1960635 0.16122174
-8.0768747 0.57111675 -0.32608569
-7.9575586 1.4971368 -0.32366419
0.46945548 -7.9732299 1.3698347
4.2340188 -5.3977361 4.3136797
-7.9923487 1.2992651 -0.3244642
-1.4724787 -7.8514481 1.3629895
-0.51759529 -8.0017424 1.172776
1.123822 -7.9247546 1.2674989
-0.63729787 -7.9728856 1.3032963
0.98579907 -7.9647002 1.1242146
-0.33590579 -7.9887419 1.3189985
1.3031625 -7.9984379 -0.013340473
0.41252017 -7.9767656 1.3696235
-1.0404248 -8.0073595 0.68889564
-0.014977217 -7.970809 1.4632132
1.3515738 -7.9903951 0.052616835
0.87566692 -7.9565773 1.265722
-1.7934231 7.862226 -0.80333591
0.50989377 -7.9652867 1.4040902
0.39260852 -7.9697232 1.4165642
-5.2177463 -6.1968255 -0.22764456
-5.1934867 -6.2173204 -0.22686112
-5.242219 -6.1762309 -0.2284286
-7.9520216 1.5301397 -0.32366168
0.70529413 -7.9666538 1.3098724
1.1047328 -7.9426255 1.1726874
-0.092182875 -7.9618549 1.5105073
0.12602544 -7.9893193 1.3551668
-5.1447382 -6.2580371 -0.22529411
1.1346434 -7.9697123 0.93742514
0.29836714 -7.9903855 1.321987
-0.33774996 -7.9753957 1.4006948
0.90998542 -7.9853907 1.0435598
-5.1202669 -6.2782516 -0.22451079
-1.4489471 -7.8593454 1.3473408
-1.683109 -7.8862486 0.81141043
-1.526063 -7.8946929 1.0149264
0.86076707 -7.9713163 1.1842008
1.3578286 -7.9900999 -0.010998964
0.54937685 -7.9992433 1.1815853
-5.0957575 -6.2983685 -0.22372746
0.27977991 -7.9690056 1.450145
1.1579537 -7.9353418 1.1733036
0.10745645 -7.9621339 1.51051
4.7619796 6.3920603 1.4680501
-5.9999614 -5.4450016 -0.20725024
-1.3594083 -7.8492875 1.4937749
-3.713191 -7.2021728 -0.17826355
-1.6419027 -7.8736649 1.0002656
-0.58656633 -7.959095 1.4142256
0.53786808 -7.9643264 1.4041815
-4.9981804 -6.3767509 -0.22059309
0.90507603 -7.9544096 1.2658848
-0.62669873 -7.9903383 1.2066559
-5.9779549 -5.4695339 -0.20653975
-0.49027765 -8.0050011 1.1729388
4.9021921 6.3133945 1.3438632
0.94194072 -7.9627581 1.1848564
-0.8570894 -8.0176287 0.8247394
0.31088984 -7.9769392 1.403263
-0.24931729 -7.9934049 1.3193717
4.9349995 6.2969756 1.3006564
-1.3752004 -7.8561063 1.4452082
-5.9558725 -5.493978 -0.20582926
-0.54876268 -8.0014811 1.1724501
0.84475082 -7.9687653 1.2184838
-4.9484777 -6.4159303 -0.21902609
4.9468513 6.3046641 1.2164265
0.30789351 -7.9688807 1.4502133
-3.6860108 -7.2168479 -0.17747951
-1.1007059 -8.00107 0.68761367
-1.6338929 -7.9385338 -0.10928178
-8.0521908 0.87144464 -0.32606471
0.30854297 -7.9578271 1.5105147
-5.9338064 -5.518332 -0.20511949
-8.0096169 1.2019613 -0.32525468
-7.9408779 1.5944709 -0.32365668
-3.1662505 -7.4610858 -0.11020851
-1.3720073 -7.8659043 1.3965638
0.36239612 -7.9730015 1.4164702
1.0685406 -7.9347138 1.2670138
-0.44298375 -7.9694114 1.4145521
1.2961948 -7.9843144 0.52925658
-3.0204487 -7.5216951 -0.10519803
0.19299531 -7.9619355 1.5105116
0.44866443 -7.9627767 1.4506238
4.6283307 6.4515047 1.6334841
-1.3808117 -7.8529768 1.4616059
1.3310885 -7.9963169 -0.012562513
0.62683821 -8.0149298 1.0400567
-0.89003301 -7.993957 1.009154
0.63916707 -7.9641314 1.3703978
-0.42190909 -7.9792829 1.3666093
-1.559932 -7.8373942 1.3626422
-0.89505303 -7.9735894 1.155818
-0.66815352 -7.9731402 1.3030193
-1.2557328 -8.008069 -0.096751094
-1.5449026 -7.8569689 1.2637143
-1.7627357 7.8718777 -0.80230176
-7.8502865 2.0036957 -0.27499425
-0.47782993 -7.9592628 1.462648
-1.6170293 -7.8601365 1.1493654
-1.0718457 -8.0059557 0.68804044
-3.8225765 -7.1465158 -0.18218398
0.95921195 -7.9495335 1.266207
