# .PCD v0.7 - Point Cloud Data file format
VERSION 0.7
FIELDS x y z intensity
SIZE 4 4 4 4
TYPE F F F F
COUNT 1 1 1 1
WIDTH 1437
HEIGHT 1
VIEWPOINT 0 0 0 1 0 0 0
POINTS 1437
DATA ascii
-3.5655823 2.6282356 0.86245304 0
-4.3687315 2.6879416 0.89388293 0
-3.7368431 2.7204754 1.1079775 0
-3.3669872 2.8420517 1.2619783 0
-3.2655702 2.4928298 0.51182866 0
-3.9036613 2.4969132 0.66214788 0
-3.5737214 2.6551454 0.85993046 0
-4.1928706 2.6320126 0.91358238 0
-4.464869 2.7592676 1.1303556 0
-3.2175126 2.4911377 0.52045774 0
-3.8328438 2.4894254 0.67260027 0
-3.7215586 2.7577605 0.83721125 0
-4.1536293 2.6405306 0.91701007 0
-4.3997183 2.7569945 1.1345403 0
-3.8768454 2.8474381 1.2714176 0
-3.1712847 2.4858396 0.52908647 0
-3.6705446 2.7519417 0.84327173 0
-4.0840921 2.6296582 0.92429018 0
-4.3690987 2.7654233 1.1362153 0
-3.6509631 2.7455246 1.1131874 0
-3.2263939 2.8277645 1.2694192 0
-3.8640921 2.8625178 1.2716287 0
-3.6945803 2.4658291 -0.02402246 1
-3.148484 2.4948251 0.53222549 0
-3.629154 2.7532327 0.84781754 0
-4.0602455 2.6424148 0.92600501 0
-4.3339205 2.7740266 1.1381693 0
-3.6622 2.7748506 1.1112378 0
-3.2573466 2.868974 1.2666327 0
-3.793961 2.8492494 1.2751863 0
-3.6370168 2.4608321 -0.0089269876 1
-3.1015115 2.4906738 0.54085433 0
-4.0148535 2.6447628 0.93028897 0
-3.6556239 2.7948313 1.1109149 0
-3.1785879 2.8443329 1.2712824 0
-3.769556 2.8602054 1.2760254 0
-3.5967841 2.4638119 0.00077879429 2
-3.0476055 2.4824862 0.55105245 0
-4.0088034 2.6658082 0.92986339 0
-2.9877734 2.7469749 1.098294 0
-4.2169938 2.7680862 1.1457013 0
-3.2127075 2.8877435 1.2682635 0
-3.7277122 2.8614757 1.2779098 0
-3.5632071 2.470793 0.0083274841 2
-3.0038152 2.4803932 0.55889702 0
-3.9737024 2.6739016 0.93286282 0
-2.9400778 2.7405851 1.1023833 0
-4.2280846 2.7995832 1.1440303 0
-3.1031866 2.8444719 1.2750037 0
-3.6889477 2.8653226 1.2795848 0
-3.5270743 2.4741066 0.016954422 2
-3.8931499 2.6571147 0.94142872 0
-4.1468863 2.7835023 1.1496091 0
-3.4406724 2.7466888 1.1281583 0
-3.1002772 2.8640089 1.2745407 0
-3.6442268 2.8632519 1.2816782 0
-3.4901025 2.4789572 0.025581121 2
-3.8154047 2.6434491 0.9495666 0
-4.136405 2.8042712 1.149611 0
-3.1066954 2.8915083 1.2733794 0
-3.6299057 2.8802314 1.2818896 0
-3.4475026 2.4775336 0.036364555 1
-3.778295 2.6460185 0.95299429 0
-4.0986967 2.8077924 1.151844 0
-3.0127535 2.8529334 1.2791904 0
-3.5860224 2.876827 1.2839816 0
-3.3865182 2.4698021 0.052538157 0
-4.0916901 2.8301828 1.1515671 0
-3.0053976 2.8716853 1.2789599 0
-3.5508821 2.8817446 1.2854476 0
-3.3295245 2.4625525 0.06763351 0
-4.0174975 2.817246 1.1565881 0
-2.9816403 2.8788891 1.2798909 0
-3.5058765 2.8796136 1.2875408 0
-3.286778 2.4611139 0.078416586 0
-2.7972093 2.485204 0.59420037 0
-2.7705879 2.760931 1.114656 0
-3.9510446 2.8065133 1.1610515 0
-3.00876 2.9175806 1.2773368 0
-3.5168095 2.9082551 1.2862878 0
-3.2573619 2.4673097 0.084887147 0
-3.6550279 2.6760342 0.96327877 0
-2.7138615 2.7456181 1.1198598 0
-3.8239694 2.7651832 1.1702549 0
-2.971487 2.9160204 1.2791975 0
-3.471837 2.9057713 1.2883812 0
-3.2279503 2.4733346 0.091357827 0
-3.0239089 2.6599171 0.92054141 0
-3.6595013 2.7014532 0.96156788 0
-2.7006514 2.7582293 1.1202331 0
-2.9409554 2.9186063 1.2805934 0
-3.4648459 2.9252219 1.2881739 0
-3.1574605 2.4585326 0.1107645 0
-2.9660347 2.6483784 0.92761153 0
-3.6176469 2.7037966 0.96542352 0
-2.6703155 2.7605765 1.1224643 0
-3.7187817 2.7588415 1.1769509 0
-2.9366682 2.9393501 1.2801304 0
-3.4263461 2.9272432 1.2898489 0
-3.1286175 2.4632504 0.11723495 0
-2.9399128 2.6531377 0.93013757 0
-2.6741676 2.7832773 1.1209797 0
-3.7199278 2.7818289 1.1761163 0
-4.4182057 2.7909462 1.1704868 0
-2.9233146 2.9519317 1.2803645 0
-3.4266562 2.9497838 1.2892233 0
-3.0857501 2.4613612 0.12801778 0
-3.7592139 2.8264556 1.1722145 0
-4.3215947 2.7706871 1.1766243 0
-2.942626 2.987412 1.2782751 0
-3.4023848 2.9588377 1.2900618 0
-3.0596671 2.7716823 1.1538744 0
-4.2791867 2.7756729 1.1789271 0
-2.9086914 2.9874494 1.2799033 0
-3.3951464 2.9781756 1.2898545 0
-3.0505939 2.485132 0.133412 2
-2.5824175 2.4991832 0.62950349 0
-2.8532782 2.665519 0.93872452 0
-3.6506791 2.8166206 1.1791892 0
-3.0219836 2.7718902 1.1564783 0
-4.2255754 2.7761297 1.1819968 0
-2.9106784 3.0126569 1.2789757 0
-3.3771243 2.9920397 1.2902746 0
-3.0450172 2.5029476 0.13233566 3
-2.816628 2.6642079 0.94276524 0
-2.5415397 2.7795503 1.1313893 0
-2.9814353 2.7689881 1.1594075 0
-4.1653337 2.7717466 1.185578 0
-2.8932786 3.0236261 1.2794423 0
-3.3527737 3.0007789 1.2911133 0
-3.0499225 2.5255382 0.12802517 4
-2.7804961 2.6619241 0.94680613 0
-2.5353174 2.7952869 1.1310195 0
-4.134366 2.7800627 1.1871138 0
-2.8698275 3.0292158 1.2803735 0
-3.3255718 3.0064368 1.2921607 0
-2.9533002 2.4928448 0.15605783 4
-3.0245941 2.5341883 0.78083003 0
-2.754091 2.6664665 0.94933218 0
-2.5121982 2.8003838 1.1325074 0
-2.9216435 2.7743194 1.1633129 0
-4.1099715 2.7927315 1.1881388 0
-2.8785686 3.0582066 1.2789816 0
-3.3079228 3.0191352 1.2925813 0
-2.8568611 2.4595098 0.18409109 5
-2.4500813 2.4952109 0.65225476 0
-2.9774537 2.5287995 0.7875942 0
-2.7410502 2.679292 0.94983929 0
-2.5020523 2.8144722 1.1325096 0
-2.9048343 2.7855971 1.1639656 0
-4.0359116 2.7802942 1.192741 0
-2.8545208 3.0644238 1.2799127 0
-3.3004847 3.0381267 1.292374 0
-2.8446417 2.4729106 0.18517101 6
-2.4245129 2.4986134 0.65617776 0
-2.9580245 2.5386796 0.7894401 0
-2.7079387 2.6793425 0.9533751 0
-3.3312669 2.7515817 0.98984683 0
-2.4691439 2.8124931 1.1351123 0
-3.9724431 2.7727673 1.1965775 0
-2.8503337 3.0843031 1.2794485 0
-2.8156481 2.4767234 0.19164133 6
-2.3890424 2.4955504 0.66245359 0
-2.9282808 2.5425837 0.79313016 0
-2.6748796 2.6791956 0.95691091 1
-3.9411249 2.781106 1.1981134 0
-2.8490596 3.1065018 1.2787532 0
-3.2651937 3.0631726 1.2932143 0
-2.7866929 2.4803662 0.19811177 4
-2.3668592 2.5007429 0.66559237 0
-2.6619203 2.6917124 0.95741749 0
-3.352814 2.8092391 0.98471224 0
-2.8243639 2.7995455 1.1688497 0
-3.9417989 2.8056471 1.1973485 0
-2.8379467 3.1217678 1.2787549 0
-3.2511194 3.0777273 1.2934239 0
-2.7544107 2.4819076 0.20566046 4
-2.331491 2.4972951 0.67186826 0
-2.8312564 2.5280712 0.8072722 0
-2.6355767 2.6955521 0.95994377 0
-3.3289537 2.8182859 0.98642701 0
-2.7674537 2.7843871 1.1734052 0
-3.8395114 2.7770696 1.2039971 0
-2.8267603 3.1369939 1.2787569 0
-3.2367325 3.0922229 1.293635 0
-2.7259197 2.4844561 0.21213102 3
-2.3492107 2.5272081 0.66559595 0
-2.5997438 2.6920238 0.96398449 0
-2.7779574 2.8116925 1.1714555 0
-3.7627392 2.7598102 1.2088562 0
-2.8160601 3.1514251 1.2787586 0
-3.2295227 3.1101983 1.2934278 0
-2.6866536 2.4824603 0.22183561 3
-2.3035984 2.5177367 0.67422456 0
-2.5763297 2.6984308 0.96600574 0
-2.7207351 2.7967992 1.1760108 0
-3.7594028 2.7829075 1.208347 0
-2.8010035 3.164979 1.2789928 0
-3.2111664 3.12323 1.2938479 0
-2.3080754 2.5390847 0.67108911 0
-2.567122 2.7120233 0.96600741 0
-3.0219002 2.7037294 1.0211158 0
-2.3409495 2.8453946 1.1429255 0
-2.6846161 2.7932475 1.1786145 0
-2.8127789 3.1958575 1.2773681 0
-3.2172093 3.1499376 1.292804 0
-2.6526399 2.5012269 0.22722948 8
-2.2858882 2.5437725 0.67422783 0
-2.7339149 2.5514467 0.81834418 0
-2.9507604 2.6828523 1.0288249 0
-2.3659675 2.8849523 1.13884 0
-2.6646495 2.8013072 1.1795919 0
-2.8045626 3.213378 1.2771375 0
-3.2192268 3.1753697 1.2919693 1
-2.6306901 2.5078645 0.23154259 6
-2.2539136 2.5417814 0.67971945 0
-2.3300533 2.8794982 1.1418142 0
-3.1294537 2.8139057 1.2107205 0
-2.6380296 2.8048148 1.1812201 0
-2.8058457 3.2380474 1.2762101 0
-3.2012124 3.1874723 1.2923896 0
-2.5590754 2.4843984 0.25202835 4
-2.2352774 2.548384 0.6820727 0
-2.3420415 2.9096978 1.1392148 0
-3.0886889 2.8114955 1.2132317 0
-2.6246805 2.8171146 1.1815469 0
-3.5897856 2.785018 1.217813 0
-2.8006697 3.2579658 1.2757469 0
-3.1898255 3.2039714 1.2923913 0
-2.5238614 2.4825785 0.26065469 5
-2.2455771 2.5747666 0.67736858 0
-2.8640218 2.6943202 1.0361094 0
-2.3316197 2.9232008 1.1392164 0
-3.0649972 2.8192635 1.2143488 1
-2.5915308 2.8158712 1.1838254 0
-2.792212 3.2754781 1.2755163 0
-3.1915631 3.2294476 1.2915566 0
-2.4788618 2.4744804 0.27251565 6
-2.1975183 2.5612981 0.68678147 0
-2.6197696 2.5630076 0.83248812 0
-2.8780251 2.7242739 1.033114 0
-2.3211393 2.9366693 1.1392181 0
-3.0141401 2.8101256 1.2176964 0
-2.571569 2.8234706 1.1848028 0
-2.7963758 3.3026605 1.2743564 0
-3.1734285 3.2413852 1.2919767 1
-2.4405017 2.4701679 0.28222024 4
-2.1753974 2.5653772 0.68992007 0
-2.6038318 2.5733109 0.83371925 0
-2.3105907 2.950103 1.1392199 0
-2.9904795 2.8175428 1.2188137 0
-2.5712452 2.8445911 1.1838289 0
-2.8098798 3.3372135 1.2724996 0
-3.1749392 3.2668996 1.2911421 1
-2.4152598 2.4737964 0.28761256 4
-2.1564927 2.5715759 0.69227469 0
-2.8283081 2.7359772 1.03697 0
-2.3065796 2.9683669 1.1384771 0
-2.9533353 2.816345 1.221046 0
-2.544704 2.8474872 1.1854569 0
-2.8011203 3.3547933 1.2722689 0
-3.1829104 3.2970405 1.2898891 1
-2.3998425 2.4834502 0.28977048 4
-2.1311994 2.5731702 0.69619763 0
-2.508389 2.5535796 0.84786111 0
-5.013823 4.1385813 0.75736839 0
-2.2959514 2.9817505 1.1384788 0
-2.9434829 2.8319855 1.2210464 0
-2.5017917 2.8387711 1.1887115 0
-3.4001157 2.7952898 1.2280483 0
-2.8110945 3.3870869 1.2706448 0
-3.1841009 3.3226821 1.2890549 1
-2.3851831 2.4916613 0.29192889 5
-2.1323709 2.59146 0.69384688 0
-2.5333617 2.5874743 0.84171611 0
-4.9434128 4.1228294 0.76465011 0
-2.2956333 3.0011344 1.1373662 1
-2.9106667 2.831032 1.2230004 0
-2.4765904 2.8399122 1.1903381 0
-2.8001785 3.4007182 1.2706465 0
-3.1929383 3.3513451 1.2878019 2
-2.3660426 2.4997694 0.29516482 8
-2.1002314 2.5889485 0.69933832 0
-2.4736891 2.5703607 0.85093844 0
-2.3065605 2.7375536 0.99126679 0
-4.8610601 4.1035881 0.77321595 0
-2.2687266 3.0028064 1.1392257 1
-2.9067249 2.8516099 1.2224447 0
-2.4853754 2.8684809 1.1883883 0
-3.3634286 2.8188457 1.2293289 0
-2.837558 3.4561961 1.2669308 1
-3.2063754 3.387219 1.2861307 2
-2.3570404 2.5133657 0.29516649 5
-2.0845459 2.597043 0.70090842 0
-2.4378808 2.5671725 0.85585779 0
-2.2935052 2.7486265 0.99177337 0
-4.8531237 4.1302028 0.77236176 0
-2.2766726 3.0309319 1.1369979 1
-2.8596375 2.8432508 1.2255133 0
-2.4232881 2.8452623 1.193594 0
-3.3049648 2.8078818 1.2329097 0
-2.7817357 3.43661 1.270184 0
-2.3544388 2.5311368 0.29301214 5
-2.078373 2.6119597 0.70012599 0
-2.4220042 2.5767157 0.8570891 0
-2.2836185 2.7619798 0.99177516 0
-2.8326979 2.8476944 1.2269094 0
-2.4098263 2.8567405 1.1939211 0
-3.2603951 2.804635 1.2354679 0
-2.7881212 3.4666708 1.2687918 0
-3.2079444 3.4390223 1.2844615 1
-2.2261362 2.4665506 0.3329035 3
-2.034101 2.5991561 0.70875454 0
-2.4193435 2.5948439 0.85586131 0
-2.2384233 2.7495861 0.99733025 0
-2.2672944 3.067476 1.1355152 1
-2.7924623 2.8432024 1.2294205 0
-2.3866949 2.8610907 1.1952237 0
-3.229691 2.8091903 1.2370034 0
-2.7198224 3.4365749 1.2729757 0
-2.0057881 2.5976768 0.71346158 0
-2.3671563 2.5802929 0.86385411 0
-2.2221632 2.7580414 0.99834162 0
-2.60954 2.7422383 1.056251 0
-2.2501397 3.0757034 1.1362599 2
-2.7656317 2.8472745 1.2308164 0
-2.3700168 2.8700368 1.1958759 0
-3.1921601 2.8094897 1.2390504 0
-2.6765795 3.4262047 1.2753007 0
-2.1922984 2.4820685 0.33829725 0
-1.9901366 2.6053565 0.71503168 0
-2.3480041 2.587323 0.86569995 0
-2.2090697 2.7687786 0.99884808 0
-2.5732152 2.7390416 1.0596781 0
-2.2483752 3.0964608 1.1351469 2
-2.7388151 2.8511972 1.2322122 0
-2.3533132 2.8789048 1.1965281 0
-3.1580985 2.8116152 1.2408416 1
-2.645807 3.4256995 1.2766964 0
-3.2385814 3.5384305 1.2800739 1
-2.1485999 2.4708185 0.35015798 0
-1.9780774 2.6146894 0.71581757 0
-2.3128912 2.5825684 0.87061918 0
-2.1836996 2.7693312 1.001374 0
-2.5407424 2.7371328 1.062677 0
-2.2470548 3.116585 1.1340339 3
-2.729084 2.8653529 1.232214 0
-2.3307059 2.8822522 1.1978307 0
-3.1348248 2.8189123 1.2418659 0
-2.6927042 3.487818 1.2722838 1
-3.2393732 3.5637953 1.2792392 0
-2.1328835 2.4799895 0.3523159 0
-2.2965989 2.5922265 0.87185025 0
-2.1891432 2.7948472 0.99885136 0
-2.2353535 3.1304264 1.1340356 3
-2.6984749 2.8675404 1.2338886 0
-2.3262386 2.9011893 1.1971818 0
-3.110568 2.8277106 1.2428902 0
-2.1303201 2.4971139 0.35016143 0
-1.9869438 2.6610339 0.70876271 6
-2.293807 2.6100366 0.87062269 0
-2.1506181 2.7863019 1.0033969 0
-2.2333183 3.1512313 1.1329226 2
-2.665112 2.8665614 1.2358421 0
-2.2967582 2.9002192 1.1991351 0
-3.0663857 2.8230436 1.2454484 0
-2.0898237 2.4881008 0.36094284 0
-2.2485752 2.5987818 0.87738603 0
-2.1532483 2.8087628 1.001379 0
-2.4745531 2.7556005 1.0673923 0
-2.2250905 3.1669314 1.1325527 3
-2.6449628 2.8744252 1.2366803 0
-3.056252 2.8390884 1.2454503 0
-2.0749617 2.4957299 0.36310053 0
-2.2171841 2.5955811 0.88168931 0
-2.1625581 2.8354619 0.99835157 0
-2.4520569 2.7598338 1.0691066 0
-2.2203913 3.184535 1.1318113 2
-2.6449976 2.8950856 1.2358456 0
-2.276423 2.9262354 1.1991384 0
-3.0025043 2.8268735 1.2487751 0
-2.0533295 2.4995158 0.36741459 0
-2.2013621 2.6041472 0.88292032 0
-2.409507 2.7509992 1.0733902 0
-2.230195 3.2157261 1.1292121 3
-2.628058 2.9050977 1.2364051 1
-2.9855833 2.8384552 1.2492883 0
-2.0344205 2.5060189 0.37065065 0
-2.1721182 2.6042037 0.88661033 0
-2.3863857 2.7562971 1.0751034 0
-2.2211502 3.232106 1.1288422 3
-2.5975406 2.9065757 1.2380798 0
-2.9479082 2.8379388 1.2513351 0
-2.0253997 2.5184665 0.3706522 0
-1.895715 2.6882467 0.71974909 8
-2.1659806 2.6194131 0.8859973 0
-2.1160345 2.862438 1.0008798 0
-2.3764887 2.7699714 1.0751051 0
-2.2249067 3.258235 1.1269848 4
-2.6066685 2.9348214 1.2364086 0
-2.2317486 2.9568155 1.2004445 0
-2.9310002 2.8492818 1.2518482 0
-1.9943811 2.5152426 0.37820065 0
-2.1437006 2.6231406 0.88845778 0
-2.1089005 2.8776178 1.0003765 0
-2.3568473 2.7766747 1.0763913 0
-2.2162828 3.2739465 1.1266149 3
-2.5700746 2.930712 1.2386413 0
-2.2335858 2.9798169 1.1991457 0
-2.8904696 2.8454173 1.254151 0
-1.9695816 2.5163281 0.38359308 0
-1.8455625 2.6877434 0.72759521 22
-2.1373856 2.6382761 0.88784516 0
-2.1046994 2.8952634 0.99936879 0
-2.3338625 2.7809699 1.0781062 0
-2.2104697 3.2922833 1.1258739 3
-2.5565863 2.9426982 1.2389205 1
-2.2135506 2.9855132 1.2001231 0
-2.8668542 2.8521774 1.2551752 0
-1.9386688 2.5127611 0.3911413 0
-2.1246991 2.6487694 0.88846153 0
-2.1067109 2.9178751 0.99735111 0
-2.3109903 2.7851398 1.0798205 0
-2.207653 3.3132591 1.1247609 4
-2.5492706 2.9593081 1.2386434 0
-2.2093358 3.0035703 1.1994729 0
-2.8666596 2.8740745 1.2544103 0
-1.9296343 2.5248799 0.39114296 0
-1.8934183 2.7654305 0.71034491 2
-2.0704584 2.6289608 0.89706886 0
-2.0900822 2.9255972 0.99836236 0
-2.2720752 2.7774763 1.0836756 0
-2.2017698 3.3316095 1.1240194 3
-2.5418968 2.9759071 1.2383664 0
-2.1954834 3.014127 1.1997998 0
-2.816577 2.8631191 1.257478 0
-1.921432 2.5357599 0.39114451 0
-1.896647 2.7860773 0.70720941 1
-2.0459905 2.6285987 0.90014386 0
-2.0621321 2.9219799 1.0013931 0
-2.2694905 2.7941356 1.082821 0
-2.2028942 3.3539739 1.1225349 3
-2.5226243 2.9816253 1.2392044 0
-2.1950259 3.033381 1.1988257 0
-2.8039787 2.8745806 1.2577355 0
-1.9091979 2.545531 0.39222431 0
-2.0460691 2.6481354 0.8983016 0
-2.0670109 2.9470813 0.99887055 0
-2.2466578 2.7979541 1.0845355 0
-2.2056842 3.380353 1.1206789 4
-2.5151377 2.998152 1.2389275 0
-2.1934094 3.0539649 1.1978518 0
-2.7604432 2.8675725 1.2602935 0
-1.8837044 2.5472522 0.39761651 0
-1.9944177 2.6311953 0.90629423 0
-2.0554271 2.9609013 0.99887222 0
-2.2388346 2.8148408 1.0841091 0
-2.1953819 3.397382 1.120309 3
-2.5161517 3.0232313 1.2378139 0
-2.1906424 3.0758784 1.1968777 0
-2.7491601 2.8840561 1.2602953 0
-1.8652827 2.5522518 0.40085232 0
-1.7839993 2.7554896 0.72838914 2
-1.9975971 2.6529956 0.90383714 0
-2.066186 2.9911602 0.99533987 0
-2.2637153 2.8542645 1.0794008 0
-2.1979218 3.4238458 1.1184529 4
-2.4925466 3.0277827 1.2389309 0
-2.1826868 3.0914233 1.1965542 0
-2.7354989 2.8967662 1.2605526 0
-1.8473233 2.5565643 0.40408814 0
-2.0011449 2.6742349 0.90137994 0
-2.0468569 2.9954677 0.99685609 0
-2.2126446 3.4605167 1.1151106 6
-2.4949636 3.0507591 1.2378174 0
-2.1721621 3.1037467 1.1965559 0
-2.7322116 2.9154234 1.2600433 0
-1.83508 2.5660374 0.40516782 0
-1.8097211 2.815897 0.71662855 14
-1.9726804 2.6722186 0.90506965 0
-2.0391841 3.0105195 0.99635285 0
-2.2405496 2.8776708 1.0798323 0
-2.2003107 3.4735904 1.1151123 4
-2.4713597 3.055151 1.2389343 0
-2.1671729 3.1218164 1.195907 0
-2.715198 2.9257913 1.2605562 1
-1.8288982 2.5801415 0.40409136 0
-1.7966149 2.8250356 0.71741444 4
-1.9567935 2.6796534 0.90630078 0
-2.0435305 3.0358148 0.99383032 0
-2.2270627 2.8884275 1.0802623 0
-2.2082627 3.5056646 1.1125132 5
-2.4762385 3.081274 1.2375422 0
-2.149909 3.1295784 1.1965592 0
-2.7112591 2.9451694 1.2600468 2
-1.8043782 2.5801215 0.40948331 0
-1.9471763 2.6918406 0.90630227 0
-2.0205936 3.038002 0.99585122 0
-2.2198629 2.9039872 1.0798357 0
-2.2073588 3.5296462 1.1110286 4
-2.4557438 3.087954 1.2383802 0
-2.1629734 3.1631491 1.1939589 0
-2.7007103 2.9599891 1.2600485 0
-1.7990499 2.5929806 0.40840685 0
-1.9478123 2.7100685 0.90445977 0
-2.0288351 3.0646992 0.99282372 0
-3.7460315 4.1091695 0.87046415 0
-2.2104318 3.5551281 1.1091723 4
-2.458349 3.1103256 1.2372665 0
-2.1557622 3.1774039 1.1936352 0
-2.6878436 2.9710519 1.2603059 0
-1.7869515 2.6022437 0.4094851 0
-1.7730266 2.8637967 0.71585065 8
-1.9318424 2.7173541 0.90569097 0
-2.0118504 3.0719464 0.99383515 0
-3.7188663 4.1177897 0.87217885 0
-2.2092624 3.5791953 1.107688 5
-2.4691954 3.1414847 1.2353169 0
-2.6674094 2.9788723 1.2610745 0
-1.7771288 2.6144202 0.40948689 0
-1.7743486 2.8862193 0.71271402 4
-1.9216069 2.730062 0.90569258 0
-2.0092912 3.0927632 0.99232227 0
-3.7191 4.1493521 0.87004 0
-2.2188349 3.6149945 1.1047174 5
-2.4354744 3.1388557 1.2372701 0
-2.156455 3.2247281 1.1910369 3
-2.6659598 3.0012281 1.2603095 0
-1.7707483 2.6283765 0.40841055 0
-1.936828 2.7617862 0.90077537 0
-2.0131478 3.1182168 0.98979962 0
-2.1815593 2.9580429 1.0794142 0
-2.2231209 3.6447148 1.1024897 5
-2.418005 3.1477482 1.2378294 0
-2.1449344 3.237612 1.1910385 2
-2.6487331 3.0112333 1.2608225 0
-1.7613113 2.6399183 0.4084121 0
-1.7653871 2.9196701 0.70958012 4
-1.9330988 2.7788439 0.8995477 0
-1.9963002 3.1253455 0.99080968 0
-2.1989079 2.9933789 1.0755625 0
-2.2186785 3.6661708 1.1013767 5
-2.4347756 3.183991 1.235322 0
-2.1542635 3.2689447 1.1887635 3
-2.6379445 3.0258386 1.2608242 0
-1.745822 2.6465986 0.41056979 0
-1.7607851 2.9364054 0.70801324 10
-2.0029051 3.153497 0.98778224 0
-2.1884422 3.006413 1.0755627 0
-2.2226579 3.6960135 1.0991491 5
-2.423384 3.19785 1.2353237 0
-2.1366224 3.2765212 1.1894157 6
-2.6367798 3.0474632 1.2600591 0
-1.7452888 2.6653316 0.40733707 0
-1.7531857 2.9505281 0.70723051 5
-1.9253881 2.8129866 0.8970921 3
-1.9886684 3.1631997 0.9882887 0
-2.1776733 3.0194116 1.0755644 0
-2.2352319 3.7343249 1.0958055 5
-2.4119456 3.2116687 1.2353256 0
-2.1516232 3.3132951 1.1864903 2
-2.6258652 3.0620272 1.260061 0
-1.7416799 2.6816599 0.4051826 0
-1.9214168 2.8300714 0.89586443 5
-1.9773521 3.1755023 0.98829043 0
-2.1514616 3.0197902 1.0777071 0
-2.247323 3.7727733 1.0924634 3
-2.4223385 3.2431302 1.2333742 0
-2.1485646 3.3341839 1.1855168 3
-2.6115954 3.074183 1.2603189 0
-1.7230279 2.6857641 0.40841901 0
-1.7522368 2.9919119 0.70174462 7
-1.9111719 2.8421419 0.89586651 5
-2.0040822 3.2224519 0.98172951 0
-2.1436234 3.0351903 1.077281 0
-2.2619133 3.8141725 1.0887501 2
-2.4075689 3.2544096 1.2336552 0
-2.1546068 3.3631361 1.1835659 1
-2.6103559 3.0958154 1.259553 0
-1.7222612 2.7045143 0.40518653 0
-1.7443957 3.006038 0.70096219 22
-1.904001 2.8566988 0.89525378 6
-1.9954674 3.2374878 0.98122668 0
-2.1357956 3.0505741 1.0768548 0
-2.259515 3.8387432 1.0872661 2
-2.4020543 3.2732706 1.2330997 0
-2.1513922 3.3840959 1.1825922 2
-2.6153064 3.1222711 1.2582766 0
-1.7159798 2.7177916 0.40411031 0
-1.7399275 3.022233 0.69939566 6
-1.8851502 2.8605156 0.89709973 4
-1.9669459 3.2330728 0.9842577 0
-2.1406713 3.0754967 1.0747161 0
-2.2856193 3.8910723 1.0820665 3
-2.4001117 3.2940059 1.2322655 0
-2.1516201 3.4071367 1.1812932 2
-2.6142297 3.1432626 1.2575119 0
-1.7027851 2.7272379 0.40519035 0
-1.8774058 2.8756015 0.89648706 3
-1.9693543 3.2594068 0.98173547 0
-2.1321554 3.0915341 1.0742899 0
-2.323947 3.9592061 1.0750095 3
-2.3938565 3.3135717 1.23171 0
-2.1417661 3.4233654 1.1809702 2
-2.5928917 3.1512194 1.2582809 0
-1.7052529 2.7479296 0.40087974 0
-1.7067845 3.034359 0.70253634 35
-1.8766739 2.8945727 0.8946448 3
-1.987304 3.2980993 0.97668892 0
-2.1246991 3.1062479 1.0738635 0
-2.3948157 3.3368874 1.2305967 0
-2.1447504 3.4491391 1.1793458 1
-2.6138926 3.1891589 1.2557268 0
-1.6895239 2.7542543 0.40303767 0
-1.8723149 2.9116175 0.8934173 4
-1.9697373 3.3049638 0.97770059 0
-2.1135824 3.1190302 1.0738655 0
-2.3627758 4.0542283 1.0660965 0
-2.4011059 3.3661497 1.2289261 0
-2.141144 3.4701877 1.1783721 1
-2.5772104 3.1841254 1.2577738 0
-1.685496 2.7705371 0.40088332 0
-1.8678871 2.9286692 0.89218974 4
-1.9809853 3.3390338 0.97366375 0
-2.1114826 3.1395478 1.072583 0
-2.4102759 3.3980994 1.2269764 0
-2.1432314 3.4967425 1.176748 1
-2.5878825 3.2156479 1.2559865 0
-1.6726378 2.7792723 0.40196311 0
-1.6712462 3.0655146 0.70332599 2
-1.8573908 2.9405589 0.89219165 3
-1.9604415 3.3430996 0.97518021 0
-2.1152897 3.165293 1.0704441 0
-2.4041724 3.4171009 1.2264209 0
-2.1422844 3.5206027 1.1754491 1
-2.5858064 3.2374353 1.2552218 0
-1.6718612 2.7975044 0.39873087 0
-1.8533223 2.9570086 0.89096421 4
-1.9633853 3.3684409 0.97265804 0
-2.1105103 3.1826308 1.0695899 0
-2.4076009 3.4432774 1.2250291 0
-2.1389494 3.5410933 1.1744756 1
-2.5810523 3.2560556 1.2547128 0
-1.6615925 2.8092701 0.39873123 0
-1.8451909 2.9720466 0.89035141 4
-1.9650339 3.3950672 0.97013587 0
-2.0985775 3.1960051 1.069592 0
-2.4097071 3.4708982 1.2236372 1
-2.1400228 3.5684354 1.1728516 1
-2.5782213 3.2786064 1.2539481 0
-1.6573025 2.8255377 0.39657688 0
-1.6525244 3.1126871 0.69940889 0
-1.840481 2.9890895 0.88912392 4
-1.9699757 3.4239058 0.96710867 0
-2.1169655 3.2350268 1.0653123 0
-2.4242356 3.5084584 1.2211301 1
-2.1415751 3.5951884 1.1712273 1
-2.578974 3.3029549 1.2529277 0
-1.6591938 2.8463702 0.39226627 0
-1.6587517 3.1397414 0.69470531 0
-1.8364651 3.0055456 0.88789487 5
-1.9781836 3.4549863 0.96357685 0
-2.1059651 3.2471504 1.0653143 0
-2.4242511 3.5322087 1.2200171 1
-2.1492968 3.6269412 1.1689528 1
-2.5801764 3.3266313 1.2519075 0
-1.6469713 3.151459 0.69470721 0
-1.8340107 3.0258243 0.88605279 5
-1.9739748 3.4762359 0.9620626 0
-2.0937877 3.2605076 1.0653162 0
-2.4318275 3.5653729 1.2180676 1
-2.1555717 3.6600757 1.1666784 1
-2.5924923 3.36186 1.2498648 0
-1.6439638 2.8743768 0.39011383 2
-1.6496081 3.1764059 0.69078797 0
-1.8261106 3.0402458 0.88544011 5
-1.96438 3.4912951 0.96155977 0
-2.0971568 3.2865052 1.0631759 0
-2.4279814 3.5872531 1.2172335 1
-2.1509857 3.6814101 1.1657048 0
-2.5897388 3.3838644 1.2491002 0
-1.6427115 2.8926985 0.38688159 2
-1.6443409 3.1925306 0.68922132 0
-1.8245286 3.059376 0.88359803 5
-1.9609331 3.5113344 0.96004736 0
-2.100697 3.3119318 1.0610372 0
-2.4542046 3.6352916 1.2136114 1
-2.1582155 3.7134018 1.1634305 0
-2.5874863 3.4051702 1.2483356 0
-1.640874 2.911603 0.38364935 2
-1.652265 3.2231331 0.68373364 0
-1.8164936 3.0737872 0.88298523 5
-1.9595793 3.5348213 0.95802999 0
-2.0947309 3.3300064 1.060183 0
-2.4621038 3.6680839 1.2116603 2
-2.1757579 3.7574623 1.1598557 0
-2.5813818 3.4246743 1.2478272 1
-1.6360258 2.9279222 0.38149536 1
-1.6406611 3.2342722 0.68373609 0
-1.8083197 3.0881743 0.88237303 4
-1.9635972 3.5639889 0.95500356 0
-2.0915341 3.3507643 1.0589011 0
-2.4753647 3.7063682 1.2091539 2
-2.210021 3.8187227 1.1543285 1
-2.5845909 3.4518313 1.2465506 0
-1.6369417 2.9494789 0.37718451 0
-1.8089678 3.1106086 0.87991565 4
-1.9759583 3.6017442 0.95046145 0
-2.0942481 3.3769593 1.0567616 0
-2.5935431 3.4842174 1.2447643 1
-1.6403545 2.9737098 0.37179673 0
-1.6667074 3.3070683 0.66962379 1
-1.8064016 3.1303918 0.87807423 5
-1.9878908 3.6396341 0.94592071 0
-2.0908017 3.39779 1.05548 0
-2.5334382 3.8133547 1.2010736 2
-2.5965905 3.5115464 1.2434869 0
-1.6381156 2.9927266 0.36856437 0
-1.6576054 3.3210847 0.6688416 1
-1.8038325 3.1501961 0.87623215 5
-1.9749026 3.6519475 0.94592279 0
-2.090246 3.4213624 1.0537694 0
-2.5518067 3.857651 1.1980093 2
-2.6083381 3.5467145 1.2414443 1
-1.6330154 3.0091174 0.36641002 0
-1.6701887 3.3577344 0.6617853 2
-1.8011963 3.1700213 0.87439001 4
-1.9811161 3.6842752 0.94239086 0
-2.0838253 3.4395044 1.052915 0
-2.5728426 3.9048672 1.1946659 1
-2.6168938 3.5794072 1.2396572 1
-1.6278073 3.0255129 0.36425579 0
-1.6500727 3.36042 0.66413993 2
-1.792708 3.1844158 0.87377727 3
-2.0035219 3.7339444 0.93583024 0
-2.083046 3.463136 1.0512044 0
-2.6312757 3.6174302 1.2373592 1
-1.6230863 3.041357 0.36210132 0
-1.6710156 3.4052057 0.65473098 2
-1.796158 3.2091556 0.87070572 3
-1.9908882 3.745698 0.93583208 0
-2.079916 3.483417 1.049922 0
-2.6431031 3.6522446 1.2353165 2
-1.6237959 3.0625536 0.35779119 0
-1.6889704 3.4473095 0.64610666 2
-1.7880682 3.2229707 0.87009317 3
-1.9808909 3.7603028 0.93532944 0
-2.0823712 3.5092447 1.0477835 0
-2.6757107 3.7056026 1.2314851 1
-1.63385 3.0961959 0.34916842 0
-1.6888283 3.4740586 0.64218742 2
-1.7895776 3.2495389 0.86702168 4
-1.9796962 3.7883415 0.93280733 0
-2.0914106 3.5453546 1.0443603 0
-2.7060614 3.7614484 1.2276535 2
-1.6068202 3.090559 0.35563862 0
-1.6957113 3.5049207 0.6366998 2
-1.7926677 3.2744191 0.86395025 3
-1.991136 3.8262315 0.92826587 0
-2.0936017 3.5713239 1.0422215 0
-2.7261362 3.804724 1.2248442 2
-1.6072748 3.1118207 0.35132825 0
-1.6917832 3.5243194 0.63434905 2
-1.7927945 3.2965813 0.86149365 3
-2.0050275 3.8671618 0.92321974 0
-2.1069622 3.6085222 1.0383704 0
-2.7608151 3.8614936 1.2207571 1
-1.6237388 3.1499512 0.34054804 0
-1.689779 3.547194 0.63121408 2
-1.789417 3.3165798 0.85965163 2
-2.0153186 3.9059193 0.91867852 0
-2.1025441 3.6296699 1.0370882 0
-1.6042821 3.1528406 0.34378409 0
-1.6879103 3.5701077 0.62807757 1
-1.7775406 3.3282304 0.85965359 1
-2.028018 3.9477649 0.91363245 0
-2.1092334 3.6621213 1.0340931 0
-1.6174294 3.188422 0.33408368 0
-1.6882912 3.595958 0.62415844 0
-1.7686938 3.3426239 0.85903919 2
-2.1129928 3.6918068 1.0315263 0
-1.6027763 3.1972628 0.33516335 0
-1.6774623 3.6107225 0.62337601 0
-1.7672763 3.3660204 0.85658246 1
-2.0998981 4.0857058 0.89445162 0
-2.0936029 3.6995373 1.0323848 0
-1.6102111 3.2275093 0.32761884 0
-1.6906257 3.6512971 0.6155358 0
-1.7635496 3.3860495 0.85474044 1
-2.1301277 4.1488791 0.88587189 0
-2.1057036 3.7378144 1.0285319 0
-1.6287948 3.2683401 0.31576204 0
-1.6912278 3.6767313 0.61161655 1
-1.768592 3.4140201 0.85105431 1
-2.1096759 3.7670286 1.025965 0
-1.6041983 3.2650146 0.32115483 0
-1.6889974 3.6992631 0.60848242 1
-1.7623869 3.4306927 0.84982765 1
-2.1244268 3.8077581 1.0216866 0
-1.608533 3.2926791 0.31468856 0
-1.6758136 3.7105458 0.60848439 0
-1.7446684 3.4365282 0.8510589 1
-2.1356301 3.8463998 1.0178354 0
-1.6195239 3.3298881 0.30498803 0
-1.6792289 3.7436917 0.60299683 0
-1.7448219 3.4634688 0.84798765 1
-2.1534748 3.8951025 1.0127 0
-1.60764 3.3409324 0.30498981 0
-1.6710048 3.7608986 0.60143024 0
-1.7541902 3.4979293 0.84307235 1
-1.6100655 3.3648739 0.29960155 0
-1.68435 3.8008657 0.59359014 0
-1.7456381 3.5111763 0.84245962 1
-2.2059991 4.0036736 1.0002882 1
-1.6021242 3.382621 0.29744732 0
-1.7372689 3.5295913 0.8412323 1
-2.2581131 4.0908232 0.98958737 0
-1.6031327 3.4077382 0.29205906 0
-1.7264826 3.9086201 0.57163632 1
-1.7381008 3.5555522 0.83816105 1
-1.5909696 3.4187238 0.29206097 0
-1.7401891 3.953182 0.563012 1
-1.7548499 3.5990114 0.83140177 3
-1.5721742 3.4200509 0.29529691 0
-1.7500182 3.9907002 0.55595613 1
-1.7299558 3.5947909 0.83447695 2
-1.6111289 3.488538 0.27373803 0
-1.767486 4.0421753 0.54576349 1
-1.7218174 3.6126504 0.83324969 2
-1.6089823 3.511008 0.26942778 0
-1.7977204 4.108449 0.53164983 2
-1.7168581 3.6328697 0.83140773 2
-1.617009 3.5449917 0.26080513 0
-1.714451 3.6560473 0.82895106 2
-1.6148559 3.5675509 0.25649333 0
-1.7040416 3.6703849 0.82833833 2
-1.6002063 3.5751479 0.25757325 0
-1.7072839 3.6989541 0.82465249 2
-1.586831 3.5866804 0.25757527 0
-1.7015222 3.7197983 0.82280886 2
-1.6068989 3.6354063 0.24356282 0
-1.7193786 3.7669368 0.81543511 1
-1.6071756 3.6604416 0.23817432 0
-1.7195425 3.7927279 0.81236374 0
-1.6009964 3.6807764 0.2349422 0
-1.7233595 3.8257093 0.80806333 0
-1.6153461 3.7240288 0.22308576 0
-1.7302254 3.8612072 0.80314821 0
-1.6232001 3.7574968 0.21446395 0
-1.7738813 3.9379151 0.78962874 2
-1.6320999 3.7951126 0.20476377 0
-1.8081384 4.0070267 0.77795273 0
-1.6302726 3.8215594 0.19937539 0
-1.8007903 4.0284343 0.77611071 0
-1.6345178 3.8528697 0.19183123 0
-1.8325123 4.0943484 0.76504952 0
-1.6403712 3.8877831 0.18320882 0
-1.8857061 4.1885958 0.74845636 0
-1.6331547 3.9084237 0.1799767 0
-1.8700784 4.2011819 0.74845845 0
-1.6556101 3.9644217 0.16380835 0
-1.6711764 4.0110598 0.15087402 0
-1.6713434 4.0403557 0.14440787 0
-5.9224515 2.4582865 0.52331918 0
-5.7545533 2.4597559 0.54280764 0
-5.801332 2.5073111 0.53550977 0
-5.6982279 2.5019937 0.54768866 0
-5.5275278 2.4731469 0.56863201 0
-5.4735479 2.4830897 0.57448059 0
-5.4242067 2.4914849 0.57984173 0
-5.3327999 2.4876375 0.59055936 0
-5.2443624 2.4869537 0.60079044 0
-5.1755991 2.4899197 0.60858631 0
-5.110517 2.4937952 0.61589617 0
-5.0464678 2.4948735 0.62320471 0
-5.029593 2.5170355 0.62418377 0
-4.8608966 2.4808385 0.64512402 0
-4.8519473 2.5039263 0.64512914 0
-5.8341222 2.462702 0.057879806 2
-4.8169603 2.5170572 0.64854246 0
-4.6745543 2.488471 0.66607589 0
-5.7604675 2.4970579 0.068643451 4
-4.6138129 2.4906921 0.6728974 0
-5.755197 2.5245409 0.067932129 3
-4.6048293 2.5129242 0.67290217 0
-5.6193967 2.507735 0.09231317 4
-4.5293941 2.5086637 0.68167108 0
-5.5024261 2.496403 0.11310947 2
-4.428709 2.4924502 0.69384801 0
-5.3934841 2.4856234 0.13247144 1
-4.3494062 2.486696 0.70310378 0
-5.2615547 2.4687808 0.15613544 2
-4.3184233 2.4989576 0.70602959 0
-5.2267075 2.4840574 0.16115904 2
-4.236927 2.4876409 0.71577168 0
-5.1000776 2.46347 0.18410516 0
-4.194994 2.4947658 0.72015828 0
-4.7131701 2.3480742 0.95075101 0
-5.0393953 2.4686182 0.19414723 0
-4.7503767 2.7531638 1.1012697 0
-4.1891232 2.5181272 0.71967679 0
-4.9375973 2.4596446 0.21207595 0
-4.7111969 2.763339 1.1031295 0
-4.1326838 2.5186129 0.72600996 0
-4.8808584 2.4652228 0.22140002 0
-4.6828566 2.7779746 1.1042948 0
-4.0433311 2.5045478 0.73672634 0
-4.835053 2.4745176 0.22857475 0
-3.9905982 2.5057819 0.74257338 0
-4.7709041 2.4766195 0.23933327 0
-3.96383 2.5168622 0.7450121 0
-4.663168 2.4603047 0.25869441 0
-4.6200433 2.8307438 1.1063951 0
-3.9001374 2.5136831 0.75231797 0
-4.6282177 2.4739008 0.26371741 0
-4.5113816 2.8089769 1.1126628 0
-3.7714267 2.4798944 0.7683894 0
-4.7594905 2.5486639 0.94136411 0
-4.5644484 2.4747078 0.27447498 0
-4.4867411 2.8242855 1.113595 0
-3.8022938 2.5171821 0.76303798 0
-4.4603653 2.4592028 0.29311883 0
-4.4548025 2.8361468 1.1149912 0
-3.7679477 2.5250587 0.76645017 0
-4.3930211 2.4575839 0.30459356 0
-4.3072333 2.7933593 1.1238092 0
-3.7376428 2.5334301 0.76937538 0
-4.950377 2.7034943 0.92221171 0
-4.3626742 2.4691653 0.30889952 0
-4.1668043 2.75402 1.1321632 0
-3.6601086 2.520843 0.77862978 0
-4.7596831 2.6533587 0.93813479 0
-4.266294 2.4549463 0.32610941 0
-4.1748924 2.7831743 1.1310084 0
-4.849617 2.7169929 0.92936903 0
-4.2209439 2.4610264 0.33328354 0
-4.1003962 2.7721548 1.1351873 0
-4.6893244 2.6763361 0.94269276 0
-4.1470799 2.4537244 0.34619164 0
-4.0654602 2.7805784 1.1368134 0
-4.1019135 2.4591405 0.35336494 0
-4.0117588 2.7811937 1.139601 0
-4.577652 2.6836941 0.9508239 0
-4.0200934 2.4500158 0.36770713 0
-4.5166626 2.6839013 0.95537639 0
-3.9786882 2.4562771 0.37416315 0
-3.8702397 2.7607512 1.1474946 0
-4.3759265 2.6479225 0.96707374 0
-3.2659943 2.4688416 0.011585116 0
-3.9232838 2.4550543 0.38348687 0
-3.8168719 2.7601607 1.1502819 0
-4.3915186 2.6815515 0.96480453 0
-3.2257545 2.4718394 0.020899296 0
-3.8634872 2.4538877 0.39352751 0
-3.8891521 2.8206022 1.1449518 0
-3.7936568 2.4465904 0.40571678 0
-3.8469119 2.8241799 1.1470431 0
-3.1250515 2.464916 0.045738578 3
-3.7380733 2.4452257 0.41504025 0
-3.82658 2.8373597 1.1477426 0
-4.0644283 2.6112733 0.99145472 0
-3.0442514 2.444386 0.067469835 3
-3.7368679 2.4666798 0.41361058 0
-3.7203953 2.8077779 1.1540084 0
-4.4236431 2.795923 1.2362585 0
-4.1204252 2.6611531 0.98561198 0
-3.021683 2.4541187 0.071612 3
-3.6741855 2.4615598 0.42436767 0
-3.7103214 2.8269124 1.1540122 0
-4.355413 2.7910016 1.2388581 0
-4.074585 2.6651464 0.98886448 0
-3.6115942 2.7999423 1.1598139 0
-4.305428 2.7939904 1.2406468 0
-4.0360126 2.6721873 0.99146754 0
-2.9936538 2.4821293 0.074723125 21
-3.6899519 2.8650813 1.15402 0
-4.2808962 2.8084416 1.2412999 0
-3.9540896 2.6588459 0.99796838 0
-2.9847212 2.4987316 0.074726582 11
-4.2128921 2.8024187 1.2438995 0
-3.8687134 2.6432738 1.0047939 0
-2.9927912 2.5243492 0.069556713 3
-4.1594782 2.8027439 1.2458501 0
-2.9803147 2.539084 0.070594907 4
-3.4337735 2.8009398 1.1688735 0
-4.1024256 2.8010581 1.2479633 0
-4.0568461 2.803189 1.2495892 0
-3.7685428 2.6665492 1.0113028 0
-2.8265338 2.4975791 0.11198771 5
-3.3628993 2.4732347 0.47457528 0
-4.0113049 2.8050513 1.2512152 0
-2.9276092 2.5709662 0.8556205 0
-3.7881124 2.6988215 1.0087082 0
-2.7840841 2.4942489 0.12233746 3
-3.3119419 2.4696059 0.48318112 0
-3.943289 2.7981029 1.2538146 0
-3.781503 2.7209246 1.0083876 0
-2.7509749 2.4978437 0.12958336 5
-3.2813947 2.4778173 0.48748612 0
-3.3176286 2.828815 1.1739882 0
-3.8873966 2.7940295 1.2559254 0
-3.6041887 2.6563275 1.023658 0
-2.7424057 2.5128183 0.1295867 3
-3.2512333 2.8161976 1.1777022 0
-3.8339298 2.7933567 1.2578759 0
-2.8336685 2.5839102 0.86487895 0
-3.6619687 2.7098007 1.0174903 0
-2.7160807 2.5198798 0.134763 3
-3.8631868 2.8326375 1.2560958 0
-2.8001904 2.5862787 0.86829001 0
-3.5848126 2.6947052 1.0236642 0
-2.589314 2.4689112 0.17097843 1
-3.749145 2.800842 1.260803 0
-2.7455969 2.5774393 0.87462187 0
-2.5433316 2.4637997 0.18236125 3
-3.1578927 2.8336747 1.1818867 0
-3.7141671 2.8073473 1.2619423 0
-2.7328706 2.5912049 0.87511194 0
-2.4942575 2.4557128 0.19477999 3
-3.0538082 2.4731493 0.52477866 0
-3.1131783 2.8308413 1.1842089 0
-3.7076459 2.8283048 1.2617838 0
-2.737298 2.6148701 0.87316787 0
-2.4820786 2.4686432 0.19581759 3
-3.0099459 2.4719064 0.53195041 0
-3.0867629 2.8361096 1.1853714 0
-3.5991912 2.793879 1.2663283 0
-2.6808085 2.6009934 0.87998611 0
-2.4640417 2.4761436 0.19892442 3
-2.9565291 2.4632876 0.54127252 0
-3.0524254 2.8389697 1.186998 0
-3.592627 2.8145776 1.26617 0
-2.6440101 2.6005089 0.88388389 0
-2.4550457 2.4910262 0.19892752 5
-2.923183 2.4671035 0.54629385 0
-3.0073926 2.8362539 1.1893203 0
-3.5608299 2.8229995 1.2671469 0
-2.6273715 2.612617 0.88486069 0
-2.4290292 2.4966292 0.20410395 3
-2.8860419 2.4695485 0.55203205 0
-3.0006399 2.8549669 1.1890917 0
-3.5048513 2.817136 1.2692589 0
-2.6213808 2.6299934 0.88437694 0
-2.3669963 2.4795187 0.22066081 1
-2.8493767 2.4709539 0.55777001 0
-2.9571867 2.8493454 1.1914135 0
-3.4781227 2.8242357 1.2700732 0
-2.5822411 2.6253393 0.88876122 0
-2.329155 2.4745505 0.22997522 0
-2.8170853 2.4723995 0.56279099 0
-2.9084187 2.8446772 1.1939676 0
-3.4423995 2.8310301 1.2712122 0
-2.5311661 2.6172905 0.89460599 0
-2.2995677 2.4782298 0.23618603 0
-2.7658153 2.4674547 0.57139641 0
-2.9083228 2.8672531 1.1932756 0
-3.3900561 2.8261964 1.2731624 0
-2.5284204 2.6364443 0.89363587 0
-2.2806563 2.4863687 0.23929334 0
-2.7154059 2.4605896 0.58000207 0
-3.365911 2.8364758 1.2738147 0
-2.4547548 2.611809 0.90288818 0
-2.2684169 2.4984682 0.24033082 0
-2.6962066 2.4705288 0.58215582 0
-2.8303027 2.864006 1.1972225 0
-3.3173182 2.8330235 1.2756019 0
-2.4622276 2.6370356 0.90045702 0
-2.2331913 2.4962177 0.2486105 0
-2.6701272 2.476537 0.58574307 0
-2.8041179 2.8678575 1.1983846 0
-3.2630727 2.8236022 1.2777119 0
-2.4132879 2.6250315 0.90630144 0
-2.2152469 2.5026343 0.25171709 0
-2.6380389 2.477005 0.59076381 0
-2.7826831 2.8790126 1.1990836 0
-3.2206213 2.8252134 1.279175 0
-2.3897626 2.6325977 0.90825039 0
-3.0371199 2.7234907 1.0617167 0
-2.192307 2.5096679 0.25585842 0
-2.7656288 2.8906088 1.1995503 0
-3.2313237 2.8545012 1.2782054 0
-2.3937039 2.6556423 0.90630597 0
-2.1669815 2.5131099 0.26103413 0
-2.7115633 2.8784077 1.2025676 0
-3.176029 2.8460662 1.2803168 0
-2.3474038 2.6465824 0.91166353 0
-2.1484408 2.5205817 0.26413953 0
-2.524976 2.4755208 0.60869354 0
-2.6921909 2.8859866 1.2032659 0
-3.139148 2.8455849 1.2816172 0
-2.3488295 2.6659808 0.91020572 0
-2.1110585 2.5140069 0.27345359 0
-2.4726663 2.4633591 0.61801505 0
-2.6512141 2.8827255 1.2053559 0
-3.0766602 2.8333485 1.284053 0
-2.3254747 2.6724024 0.91215587 0
-2.1015697 2.5282269 0.27345645 0
-2.4738111 2.4848597 0.61586648 0
-2.6208401 2.8850145 1.2067499 0
-3.0389323 2.8340497 1.2853534 0
-2.2826791 2.6649098 0.91702652 0
-2.0730941 2.5290122 0.27966666 0
-2.6409841 2.9193845 1.2046659 0
-3.0601988 2.8683386 1.2838972 0
-2.2437634 2.6586399 0.92141032 0
-2.0612144 2.539623 0.28070402 0
-2.6000912 2.9156272 1.2067556 0
-3.0048068 2.8593793 1.2860085 0
-2.2172229 2.6623414 0.92384702 0
-2.0484154 2.5515206 0.28174126 0
-2.3894079 2.4948428 0.62806106 0
-2.5692439 2.9182863 1.2081497 0
-2.9803643 2.8686228 1.2866602 0
-2.2071998 2.6769533 0.92384976 0
-2.0259738 2.5568924 0.28588223 0
-2.3597836 2.4978848 0.63236481 0
-2.5631008 2.9341569 1.2079206 0
-2.9334869 2.8607335 1.2884469 0
-2.1919315 2.6850026 0.92482591 0
-2.0080607 2.5623243 0.28898871 0
-2.3449287 2.5067737 0.63380122 0
-2.5355771 2.9387975 1.2090826 0
-2.9329565 2.8842337 1.2879636 0
-2.1752627 2.6950531 0.92580211 0
-2.7232416 2.7576866 1.0822082 0
-1.9888291 2.5696414 0.29209507 0
-2.3086331 2.5054059 0.63953859 0
-2.5283442 2.9560864 1.2088535 0
-2.8988104 2.8859606 1.2891017 0
-2.172137 2.7133214 0.92483115 0
-2.6929946 2.7608061 1.0841599 0
-2.3063197 2.5237825 0.63810772 0
-2.5209203 2.9733655 1.208625 0
-2.867979 2.8895996 1.2900783 0
-2.1557484 2.7225688 0.92580789 0
-2.6389604 2.7490096 1.0883855 0
-2.2837586 2.5296972 0.6409784 0
-2.4780269 2.964777 1.2109461 0
-2.8920012 2.9262006 1.2884598 0
-2.1562297 2.7424016 0.92435014 0
-1.9518185 2.6016359 0.2952069 139
-2.2551055 2.5306001 0.64528179 0
-2.8539524 2.9262195 1.28976 0
-2.2422194 2.5432558 0.64600152 0
-2.8333874 2.9358609 1.2902493 0
-2.1360407 2.7704105 0.92435533 1
-2.2297993 2.5550742 0.64672107 0
-2.390471 2.9704561 1.2148945 0
-2.8127775 2.9454632 1.2907387 0
-2.1002421 2.7656167 0.92825204 3
-1.9043382 2.6276476 0.30142188 0
-2.1875029 2.5477808 0.65389168 0
-2.4577017 3.0408611 1.2093327 0
-2.8024778 2.9614625 1.2907404 0
-2.1032052 2.7883959 0.92630744 2
-1.8948845 2.640481 0.30142438 2
-2.1717181 2.5573273 0.65532798 0
-2.4511032 3.0564892 1.2091033 0
-2.7962399 2.9780157 1.2905811 0
-2.0879989 2.7959192 0.92728215 1
-2.5064607 2.791415 1.0955476 0
-1.8957131 2.6587989 0.29832292 2
-2.1766024 2.5783148 0.6524635 0
-2.4267082 3.0625651 1.2100335 0
-2.8050957 3.0079114 1.2896113 0
-2.0806849 2.8124051 0.92679805 1
-1.8732041 2.6631398 0.30246389 2
-2.1438513 2.5776682 0.6574837 0
-2.4280839 3.0874045 1.2091088 0
-2.7937903 3.0246892 1.2896142 0
-2.0668998 2.8241792 0.92728722 1
-1.8603145 2.6742139 0.30349958 1
-2.1439819 2.598542 0.65533596 0
-2.4438219 3.1195793 1.2072564 0
-2.7806978 3.0368214 1.2897791 0
-1.86719 2.6971152 0.29832888 1
-2.080142 2.5737422 0.66752255 0
-2.4166269 3.1223805 1.2084183 0
-2.7731285 3.0549417 1.2896199 0
-2.0571404 2.8567269 0.92583168 0
-1.8574942 2.7098222 0.29833126 1
-2.0872092 2.5981636 0.66394132 0
-2.4081101 3.1401308 1.208189 0
-2.7285509 3.0492191 1.291244 0
-2.0622845 2.8826771 0.92340028 0
-2.3994746 2.8285162 1.1010809 0
-1.8442072 2.7208107 0.29936826 1
-2.0513506 2.5946662 0.66967821 0
-2.4064445 3.1619442 1.2074959 0
-2.7473693 3.0851839 1.2897875 0
-2.0804706 2.9176059 0.91902179 0
-1.840614 2.7380996 0.29730141 1
-2.0452819 2.6102362 0.66896397 0
-2.4115686 3.187891 1.2063391 0
-2.7236686 3.0911336 1.2904389 0
-1.8343276 2.7524283 0.29626906 0
-2.0266132 2.6162198 0.67111677 0
-2.3964474 3.2007999 1.2065735 0
-2.7449439 3.130347 1.2888204 0
-2.0658095 2.9493084 0.91805303 0
-1.823977 2.7656524 0.29627132 0
-2.0135248 2.6279099 0.67183608 0
-2.3824072 3.2121904 1.2068077 0
-2.7408562 3.1499 1.2884988 0
-1.8114868 2.7752235 0.29730821 0
-1.9948634 2.6337199 0.67398882 0
-2.3772368 3.2315981 1.2063464 0
-2.7459531 3.1771369 1.2876909 0
-1.8289876 2.809092 0.28799915 0
-2.7312999 3.1906099 1.2878557 0
-1.8188893 2.8216732 0.28800142 0
-1.9951488 2.6736462 0.66969305 10
-2.3132911 3.2284098 1.2093652 6
-2.7231503 3.2086585 1.2876965 0
-2.0300221 3.0069623 0.91708881 0
-2.3376393 2.935977 1.100125 0
-1.8360764 2.8557618 0.2786926 0
-1.9727355 2.677671 0.67256278 6
-2.308465 3.246933 1.2089043 5
-2.7283711 3.2352214 1.286889 0
-2.032114 3.0294583 0.91514438 0
-1.8201834 2.862932 0.28076434 0
-1.9634823 2.6901031 0.67256558 4
-2.3026385 3.2668855 1.2084426 6
-2.7260647 3.2587481 1.2864047 0
-2.0518508 3.0682147 0.91027856 0
-3.8963804 4.1069613 0.94132733 0
-1.8215957 2.8857687 0.27662778 0
-1.9566495 2.7061141 0.67185062 4
-2.7239928 3.2815185 1.2859216 0
-2.0252967 3.0691204 0.9127152 0
-3.8655338 4.1150179 0.94295466 0
-1.8141459 2.9007518 0.2755959 0
-1.9436375 2.7168272 0.67257041 2
-2.2979856 3.3104062 1.2070556 6
-2.7154825 3.2995899 1.2857621 0
-2.0420547 3.1049066 0.90833664 0
-3.8733842 4.1512146 0.94068444 0
-1.8187456 2.9254639 0.27042508 0
-1.9402249 2.7344716 0.67113912 2
-2.2991073 3.334017 1.2061305 5
-2.717386 3.3239768 1.2851149 0
-2.0407109 3.1251047 0.90687853 0
-1.811767 2.9398315 0.26939261 0
-1.9277228 2.7444587 0.67185831 2
-2.3112803 3.3692486 1.2042782 3
-2.7337804 3.361918 1.2836586 0
-2.0323062 3.1416152 0.90639287 0
-1.8007183 2.9529831 0.26939476 0
-1.9237006 2.7627387 0.67042708 2
-2.2961707 3.3809674 1.2045122 3
-2.7409568 3.3920412 1.2826884 0
-2.0149543 3.1498406 0.90736854 0
-2.2949786 3.0596337 1.0968941 0
-1.8109564 2.9827397 0.26215494 0
-1.9169329 2.778019 0.66971254 1
-2.309216 3.414938 1.2026597 2
-2.7294321 3.4070237 1.2826909 0
-2.0164289 3.1725929 0.90542358 0
-2.2750139 3.0659306 1.0978707 0
-1.8158823 3.0070205 0.25698292 0
-1.9074579 2.7902713 0.66971487 1
-2.2970529 3.4291708 1.2026621 2
-2.7459321 3.4444864 1.2812345 0
-1.9990383 3.1806927 0.90639931 0
-2.2608995 3.0776255 1.0981979 0
-1.7933236 3.0095789 0.26112342 0
-1.9131308 2.8150153 0.66613322 1
-2.300051 3.4562871 1.2015051 1
-2.7431509 3.467562 1.2807506 0
-2.0058446 3.209264 0.90348095 0
-2.2878582 3.1208169 1.0943034 0
-1.7766509 3.0170469 0.26319468 0
-1.9001691 2.8255012 0.66685116 1
-2.2998791 3.4808786 1.2005799 1
-2.7529321 3.500427 1.2796183 0
-1.9913574 3.2198949 0.90396971 0
-2.2766995 3.1350083 1.0943056 0
-1.7952534 3.0545313 0.25285101 0
-1.8900436 2.8383408 0.66685331 1
-2.3026063 3.5081112 1.1994231 0
-2.7625301 3.5334027 1.2784861 0
-1.9888828 3.240809 0.9025116 0
-2.2812207 3.1613936 1.0926844 0
-1.8048363 3.0846281 0.24561095 0
-1.8922901 2.8608084 0.66398853 0
-2.2943368 3.5235398 1.1991932 1
-2.7763443 3.5673602 1.2771915 0
-1.9904486 3.2630262 0.90056652 0
-2.2710185 3.1741469 1.0926865 0
-1.7919558 3.0933573 0.24664748 0
-1.8861331 2.8747666 0.66327381 0
-2.2998505 3.5534778 1.1978045 1
-2.7918825 3.6055129 1.275735 0
-1.9698101 3.2683625 0.9020288 0
-2.2628055 3.1907499 1.0923641 0
-1.7925519 3.1159699 0.24251115 0
-1.8696555 2.8826871 0.66470951 0
-2.2949266 3.5770273 1.1971111 0
-2.8184409 3.6553571 1.2736303 0
-1.9898096 3.3115463 0.89667678 0
-2.2627521 3.2161815 1.0910676 0
-1.8064417 3.1526148 0.23320222 0
-1.8675441 2.904038 0.66256154 0
-2.3031213 3.6097434 1.1954905 0
-1.9779761 3.3247006 0.89667875 0
-2.2574775 3.2352703 1.0904204 0
-1.7806883 3.1523356 0.23837698 0
-1.8448458 2.9069314 0.66543067 0
-2.3260732 3.6558244 1.1927106 0
-2.8825955 3.7600935 1.268934 1
-1.9720426 3.3430901 0.89570719 0
-2.2583385 3.2593639 1.0891236 0
-1.792516 3.1853101 0.23010242 0
-1.8466921 2.9294608 0.66256577 0
-2.3398151 3.6941206 1.1906264 0
-2.8816094 3.7864308 1.268288 0
-1.9808029 3.3747239 0.89230204 0
-2.2466869 3.2734554 1.0891259 0
-1.8012685 3.2158277 0.22286248 0
-1.8392507 2.9445982 0.66185117 0
-2.3427722 3.7204261 1.1894692 0
-1.9817271 3.3971722 0.89035684 0
-2.2484834 3.2961943 1.087829 0
-1.7822888 3.2193155 0.225968 0
-1.8327777 2.9584606 0.66113639 0
-2.3708038 3.7723787 1.1862264 1
-1.9724234 3.4129713 0.88987255 0
-2.2458272 3.3178542 1.0868576 0
-1.7878293 3.2473369 0.21976292 0
-1.8463746 2.9910791 0.65540493 2
-2.4304049 3.854934 1.1804328 0
-1.9830906 3.4481549 0.88598061 0
-2.2426102 3.3402388 1.0858855 0
-1.8041725 3.2864935 0.20941925 0
-1.8351493 3.0043695 0.65540701 2
-2.4146693 3.8661859 1.1806656 0
-1.9713962 3.4606326 0.88598245 0
-2.24964 3.3689022 1.0839393 0
-1.8043838 3.3088496 0.20528293 0
-1.8279483 3.0188818 0.65469223 0
-2.4243422 3.9025373 1.178813 0
-1.9619545 3.476428 0.88549751 0
-2.2406573 3.3855355 1.0836167 0
-1.8010603 3.3292463 0.20218098 0
-1.8081018 3.0238819 0.6568445 0
-1.984634 3.5219975 0.87965745 0
-2.2437625 3.4124482 1.0819952 0
-1.7806766 3.3338346 0.20528674 0
-1.8182781 3.0542102 0.65182942 0
-1.9784486 3.5399225 0.87868595 0
-2.2445707 3.4361334 1.0806973 0
-1.7778065 3.3535869 0.2021848 0
-1.8108842 3.0687015 0.65111452 0
-1.980247 3.566689 0.87625402 0
-2.2595437 3.4735489 1.0777769 0
-1.8137848 3.4111707 0.18459785 0
-1.8178159 3.0966218 0.64681602 0
-1.9576567 3.5729058 0.87771612 0
-2.2398968 3.4838443 1.0784285 0
-1.8227762 3.4463077 0.17632341 0
-1.8326949 3.1336088 0.64036614 0
-1.9633614 3.601146 0.8747974 0
-2.2587681 3.5226479 1.075183 0
-1.797757 3.4442494 0.18149769 0
-1.8196248 3.1423805 0.64108473 0
-2.2611897 3.5498877 1.0735615 0
-1.793797 3.4647999 0.17839599 0
-1.8350153 3.1783016 0.63463593 0
-1.9490117 3.6383183 0.87285399 1
-2.2515121 3.5666382 1.0732388 0
-1.7980407 3.4934542 0.17219019 0
-1.8413476 3.2065563 0.63033736 0
-1.9502059 3.665236 0.87042212 1
-2.2596369 3.599256 1.0709678 0
-1.7938408 3.5140657 0.16908824 0
-1.8298718 3.2192059 0.63033932 0
-1.9625837 3.7033598 0.86604321 1
-2.2586927 3.6239984 1.0696709 0
-1.7923123 3.5374055 0.1649518 0
-1.824237 3.2370653 0.62890762 0
-1.9677714 3.7373636 0.86263776 1
-2.2622385 3.6555667 1.0677245 0
-1.7784296 3.551162 0.16495359 0
-1.9754064 3.7688048 0.85923225 2
-2.3006699 3.7138257 1.0622061 0
-1.973155 3.7931941 0.85728699 2
-2.2991927 3.7388377 1.0609092 0
-1.7951028 3.6158912 0.1494385 1
-1.8125901 3.2959993 0.62317926 203
-1.9819444 3.828928 0.85339475 2
-2.2829428 3.7503862 1.0612358 0
-1.8039094 3.6504052 0.14116359 1
-1.8124021 3.319216 0.620314 203
-1.9959803 3.8704479 0.84852934 3
-2.3045688 3.7971044 1.0573415 0
-1.8070116 3.6795018 0.13495827 2
-1.8148768 3.3451512 0.61673248 203
-1.9987893 3.9007225 0.84561062 3
-2.288116 3.8086526 1.0576681 0
-1.820174 3.3738291 0.61243379 203
-2.0234981 3.9539208 0.83879787 3
-2.3152156 3.8610919 1.0531238 0
-1.8075522 3.7323322 0.12461591 2
-1.8081268 3.386409 0.61243552 203
-2.0368938 3.9958744 0.83393222 3
-2.3130453 3.8863618 1.051827 0
-1.8076162 3.7588196 0.11944473 2
-1.7988923 3.4016547 0.61172068 154
-2.0386505 4.0271325 0.83101243 0
-2.3389273 3.9398959 1.0472827 0
-1.80955 3.7887847 0.11323893 2
-1.783314 3.4120712 0.6124391 117
-2.0523052 4.068665 0.82614654 0
-2.3776188 4.0032606 1.0414383 0
-1.8073189 3.8119385 0.10910225 2
-1.7972629 3.4484389 0.60599017 118
-2.0731366 4.1196933 0.81982058 0
-2.4206877 4.0732069 1.034946 0
-1.8177884 3.849839 0.099791884 1
-1.8019255 3.4773595 0.60169137 142
-2.0740004 4.1512585 0.81690168 0
-1.8297347 3.8913193 0.089447737 1
-1.7976228 3.4987402 0.59954178 203
-2.0876269 4.1925497 0.81203586 0
-1.8539407 3.9424186 0.074965596 0
-1.803189 3.526566 0.59524298 203
-1.8634455 3.9807281 0.065655947 2
-1.80182 3.5501511 0.59237754 142
-1.8727052 4.0191531 0.056346297 1
-1.8973249 4.0748768 0.040829539 0
-1.9138384 4.1222024 0.028416395 0
-1.8337555 3.684093 0.57088172 0
-1.834372 3.7107952 0.56729954 0
-1.8430809 3.7460198 0.56156713 0
-1.8570632 3.7870142 0.55440122 0
-1.8353227 3.7912102 0.55655336 0
