# .PCD v0.7 - Point Cloud Data file format
VERSION 0.7
FIELDS x y z intensity
SIZE 4 4 4 4
TYPE F F F F
COUNT 1 1 1 1
WIDTH 1223
HEIGHT 1
VIEWPOINT 0 0 0 1 0 0 0
POINTS 1223
DATA ascii
-4.7452455 -4.147368 0.10030377 0
-4.6915541 -4.0790467 0.11677825 0
-4.665514 -4.0327344 0.12619269 0
-4.7022662 -4.0264163 0.1207031 0
-4.9841838 -4.2084074 0.61247575 0
-5.7884159 -4.2422247 0.80785614 0
-4.6575241 -3.965384 0.13482428 0
-4.906127 -4.1243005 0.62661809 0
-5.81743 -4.2236862 0.80637074 0
-4.6413851 -3.9249165 0.14188564 0
-4.9535637 -4.1235881 0.62156928 0
-5.8146048 -4.1883473 0.80823117 0
-4.601244 -3.8708692 0.15443802 0
-4.9335098 -4.080956 0.62662125 0
-5.8212738 -4.160285 0.80897629 0
-4.6153955 -3.8486736 0.15443861 0
-4.8476677 -3.993758 0.64177346 0
-5.8812547 -4.1591721 0.80414534 0
-4.8109484 -3.9400413 0.64935052 0
-5.8434162 -4.1042519 0.80972302 0
-4.5351887 -3.7397091 0.17954302 0
-4.8112063 -3.9097593 0.65137112 0
-5.7531157 -4.0205169 0.82087648 0
-4.6006126 -3.7529385 0.16699362 0
-4.837358 -3.8973455 0.64935249 0
-5.7664108 -3.9966156 0.82087702 0
-4.5666738 -3.7030041 0.17797709 0
-4.8337831 -3.8649793 0.65187907 0
-5.605556 -3.8754973 0.83946502 0
-6.186348 -4.1890373 1.0836293 0
-4.5659189 -3.6738019 0.18111622 0
-5.6187849 -3.8508477 0.83946663 0
-6.1935625 -4.1585388 1.0840964 0
-4.5783577 -3.652781 0.18111813 0
-5.6984043 -3.8621309 0.83240592 0
-6.2323613 -4.1451092 1.0824705 0
-4.5800862 -3.6267037 0.18347287 0
-4.900825 -4.2541823 0.40157402 0
-4.8689747 -3.7980301 0.65238905 0
-5.7109041 -3.8384049 0.83240753 0
-6.2493391 -4.1214952 1.0822397 0
-4.5756235 -3.5955815 0.18739653 0
-4.7574167 -4.1269288 0.43108928 0
-4.783124 -3.7169986 0.66703635 0
-5.6571994 -3.7778602 0.839472 0
-6.2495742 -4.0871062 1.0831704 0
-4.7814355 -4.1117663 0.42924607 0
-4.8163037 -3.7073421 0.66400772 0
-5.6700983 -3.7530267 0.83947361 0
-6.2776818 -4.0676451 1.082242 0
-4.5561132 -3.5275955 0.19759691 0
-4.7326751 -4.0488396 0.44093001 0
-4.7981548 -3.6673634 0.66855448 0
-5.5064273 -3.6358869 0.85806161 0
-6.9960122 -4.4084058 1.0359751 0
-4.5619683 -3.501606 0.19916737 0
-4.7207036 -4.0089197 0.44585049 0
-4.8181572 -3.6484272 0.66754597 0
-5.6962605 -3.7019763 0.839477 0
-6.1182361 -4.399435 0.87613136 0
-6.1784019 -3.9461765 1.0906157 0
-4.5297513 -3.4550815 0.20936644 0
-4.7543344 -4.0002031 0.44216287 0
-4.8237276 -3.6225524 0.66855758 0
-5.5317559 -3.5860085 0.85806495 0
-6.0124183 -4.3032722 0.88752246 0
-6.1030502 -3.8739543 1.0964301 0
-6.6187139 -4.1325645 1.2742436 0
-4.5409193 -3.4352276 0.20936787 0
-4.8438725 -4.028614 0.42802238 0
-4.7838092 -3.5721276 0.67613453 0
-5.7207818 -3.6532397 0.83948034 0
-5.9087491 -4.211165 0.898588 0
-6.6036057 -4.0912933 1.2753618 0
-4.552608 -3.4142902 0.20936954 0
-4.6841464 -3.89641 0.45999706 0
-4.7959738 -3.5503411 0.6761362 0
-6.9169936 -4.226171 0.715698 0
-5.9404716 -4.1952901 0.89696276 0
-6.9772677 -4.2504745 1.0410979 0
-6.5497375 -4.0289841 1.2780151 0
-4.5334897 -3.3759618 0.21643078 0
-4.6573315 -3.8496745 0.46737695 0
-4.7942472 -3.520714 0.67815787 0
-5.7455893 -3.6030793 0.83948392 0
-5.9513412 -4.1675043 0.89728993 0
-6.9596534 -4.2049513 1.0431921 0
-6.5742269 -4.0063868 1.2775983 0
-4.5178595 -3.3397253 0.22270679 0
-4.6704769 -3.8283248 0.46737838 0
-4.7889271 -3.4892042 0.68068457 0
-5.7578669 -3.5779324 0.83948565 0
-5.9760294 -4.1474671 0.8963154 0
-6.9704466 -4.1737895 1.0434265 0
-6.5843229 -3.9765706 1.2777398 0
-4.50179 -3.3036349 0.22898364 0
-4.6468668 -3.7840028 0.47414255 0
-4.8008142 -3.4673948 0.68068618 0
-5.2803984 -4.1746612 0.73747891 0
-6.9635973 -4.140058 0.71533197 0
-5.9971828 -4.1253743 0.89566624 0
-6.9524536 -4.1285114 1.045521 0
-6.5656004 -3.9326437 1.2789974 0
-4.5302105 -3.2922885 0.22506309 0
-4.6193972 -3.7378185 0.48152256 0
-4.788547 -3.4321589 0.6842218 0
-5.213397 -4.1011057 0.74776077 0
-5.6568837 -3.4663978 0.85249949 0
-5.9938211 -4.089745 0.89729506 0
-7.0311909 -4.1306195 1.0413377 0
-6.5143237 -3.8731613 1.2815111 0
-4.5230641 -3.2640803 0.22898674 0
-4.6139965 -3.7084267 0.48459828 0
-4.7781482 -3.4011416 0.68725353 0
-5.2022214 -4.0656495 0.75076067 0
-5.792942 -3.5047894 0.83949083 0
-5.778842 -3.9423065 0.91844833 0
-6.5009556 -3.8360264 1.2824897 0
-4.5169201 -3.2338572 0.23291039 0
-4.6266456 -3.6872275 0.48459983 0
-4.8176374 -3.3944881 0.68321496 0
-5.2163754 -4.042397 0.75076133 0
-5.751009 -3.4536428 0.84506857 0
-5.9010129 -3.9758306 0.90836245 0
-6.297256 -4.1843243 1.1292503 0
-6.4238777 -3.7651286 1.2859802 0
-4.5866532 -3.2445617 0.21957695 0
-4.6087484 -3.6476355 0.49013531 0
-4.818706 -3.3669441 0.68473172 0
-5.2267828 -4.0170388 0.75119138 0
-5.7270551 -3.4113779 0.84878641 0
-6.3044243 -4.1534691 1.1296711 0
-6.4366245 -3.7376058 1.2859824 0
-4.6041284 -3.616318 0.49321151 0
-4.7915468 -3.3245122 0.6902889 0
-5.2233396 -3.9835048 0.75333506 0
-5.7385697 -3.3862913 0.8487885 0
-6.3222923 -4.1282372 1.129463 0
-6.3807631 -3.6777561 1.2886349 0
-4.5113792 -3.151001 0.24154425 0
-4.5857825 -3.5770183 0.49874675 0
-4.7852407 -3.293427 0.69281566 0
-5.2334528 -3.958147 0.75376505 0
-5.7716718 -3.3712721 0.84656 0
-5.8322506 -3.8409488 0.91845465 0
-7.1030021 -3.9866545 1.0411142 0
-6.3329072 -4.0992093 1.1296736 0
-6.5274396 -3.712791 1.2834733 0
-4.5603137 -3.1501827 0.23291683 0
-4.5945792 -3.5539095 0.49936295 0
-4.7894244 -3.2679453 0.69382691 0
-5.2161217 -3.9166496 0.75762135 0
-5.671093 -3.2941995 0.85808456 0
-5.8453684 -3.8154902 0.9184559 0
-7.065866 -3.9333205 1.0443705 0
-6.3610873 -4.0793962 1.1288377 0
-6.474762 -3.6547756 1.2859863 0
-4.5396829 -3.1128924 0.23997772 0
-4.5896106 -3.5228174 0.50243831 0
-4.800528 -3.2461298 0.69382805 0
-5.2088704 -3.8813267 0.76019251 0
-5.6822829 -3.2693059 0.85808581 0
-5.6814108 -3.6982358 0.93472737 0
-6.1969113 -3.4997985 1.1008693 0
-6.3998451 -4.0649443 1.1273739 0
-6.487206 -3.6270745 1.2859876 0
-4.5435433 -3.0883579 0.24154723 0
-4.5982051 -3.4997168 0.5030545 0
-4.8080492 -3.2224569 0.69433439 0
-5.1945896 -3.8421185 0.76362044 0
-5.6934075 -3.2443712 0.85808712 0
-6.187016 -3.4631722 1.1022656 0
-6.4137421 -4.0374999 1.1273751 0
-6.3575449 -3.5350349 1.291431 0
-4.561028 -3.0709703 0.23997951 0
-4.8331404 -3.2077909 0.69231546 0
-5.1939039 -3.8109717 0.76533496 0
-5.7044334 -3.2193999 0.85808837 0
-7.0030613 -4.3090572 0.81595671 0
-6.2133732 -3.4430215 1.1013368 0
-6.1783295 -3.8831911 1.1420269 0
-6.3841696 -3.5142868 1.2908741 0
-4.5469599 -3.0375485 0.24547172 0
-4.594758 -3.4417355 0.5079751 1
-4.8336821 -3.1804497 0.69383103 0
-5.1896262 -3.7779071 0.76747799 0
-5.7153726 -3.1943877 0.85808975 0
-6.946629 -4.2435489 0.82246619 0
-6.2287383 -3.4178548 1.1011057 0
-6.1915827 -3.8565207 1.1420282 0
-6.5239978 -3.5437074 1.2859917 0
-4.5853152 -3.0306559 0.23919761 0
-4.5995955 -3.4167111 0.50920606 1
-4.8799577 -3.1762691 0.68878216 0
-5.1923857 -3.7488306 0.76876366 0
-5.6715627 -3.1452098 0.86366683 0
-6.9611244 -4.2141953 0.82246751 0
-5.9955382 -3.2830958 1.1166846 0
-6.2404571 -3.8476725 1.1399366 0
-6.3933582 -3.4530313 1.291435 0
-4.5915561 -3.0088573 0.23998308 0
-4.6175246 -3.4004734 0.5079776 0
-4.8297954 -3.1251962 0.69736874 0
-5.1941051 -3.7209344 0.77004987 0
-5.7366881 -3.1455052 0.85809165 0
-6.0563645 -4.2009006 0.98899525 0
-6.0500526 -3.2775488 1.1138958 0
-6.9901066 -4.1877651 1.0968238 0
-6.4301705 -3.438168 1.2904595 0
-4.8083916 -3.0874438 0.70191514 0
-5.185945 -3.6861174 0.77262115 0
-5.7473788 -3.1203806 0.8580929 0
-6.0674963 -4.1727204 0.98927498 0
-7.0068979 -4.1656089 0.82084322 0
-6.0610905 -3.2513273 1.1138973 0
-7.0186548 -4.165307 1.0959882 0
-6.375711 -3.3820822 1.2929728 0
-4.592051 -3.331286 0.51658821 1
-4.8651185 -3.088208 0.69535136 0
-5.1949315 -3.6609898 0.7730509 0
-5.6444178 -3.0465162 0.86961776 0
-6.0886521 -4.1502781 0.98871845 0
-5.6993313 -3.4908173 0.94091851 0
-6.1271939 -3.2486603 1.1104113 0
-7.0221148 -4.1304474 1.0966175 0
-6.4276423 -3.3720202 1.2914393 0
-4.5759945 -2.9231188 0.25018466 0
-4.6137934 -3.3158369 0.51474488 0
-4.9006019 -3.0782309 0.69181758 0
-5.1829829 -3.6244051 0.77605057 0
-5.7683773 -3.0700116 0.85809588 0
-6.1098442 -4.1277366 0.98816186 0
-5.833241 -3.524842 0.92985618 0
-7.9026427 -3.9710374 0.99881333 0
-7.1189561 -4.1407824 1.0918051 0
-6.5826583 -3.4053042 1.2859986 0
-4.6071177 -2.9122362 0.24547935 0
-4.6007504 -3.2814448 0.51905012 0
-4.8430896 -3.0233893 0.70141423 0
-5.1533742 -3.5784795 0.78119189 0
-5.6650038 -2.9968679 0.8696205 0
-6.1625538 -4.1221924 0.98509443 0
-5.8128905 -3.4838631 0.93278605 0
-7.8943629 -3.9290631 1.0002091 0
-6.4652252 -3.3230815 1.2908838 0
-6.9505095 -4.0038257 1.3198724 1
-4.6099086 -2.8876779 0.24704945 0
-4.6119127 -3.2602792 0.51905143 0
-4.8605161 -3.0047896 0.70040542 0
-5.1515551 -3.5478561 0.78290653 0
-5.7339821 -2.9965096 0.86367428 0
-6.2188315 -4.1182132 0.98174793 0
-5.8139496 -3.4533319 0.93376356 0
-7.9298854 -3.9056032 0.9988156 0
-6.2016001 -3.6322117 1.146642 0
-6.3436265 -3.2401831 1.2959086 0
-6.9257889 -3.95275 1.3211532 1
-4.6277933 -2.8677061 0.24548197 0
-4.6380868 -3.2443824 0.51659322 0
-4.8753409 -2.9822004 0.6999017 0
-5.1789184 -3.5299273 0.78119445 0
-5.8004093 -2.9916511 0.85809988 0
-5.8160782 -3.420296 0.9347412 0
-7.9187098 -3.8588881 1.0004447 0
-6.3494687 -4.1441436 1.1791571 0
-6.1901851 -3.5908909 1.1481078 0
-6.3779407 -3.2193244 1.2950728 0
-6.8763428 -3.8975906 1.3231317 1
-4.6400695 -2.8502371 0.24469864 0
-4.6130486 -3.2067497 0.52274299 0
-4.8556647 -2.9488521 0.70394307 0
-5.1686192 -3.4979186 0.78376567 0
-5.71735 -2.9311655 0.86739409 0
-5.8193069 -3.394058 0.93539315 0
-7.9268341 -3.8279061 1.0006784 0
-6.3374496 -4.1065583 1.1804608 0
-6.4432917 -3.217315 1.2929811 0
-6.831604 -3.8415656 1.3249941 0
-4.6099472 -3.1781991 0.5252037 0
-4.8944702 -2.9401331 0.69990432 0
-5.1241636 -3.445246 0.79062045 0
-5.7642021 -2.9210393 0.8636784 0
-5.8634224 -3.383692 0.93246603 0
-7.910265 -3.7831554 1.0025399 0
-6.3621063 -4.0848722 1.179904 0
-6.4544783 -3.1897159 1.2929819 0
-6.8011284 -3.7925773 1.3263911 0
-4.6700239 -2.8125055 0.24234796 4
-4.6102486 -3.1515312 0.52704942 0
-4.8611832 -2.8980832 0.70596564 0
-5.1535645 -3.431412 0.78847986 0
-5.7371502 -2.8810003 0.86739677 0
-7.0927782 -3.9160497 0.82313144 0
-6.358345 -4.0483584 1.1808357 0
-6.1999712 -3.5016584 1.1495767 0
-6.3725166 -3.1250196 1.2964716 0
-6.7885776 -3.7521312 1.3272067 0
-4.6795387 -2.7910979 0.24234927 3
-4.6174326 -3.12852 0.52766562 0
-4.8998928 -2.8891456 0.70192689 0
-5.1546278 -3.4028516 0.78976625 0
-5.7246833 -2.8470588 0.86962861 0
-7.0843482 -3.8762913 0.8250854 0
-6.3543916 -4.0119209 1.1817675 0
-6.1864138 -3.4633636 1.1510432 0
-6.3831115 -3.0976675 1.296473 0
-6.7542462 -3.701956 1.3287195 0
-4.6925545 -2.7712662 0.24156618 3
-4.6350918 -3.1108873 0.52643716 0
-4.8915844 -2.8587844 0.70445329 0
-5.1591163 -3.3761303 0.79062426 0
-5.7343125 -2.8219666 0.86962992 0
-7.10847 -3.851352 0.82411057 0
-6.3431602 -3.971931 1.1830713 0
-6.2018352 -3.4382915 1.1508353 0
-6.4308391 -3.0848386 1.295079 0
-6.73701 -3.6616483 1.3296512 0
-4.7088766 -2.7540555 0.23999786 2
-4.6380773 -3.0870893 0.52766812 0
-4.900785 -2.8377097 0.70445454 0
-5.1522889 -3.3451843 0.79276723 0
-6.9413662 -4.2477999 0.9326573 0
-7.0845356 -3.8066888 0.82736593 0
-6.3417768 -3.9388297 1.1838169 0
-6.2238989 -3.4177415 1.1502087 0
-6.4407806 -3.0586581 1.2950804 0
-6.7239084 -3.62168 1.3304667 0
-4.7146244 -2.7309144 0.24078357 2
-4.6238508 -3.0533595 0.53197336 0
-4.9285574 -2.8235004 0.7019307 0
-5.1636901 -3.3220642 0.79276848 0
-5.8681059 -2.8172374 0.85810935 0
-6.9880171 -4.2345104 0.93014795 0
-7.0793104 -3.768744 0.82899445 0
-6.3338242 -3.9007857 1.1849346 0
-8.0777245 -4.202981 1.0447285 0
-6.275753 -2.9637387 1.3016402 0
-6.6996384 -3.5770319 1.3316312 0
-4.7166896 -2.7061965 0.24235368 2
-4.6450911 -3.0373926 0.53012943 0
-4.9054084 -2.7868531 0.70647722 0
-5.16787 -3.2953804 0.79362643 0
-5.6915355 -2.7207942 0.87669659 0
-7.0024929 -4.2049956 0.93014932 0
-7.0738964 -3.7309248 0.83062285 0
-6.3542972 -3.8771098 1.1845639 0
-6.2434373 -3.3623602 1.1504207 0
-6.4240913 -2.9891796 1.2964786 0
-6.7008181 -3.5437517 1.3319815 0
-4.7222447 -2.6830602 0.24313939 2
-4.6376791 -3.0073214 0.53320491 0
-4.9624214 -2.785157 0.69991261 0
-5.161243 -3.263433 0.79576939 0
-5.9541721 -2.7912841 0.8514213 0
-7.0490785 -4.1913071 0.9276399 1
-7.1414847 -3.7248895 0.8257432 0
-6.1265688 -4.2063026 1.0349443 0
-6.3782835 -3.855104 1.1840069 0
-6.1192203 -3.2767766 1.1581657 0
-6.4080224 -2.9518096 1.2974569 0
-6.6945186 -3.5073445 1.3325645 0
-4.6336823 -2.9790742 0.53566563 0
-4.9390397 -2.7486229 0.70445901 0
-5.1904626 -3.2490382 0.79362839 0
-5.8255129 -2.7139246 0.8651762 0
-7.0526237 -4.1563282 0.9284783 0
-7.8978901 -4.013978 0.75968802 0
-6.1479244 -4.1836452 1.0344341 0
-6.3842325 -3.8242188 1.1843805 0
-6.7027578 -3.4772911 1.3326824 0
-4.7511196 -2.6444504 0.24078882 3
-4.9811783 -2.7402561 0.69991529 0
-5.2086458 -3.2292721 0.79277313 0
-5.7788944 -2.6678114 0.87075263 0
-7.9225035 -3.9859638 0.75871348 0
-6.1551256 -4.1532373 1.0349472 0
-7.047163 -3.1299818 1.0630026 0
-6.3863945 -3.791595 1.1849403 0
-6.4916039 -2.9202478 1.2950878 0
-6.681345 -3.4347823 1.3337307 0
-4.7671928 -2.6258006 0.23922157 2
-4.6786461 -2.9484422 0.53136456 6
-4.957449 -2.703882 0.70446199 0
-5.2016039 -3.1973655 0.79491633 0
-5.7503996 -2.6288769 0.87447149 0
-7.9103928 -3.9423614 0.76099277 0
-6.1833754 -4.1342268 1.0339253 0
-7.0502872 -3.0975325 1.0634689 0
-6.3741131 -3.7520962 1.1862442 0
-7.9346523 -3.9461474 1.0568749 0
-6.4451475 -2.8719881 1.2971823 0
-6.634016 -3.3816695 1.3355931 0
-4.7833147 -2.6070685 0.23765409 2
-4.9812517 -2.6875751 0.70244324 0
-5.2196636 -3.1775072 0.79406095 0
-5.793005 -2.6158538 0.87112743 0
-7.9093819 -3.903492 0.76229537 0
-6.1693664 -4.0924182 1.035973 0
-6.2793417 -2.7863472 1.1118295 0
-6.289453 -3.6784489 1.1912696 0
-7.9481149 -3.9133248 1.0568764 0
-6.5263457 -2.8700683 1.2945325 0
-6.6756577 -3.3642063 1.3346641 0
-4.7998228 -2.5871646 0.23608649 2
-4.6990876 -2.9044366 0.53136718 5
-4.9761338 -2.6578875 0.70446473 0
-5.216619 -3.1462193 0.79577571 0
-5.8022885 -2.5892518 0.87112886 0
-7.9123149 -3.8645647 0.76327306 0
-6.036294 -3.9857044 1.0467167 0
-6.1500549 -2.7084033 1.1204333 0
-6.2592392 -3.6296122 1.1935041 0
-7.954752 -3.8757727 1.0572968 0
-6.5403223 -2.8421142 1.2943947 0
-6.6421194 -3.3190126 1.3360612 0
-4.8153725 -2.5693619 0.23451912 2
-5.0397434 -2.6590707 0.69689083 0
-5.2303638 -3.125742 0.7953487 0
-5.8481359 -2.578407 0.86741316 0
-7.2095385 -4.0476484 0.92178982 0
-7.9100609 -3.8274274 0.76457626 0
-6.1702976 -2.6871321 1.1197366 0
-6.2782211 -3.607367 1.1931332 0
-7.9414072 -3.8339651 1.058763 0
-6.4423108 -4.1624789 1.2269516 0
-6.5419064 -2.8129115 1.2946751 0
-6.6687946 -3.2952995 1.3355975 0
-4.8353977 -2.55076 0.23216724 1
-5.027123 -2.6262879 0.69992238 0
-5.2126479 -3.0878298 0.79877681 0
-5.9663363 -2.5896418 0.85663486 0
-7.0900612 -3.9538612 0.93211335 0
-7.9052916 -3.7855825 0.76620483 0
-6.2175517 -2.6722736 1.1174132 0
-6.2188449 -3.5454721 1.1968555 0
-7.9366217 -3.7920001 1.0598111 0
-6.4324598 -4.120532 1.2280926 0
-6.5972204 -2.7993064 1.2930022 0
-6.6608715 -3.2608709 1.3361804 0
-4.8544855 -2.5342495 0.22981524 1
-4.9254541 -2.9315712 0.49755383 36
-5.0650029 -2.6165762 0.69588351 0
-5.2406683 -3.0739751 0.7966364 0
-5.9859209 -2.5688944 0.8555212 0
-7.1101246 -3.9288089 0.93155676 0
-6.0929394 -3.023824 0.92662901 0
-6.2412186 -2.651998 1.1164845 0
-6.2048731 -3.508342 1.1981595 0
-6.4316301 -4.0869803 1.228745 0
-6.7007127 -2.8050623 1.2895153 0
-6.6756663 -3.2339725 1.3360655 0
-4.866684 -2.513633 0.22903228 0
-5.0775309 -2.5952401 0.69537985 0
-5.2474833 -3.0489125 0.79706609 0
-6.0247431 -2.5531685 0.8525489 0
-7.1017356 -3.8889585 0.93323201 0
-5.9549479 -2.9386654 0.93964642 0
-5.9120221 -3.7906725 1.0595114 0
-6.3824744 -2.6701491 1.1083487 0
-6.2459292 -3.4947617 1.1966722 0
-6.3889689 -4.03019 1.2313503 0
-6.7253513 -2.7816963 1.2889587 0
-6.6866608 -3.2055531 1.3360671 0
-4.856925 -2.484355 0.23295569 0
-5.1047659 -2.5796721 0.69285613 0
-5.2324505 -3.0140624 0.80006576 0
-6.0446792 -2.5308692 0.85143524 0
-6.2489967 -3.4692898 0.9996292 0
-5.8350086 -2.8618295 0.95103693 0
-5.9249444 -3.7649534 1.0595127 0
-6.4861002 -2.6746578 1.1025379 0
-6.2177248 -3.4498734 1.1987205 0
-6.3777814 -3.9901333 1.2324913 1
-6.7160425 -2.7468112 1.2896571 0
-6.6677399 -3.1654782 1.3369989 0
-4.865303 -2.4622812 0.23295701 0
-5.1319656 -2.5639262 0.69033247 0
-5.2572031 -2.9971578 0.79835373 0
-6.0418777 -2.50087 0.85255182 0
-6.2535162 -3.439101 1.0001886 0
-6.0305147 -2.9085035 0.93476832 0
-6.4951334 -2.6468966 1.1025393 0
-6.2513676 -3.4327946 1.1976054 0
-6.3771353 -3.9555378 1.2331438 0
-6.8239651 -2.7510083 1.2860308 0
-7.1366205 -3.8209679 1.3719467 3
-6.6742163 -3.1370621 1.3371167 0
-5.1587 -2.5491769 0.68780869 0
-5.2377634 -2.9619899 0.80178183 0
-6.0498848 -2.4759717 0.85255325 0
-7.100421 -3.7828665 0.93630505 0
-6.2259264 -2.955189 0.91849977 0
-6.5453453 -2.634227 1.0999835 0
-6.2441845 -3.3991315 1.1985371 0
-6.3613729 -3.9152079 1.2344474 0
-6.9467325 -2.7609427 1.2818462 0
-7.0941048 -3.7682488 1.3733431 2
-6.6885991 -3.1100655 1.3370019 0
-5.0170097 -2.4708877 0.20393646 0
-4.8146253 -2.7509527 0.52461433 1
-5.1413498 -2.5161541 0.69134521 0
-5.2696624 -2.9481578 0.79921317 0
-6.0695872 -2.4534347 0.8514396 0
-7.1827693 -3.783356 0.93100613 0
-6.1725984 -2.9042273 0.92403299 0
-6.9992318 -4.2038798 0.98533988 0
-6.7023358 -2.6544282 1.0909176 0
-6.2191362 -3.3562057 1.2003993 0
-6.3675761 -3.8843188 1.2347744 0
-6.99789 -2.7451503 1.2803128 0
-7.0739665 -3.7239616 1.3741816 2
-6.6732259 -3.0717053 1.3378168 0
-5.0363483 -2.4524088 0.2015847 0
-5.2575035 -2.5336986 0.67670119 0
-5.268713 -2.9198885 0.80049956 0
-6.0930147 -2.432009 0.84995419 0
-6.1523132 -3.3007293 1.0105147 0
-6.040658 -2.8241677 0.93639958 0
-7.0350847 -4.1848993 0.98380661 0
-6.9013824 -2.6870041 1.0792946 0
-6.2635508 -3.3436565 1.1987261 0
-6.3413839 -3.8375556 1.2365663 0
-7.0909109 -2.7424593 1.2772446 0
-7.0462818 -3.6766853 1.375206 2
-6.6873903 -3.0446849 1.337702 0
-5.0411997 -2.4283366 0.20236969 0
-5.2809324 -2.5157731 0.67468244 0
-5.2603512 -2.8885193 0.80264264 0
-6.1050086 -2.4068255 0.84958398 0
-5.9912219 -3.2001164 1.023628 0
-6.0763774 -2.8077004 0.93412322 0
-7.0637455 -4.1622148 0.98278499 0
-6.2565699 -3.3087909 1.1996579 0
-6.3544879 -3.8102887 1.2365677 0
-7.1878347 -2.7403624 1.2740369 0
-7.0073528 -3.6249259 1.3765095 1
-6.7057524 -3.0175631 1.3374709 0
-5.2861204 -2.4896624 0.67518902 0
-5.3035641 -2.8778691 0.79878914 0
-6.1363111 -2.3862309 0.84735537 0
-6.156867 -3.238343 1.0119127 0
-6.0900931 -2.781424 0.93379945 0
-6.9503689 -2.6366365 1.0774379 0
-6.2426333 -3.2695439 1.2009619 0
-6.3537412 -3.7746546 1.2372204 0
-7.3043795 -2.7420576 1.2701316 0
-6.9724522 -3.5735693 1.3777201 1
-6.7041826 -2.9863346 1.3378214 0
-5.2085214 -2.438091 0.17021179 4
-4.949986 -2.7045214 0.50801802 4
-5.3502502 -2.4876909 0.66761452 0
-5.2798223 -2.8415067 0.8026455 0
-6.1515241 -2.3633764 0.84661335 0
-6.0091176 -2.7235792 0.94161046 0
-7.1075587 -2.6548173 1.0683721 0
-6.2936835 -3.2610092 1.1989166 0
-6.3190908 -3.7262652 1.2393379 0
-7.4124551 -2.7436759 1.2665052 0
-6.9471202 -3.5300915 1.3786516 1
-6.7255712 -2.9618857 1.337474 0
-5.2609878 -2.4307935 0.16080022 2
-5.444459 -2.4949052 0.65600055 0
-5.2823644 -2.8148878 0.80350286 0
-6.1747136 -2.3414497 0.84512806 0
-7.9569707 -3.92837 0.87717217 0
-5.9208283 -2.6623061 0.95007229 0
-7.1852593 -2.6459169 1.0641888 0
-7.9425082 -3.915951 1.1163028 0
-7.0079045 -3.0488765 1.1190553 0
-6.3390265 -3.7025018 1.2390139 0
-7.551723 -2.7523751 1.2617627 0
-6.9443765 -3.4945688 1.3790251 0
-6.7130284 -2.9251986 1.3381734 0
-4.8732433 -2.6203949 0.52400696 1
-5.5014558 -2.4881375 0.64943683 0
-5.2808776 -2.7867649 0.80478925 0
-6.1447268 -2.30323 0.84884584 0
-5.9035273 -2.6271346 0.95235163 0
-5.8560934 -3.4473035 1.0723145 0
-7.3432531 -2.6607687 1.0551233 0
-7.933691 -3.8739536 1.1174209 0
-6.273149 -2.7539561 1.1604952 0
-6.3335557 -3.6667356 1.2398293 0
-7.633728 -2.7428219 1.2591133 0
-6.9414663 -3.4591072 1.3793987 0
-6.7342319 -2.9006379 1.337826 0
-4.8930588 -2.6027508 0.52216387 0
-5.5584679 -2.480998 0.64287317 0
-5.2682161 -2.754163 0.80736077 0
-6.7248096 -2.4478352 0.79309076 0
-5.9837365 -2.6266007 0.94617087 0
-7.1336989 -4.0127573 0.98279274 0
-7.3980575 -2.6437099 1.0523354 0
-6.3857369 -3.2037582 1.1959442 0
-6.2672968 -2.7216206 1.161334 0
-6.327847 -3.6310477 1.2406448 0
-7.7654986 -2.7475593 1.2546501 0
-6.9198136 -3.4161572 1.3802373 0
-6.7439599 -2.8719993 1.3378279 0
-5.5369697 -2.4483197 0.10746503 2
-4.8980947 -2.5790558 0.52278042 0
-5.518043 -2.439445 0.64944011 0
-5.2442684 -2.7172008 0.81121743 0
-7.0194306 -2.5038228 0.76521426 0
-8.011775 -3.8354893 0.87606078 0
-6.000392 -2.603214 0.94552076 0
-7.0966864 -3.9592538 0.98637521 0
-7.5218964 -2.646615 1.0453622 0
-6.3484678 -3.156868 1.1983646 0
-6.3217707 -2.7103779 1.1588242 0
-6.2785463 -3.5753322 1.2434136 0
-7.8591633 -2.7401283 1.2515821 1
-6.912899 -3.3793855 1.3807039 0
-6.7990274 -2.8590231 1.3364338 0
-5.6527205 -2.4610622 0.084718585 1
-4.9141426 -2.5597861 0.52155209 0
-5.6200209 -2.4474785 0.63681626 0
-5.2903681 -2.7085929 0.80693549 0
-7.1234503 -2.5020852 0.75592315 0
-6.0657063 -2.5966804 0.94064134 0
-7.0920339 -3.9210744 0.98765564 0
-7.6420035 -2.6476266 1.0386218 0
-6.3422389 -2.6871428 1.1581978 0
-6.3015985 -3.5533342 1.2429267 0
-7.9605298 -2.73439 1.248235 2
-6.9057899 -3.3427839 1.3811704 0
-6.79357 -2.8249812 1.3369005 0
-5.7463703 -2.4654002 0.066678643 2
-4.9705329 -2.5564821 0.5135603 0
-5.6883421 -2.443264 0.62873751 0
-5.3106151 -2.6893997 0.80565196 0
-7.2275643 -2.4996214 0.74663198 0
-6.1612539 -2.5999806 0.93315864 0
-7.1020389 -3.8895338 0.9879123 0
-7.7814364 -2.653286 1.0307188 0
-6.4231615 -2.684335 1.154223 0
-6.288219 -3.5146475 1.2440675 0
-8.1426964 -2.7510121 1.2419578 0
-6.8874021 -3.3017793 1.3819159 0
-6.8107009 -2.7986977 1.3366694 0
-5.8252749 -2.4640849 0.05177629 4
-4.9791622 -2.5340004 0.51356173 0
-5.7755165 -2.4449484 0.61813372 0
-5.4085379 -2.700649 0.79537332 0
-7.2934499 -2.4855785 0.74105799 0
-6.1624732 -2.5707946 0.93381095 0
-6.2161641 -3.4550142 1.0510914 0
-7.9212737 -2.6580031 1.022815 0
-6.4063506 -3.0851388 1.1970665 0
-6.5950212 -2.7115712 1.1452253 0
-6.3329978 -3.502301 1.242604 0
-8.3020124 -2.7598665 1.2365177 0
-6.9097939 -3.2769735 1.3816385 0
-6.8618746 -2.7837417 1.3353918 0
-6.0009766 -2.49458 0.016479254 6
-4.9877138 -2.5114894 0.51356304 0
-5.870316 -2.4485681 0.60651994 0
-5.3657789 -2.6564503 0.80137146 0
-7.4897337 -2.507638 0.72284579 0
-6.1597977 -2.5403707 0.9347887 0
-6.2169847 -3.4233043 1.0518603 0
-6.3909998 -3.0475264 1.19837 0
-6.6496639 -2.6985495 1.1427155 0
-6.2974524 -3.4539301 1.2447217 0
-8.4769058 -2.7719376 1.2305195 0
-6.8948231 -3.2376058 1.3822911 0
-6.9206381 -2.7709668 1.3338814 0
-4.9961872 -2.4889448 0.51356447 0
-5.9576926 -2.4490621 0.59591615 0
-5.38589 -2.6368718 0.80008787 0
-7.5096951 -2.4795418 0.72173232 0
-6.0053577 -2.872937 1.031176 0
-6.0358357 -2.470072 0.94617909 0
-7.1050186 -3.7834768 0.9904747 0
-8.1123199 -2.640178 1.0123563 0
-6.3938756 -3.0172141 1.1987436 0
-6.7652893 -2.7051413 1.1368564 0
-6.3092074 -3.4268067 1.2447233 0
-6.8983521 -3.2055352 1.3824787 0
-7.0326219 -2.7751992 1.3307431 0
-6.0699015 -2.4594336 0.0055007935 0
-5.0045815 -2.4663713 0.51356602 0
-6.0640221 -2.4551287 0.58278751 0
-5.4022307 -2.6157696 0.79923278 0
-7.7447448 -2.5100055 0.69980323 0
-6.0820665 -2.4562125 0.94292676 0
-5.9476113 -3.2415977 1.0723257 0
-8.333149 -2.6643775 0.99957126 0
-6.4115758 -2.9925981 1.1983731 0
-6.8542066 -2.7023149 1.1324632 0
-6.3211265 -3.3996463 1.244724 0
-6.8980298 -3.1720607 1.3827592 0
-7.0990863 -2.7639408 1.3290001 0
-6.1603179 -2.4596102 -0.011754513 0
-6.1251745 -2.4458711 0.57571888 0
-5.4110751 -2.5917771 0.79923427 0
-7.845511 -2.5026579 0.69088399 0
-6.0903506 -2.4298477 0.94292831 0
-6.0282292 -3.2458508 1.0674675 0
-8.473279 -2.6653349 0.9916684 0
-6.4179888 -2.9636729 1.1985607 0
-6.8975739 -2.6842444 1.1305813 0
-6.3327012 -3.3724418 1.2447256 0
-6.8975563 -3.1386263 1.3830397 0
-7.1884089 -2.7595427 1.3265594 0
-6.2430439 -2.4542804 0.56107509 0
-5.4421721 -2.5760956 0.79666573 0
-7.9617157 -2.4987209 0.6804778 0
-6.0719252 -2.3950009 0.9452076 0
-6.1419611 -3.2637486 1.060307 0
-6.4130421 -2.9305601 1.1993065 0
-7.0779648 -2.7093897 1.1211652 0
-6.3184443 -3.3341794 1.2458665 0
-6.9084635 -3.1094146 1.3830407 0
-7.281642 -2.7557526 1.3240025 0
-6.3459468 -2.4571288 0.54845142 0
-5.4172988 -2.5395679 0.80052221 0
-8.1165581 -2.5040722 0.66635454 0
-5.9576259 -2.7365828 1.0375984 0
-6.1750846 -2.3985329 0.93707424 0
-6.1089773 -3.2184312 1.063378 0
-6.4304781 -2.9057958 1.1989359 0
-7.0185146 -2.6580417 1.1249338 0
-6.3003578 -3.2944925 1.2471703 0
-6.9115162 -3.0774009 1.3832283 0
-7.4131269 -2.7632258 1.3202826 0
-6.3731775 -2.4357276 0.545928 0
-5.5192719 -2.5496213 0.78981537 0
-8.1751328 -2.4835207 0.66152412 0
-6.0905943 -2.7557759 1.028394 0
-6.0879731 -2.342309 0.9452107 0
-7.9521618 -3.9631574 0.93600184 0
-6.346468 -2.8440268 1.2035891 0
-7.1381588 -2.6626608 1.1188663 0
-6.3078833 -3.2658083 1.2473346 0
-6.9106884 -3.0440338 1.3835088 0
-7.5287638 -2.7682593 1.3170271 0
-5.230391 -2.4225864 0.48283064 0
-6.4943204 -2.4460623 0.53077912 0
-5.5643916 -2.5411835 0.78553349 0
-8.3601809 -2.498378 0.64442724 0
-5.9751124 -2.6872785 1.0376015 0
-6.1217189 -2.3267469 0.94293439 0
-7.9643097 -3.9335465 0.93600333 0
-6.3551083 -2.8194656 1.2035906 0
-7.2378931 -2.6636772 1.1138451 0
-6.3030901 -3.2352188 1.247987 0
-6.9350042 -3.0231166 1.3831384 1
-5.2720437 -2.4111807 0.47729838 0
-6.5595078 -2.4355459 0.52320564 0
-5.6291347 -2.5367117 0.77910995 0
-6.0480714 -2.6841085 1.0328605 0
-6.1829567 -2.3164253 0.93838042 0
-7.9592805 -3.8929791 0.93728387 0
-6.3797007 -2.7975123 1.2028478 0
-7.3692384 -2.6702659 1.1071498 0
-6.3325548 -3.2156947 1.2471747 0
-6.945251 -2.9937687 1.38314 0
-7.7699513 -2.7704613 1.3102851 1
-5.7577796 -2.5552218 0.39859807 1
-6.7125721 -2.4493783 0.50401688 0
-5.6606307 -2.5186336 0.77654153 0
-6.04632 -2.6525543 1.0336988 0
-7.157527 -2.5772758 0.85605741 0
-7.9547606 -3.8508451 0.93856448 0
-6.3142829 -2.7421582 1.2065709 0
-7.4935484 -2.6721141 1.1008732 0
-6.3255353 -3.179529 1.2479901 0
-6.96346 -2.965565 1.3829556 0
-7.8823366 -2.7704942 1.3071468 0
-6.7663097 -2.4357524 0.49795759 0
-5.7324958 -2.5173016 0.76926154 0
-6.0020738 -2.60919 1.0376061 0
-7.2116427 -2.5622077 0.85215437 0
-7.9524131 -3.813581 0.93958938 0
-6.3457046 -2.7242301 1.205456 0
-7.6093793 -2.6739993 1.095015 0
-6.3357711 -3.1536655 1.2479918 0
-6.9616532 -2.9336424 1.3832363 0
-7.9952941 -2.7681611 1.3040085 0
-5.8342462 -2.5266678 0.38876355 3
-6.938272 -2.4548473 0.47624397 0
-5.7938623 -2.5103548 0.76326573 0
-6.1579771 -2.6339247 1.0267279 0
-7.3389373 -2.5664876 0.84206885 0
-7.9913592 -3.7910731 0.93780053 0
-6.392695 -2.7099669 1.2035969 0
-7.6989589 -2.6657307 1.0906219 0
-6.3427768 -3.1249208 1.2481561 0
-6.9905019 -2.9107082 1.3827729 0
-8.1352577 -2.7728336 1.3000562 0
-5.8465176 -2.5024388 0.38815022 3
-6.984673 -2.4364805 0.47119558 0
-5.8587832 -2.5042899 0.75684232 0
-6.2196198 -2.6253433 1.0228243 0
-7.4240999 -2.5577738 0.83556294 0
-6.4282112 -2.6915324 1.2022964 0
-6.3384066 -3.091742 1.248809 0
-7.0418854 -2.8953319 1.3817519 0
-8.313693 -2.7875257 1.2949412 0
-5.8323765 -2.4692872 0.39184129 3
-5.9236231 -2.4978023 0.75041914 0
-7.4672461 -2.5365193 0.83263612 0
-6.5584755 -2.7047966 1.1963439 0
-7.9857569 -2.6778958 1.0759761 1
-6.3005352 -3.0455022 1.2509266 0
-7.082016 -2.8758087 1.3810096 0
-8.4544687 -2.7884426 1.2909889 0
-5.8298874 -2.4387493 0.39368725 3
-5.9777508 -2.4858081 0.74528086 0
-7.5916586 -2.5360041 0.82287532 0
-6.678019 -2.7119682 1.1909497 0
-8.1299038 -2.6808472 1.0686532 0
-6.3300228 -3.0242312 1.2501144 0
-7.0998349 -2.8469696 1.3808253 1
-5.8335056 -2.4145634 0.39430356 0
-6.0570149 -2.4861121 0.73714405 0
-7.7453361 -2.5479195 0.81051213 0
-6.7128077 -2.6951113 1.1896489 0
-8.2496891 -2.6814988 1.0625859 0
-6.3504229 -3.0040133 1.2496276 0
-7.1122799 -2.8212819 1.380734 0
-5.9547606 -2.4246111 0.37585986 0
-6.0658216 -2.4585104 0.73714578 0
-7.8120527 -2.5298636 0.80563313 0
-6.8895521 -2.7195187 1.1814637 0
-8.4210806 -2.6899068 1.0537982 0
-6.3611245 -2.9753315 1.2496293 0
-7.156538 -2.8009293 1.3798988 0
-6.0565314 -2.4303541 0.36049008 0
-7.7022247 -2.4729881 0.38181818 0
-6.2137136 -2.4787059 0.72129917 0
-6.6312056 -2.6108978 0.99577183 0
-7.9664278 -2.5384414 0.79326993 0
-6.3744349 -2.9507511 1.2494681 0
-7.2226334 -2.7906473 1.3785056 0
-6.1785235 -2.4374578 0.34204626 0
-7.7574186 -2.449976 0.37575984 0
-6.2494459 -2.4576335 0.71830261 0
-8.1184368 -2.5399806 0.78123236 0
-6.9732885 -2.6801906 1.1783032 0
-6.3629975 -2.9122474 1.2504463 0
-7.3092918 -2.7814138 1.3766475 0
-6.2998466 -2.4463725 0.32360244 0
-7.9230585 -2.4589727 0.35505641 0
-6.352582 -2.4605198 0.70759612 0
-8.2542982 -2.5397573 0.77049625 0
-7.1222162 -3.1661711 1.0040596 0
-6.9976082 -2.6554873 1.1775607 0
-6.3843718 -2.8890307 1.249959 0
-7.4560452 -2.7937686 1.3733016 0
-6.3599873 -2.4359286 0.70759773 0
-6.9431009 -2.6147788 0.97485453 0
-8.3777552 -2.5390654 0.76073635 0
-7.0793381 -3.119993 1.007642 0
-7.1582699 -2.6762369 1.1701199 0
-6.4043884 -2.868443 1.2494723 0
-7.4953413 -2.7751758 1.3725586 0
-6.46733 -2.4385281 0.29901183 0
-8.2855587 -2.4814291 0.30960941 2
-6.6541772 -2.4934194 0.67547482 0
-6.9795337 -2.5906816 0.97290349 0
-6.1222229 -2.7377093 1.0736334 0
-7.2904897 -2.6805716 1.1641675 0
-6.4075642 -2.8355427 1.2497994 0
-7.6127515 -2.7735286 1.3699566 0
-6.5692396 -2.4423101 0.28364217 0
-8.4739294 -2.4961896 0.28587604 2
-6.5665779 -2.4389939 0.6861847 0
-7.0561094 -2.5849662 0.96788388 0
-6.1380491 -2.7165246 1.0731235 0
-7.2986135 -2.6530318 1.1641693 0
-6.4199438 -2.8121185 1.2496382 0
-7.7321815 -2.7785087 1.3672616 0
-6.6228886 -2.427861 0.27626574 0
-6.7081194 -2.4508951 0.67119497 0
-7.2330179 -2.6055565 0.95561117 0
-6.1058288 -2.6753197 1.0759385 0
-7.4760122 -2.6727464 1.1559844 0
-6.4068413 -2.7765801 1.2506166 0
-7.8527012 -2.77951 1.3645667 0
-6.7186413 -2.4239905 0.26212609 0
-6.7739983 -2.4378223 0.6647718 0
-7.3608799 -2.6086917 0.9469651 0
-6.1680903 -2.665952 1.0723593 0
-7.5851383 -2.6693196 1.1511486 0
-6.4091616 -2.7450559 1.2509437 0
-8.0198593 -2.7916014 1.360756 0
-6.9049349 -2.4489737 0.23322904 0
-6.9726501 -2.4662366 0.64335716 0
-7.533936 -2.6274633 0.93497139 0
-6.2294569 -2.6588461 1.0687802 0
-7.7011008 -2.6705561 1.1459405 0
-6.3726277 -2.7032704 1.2528986 0
-8.1363287 -2.7913592 1.3581541 0
-6.9815288 -2.439455 0.22216344 0
-7.1108832 -2.4742188 0.62879586 0
-7.5964866 -2.6114781 0.93106776 0
-6.2800002 -2.6461394 1.0659683 0
-7.8291659 -2.6727464 1.1401744 0
-6.529304 -2.7261646 1.2465522 0
-8.3148994 -2.8063247 1.3540645 0
-7.0467677 -2.426177 0.21294248 0
-7.1806741 -2.4616644 0.62194365 0
-7.6743708 -2.5994473 0.92604816 0
-6.3834772 -2.6509836 1.0595756 0
-7.9688683 -2.6773396 1.1338502 2
-6.6748543 -2.7441626 1.240694 0
-8.4936695 -2.8200703 1.3499748 0
-7.2463818 -2.4475777 0.61552048 0
-7.8174853 -2.6052303 0.91628671 1
-8.0015736 -3.1606388 0.95087463 0
-8.1393929 -2.6896091 1.1260378 0
-6.77881 -2.7472839 1.2366269 0
-7.3890719 -2.4527519 0.6005314 0
-8.0077305 -2.621166 0.90317661 0
-8.0128498 -3.1258907 0.95087647 0
-8.2760468 -2.6894417 1.1198999 0
-6.8683057 -2.7432537 1.2332104 0
-7.5092397 -2.4568136 0.14224076 0
-7.5887246 -2.4757853 0.57911682 0
-8.085413 -2.6086309 0.89815718 0
-7.9280291 -3.063483 0.95727253 0
-8.4350071 -2.6980581 1.1126454 0
-6.8923054 -2.7205226 1.2325609 0
-7.5980673 -2.4454901 0.12933099 0
-7.6704454 -2.4622126 0.57098067 0
-8.2256651 -2.6088367 0.88867438 0
-6.985466 -2.7219417 1.0214721 0
-7.0275326 -2.7301898 1.2271913 0
-7.8575239 -2.484123 0.088752985 0
-7.8662014 -2.4835782 0.54999471 0
-8.2952604 -2.5947495 0.88421279 0
-6.9937201 -2.6953523 1.0214736 0
-7.070106 -2.7143638 1.225728 0
-7.9614768 -2.4765944 0.073383689 1
-7.805346 -2.4327331 0.55770624 0
-8.4391394 -2.595937 0.87445116 0
-7.1822653 -2.7167015 1.2213352 0
-8.0064602 -2.4484611 0.5362922 0
-6.9741936 -2.6227496 1.024035 0
-7.2952394 -2.7169127 1.2169415 0
-8.2346096 -2.4761407 0.032193065 1
-8.1568632 -2.4533474 0.52044606 0
-7.0550947 -2.6169736 1.0191772 0
-7.3994818 -2.7170813 1.2128741 0
-8.2503977 -2.4393299 0.51102495 0
-7.2057271 -2.6285219 1.0097156 0
-7.5047679 -2.7134569 1.2088066 0
-8.4782209 -2.4615204 0.4866128 0
-7.3556232 -2.6420805 1.0002539 0
-7.6474819 -2.7237053 1.2031116 0
-7.5329847 -2.6610205 0.98900193 0
-7.775527 -2.7268908 1.1980678 0
-7.5721493 -2.640084 0.98695755 0
-7.8494835 -2.7152042 1.1953025 0
-7.6577911 -2.6305902 0.98184407 0
-7.9739027 -2.7157688 1.1904213 1
-7.8207059 -2.6407471 0.97161525 1
-8.1757927 -2.7356358 1.1822851 0
-7.9372234 -2.6384614 0.96445566 0
-8.327425 -2.7417772 1.1762646 0
-8.0340443 -2.631726 0.95857531 0
-8.4786453 -2.748625 1.1702446 0
-8.2624207 -2.6584575 0.94399852 0
-8.3985672 -2.6587644 0.93556029 0
-4.912858 -4.2105432 0.54944724 0
-4.8467703 -4.1365042 0.56115651 0
-4.8171892 -4.0862031 0.56750208 0
-4.7970181 -4.0435925 0.57238245 0
-4.7542248 -3.9534504 0.58263522 0
-4.7304311 -3.9082112 0.58800519 0
-4.7261324 -3.8766227 0.59044904 0
-4.7093749 -3.8347008 0.59484416 0
-4.6801238 -3.7587469 0.60265791 0
-4.6758204 -3.7264457 0.60510206 0
-4.6748033 -3.6962111 0.60705858 0
-4.6736536 -3.6660259 0.60901523 0
-4.8313398 -4.1901059 0.097116947 0
-4.6689229 -3.633924 0.6114592 0
-4.6797595 -4.0615411 0.13300431 0
-6.4367142 -4.1012578 1.2462976 0
-4.6605926 -3.5999405 0.61439103 0
-4.6936464 -4.0392623 0.13301051 0
-6.4364529 -4.0656486 1.2467707 0
-4.6798258 -3.5815725 0.6134218 0
-4.6675062 -3.9917684 0.14162815 0
-6.4252872 -4.0248046 1.2475932 0
-4.6885881 -3.5573626 0.61391544 0
-4.7212539 -3.9944952 0.13302267 0
-6.3811884 -3.9696231 1.2494613 0
-4.6721926 -3.5207925 0.61782295 0
-6.3953171 -3.9399886 1.24947 0
-4.6673965 -3.4878812 0.62026733 0
-4.6644993 -3.8981693 0.15097642 0
-6.365562 -3.8908558 1.2508748 0
-6.107965 -4.2455335 0.99390048 0
-4.6897445 -3.4713337 0.61881059 0
-6.422121 -3.8833988 1.249485 0
-6.1119428 -4.2125731 0.99460566 0
-4.6491647 -3.4207489 0.62613046 0
-6.2547541 -3.7693684 1.2553139 0
-6.1228371 -4.1834064 0.99484557 0
-4.6680746 -3.4023232 0.62515956 0
-4.6198125 -3.7807987 0.16893518 0
-6.2133217 -3.7160733 1.2570677 0
-6.1582923 -4.1673112 0.99345714 0
-4.6761427 -3.3782206 0.62565339 0
-4.6090493 -3.7446527 0.17396438 0
-6.2803702 -3.7137587 1.2553287 0
-6.1831508 -4.1454444 0.99276644 0
-4.6525145 -3.3374732 0.63053513 0
-4.5607967 -3.686651 0.18688738 0
-6.2930217 -3.6858871 1.255336 0
-5.9742751 -4.0015264 1.0074306 0
-4.6920257 -3.3299713 0.6266408 0
-6.3594875 -3.6843145 1.253597 0
-4.6922026 -3.303288 0.62810951 0
-4.5855007 -3.6439645 0.18689752 0
-6.2634454 -3.6052547 1.257097 0
-4.6793036 -3.2671657 0.63152862 0
-6.2392263 -3.5611076 1.2582686 0
-4.669148 -3.2341399 0.63446021 0
-5.6030154 -4.1681552 0.82494617 0
-6.2513556 -3.5333755 1.2582759 0
-4.6872382 -3.2154636 0.63349116 0
-5.7178636 -4.1996284 0.81551164 0
-4.53755 -3.5284543 0.20485556 0
-6.5331745 -4.1187468 1.2971975 0
-6.2414322 -3.4959311 1.2589817 0
-4.7443438 -3.216213 0.62715924 0
-5.7391748 -4.1776185 0.81486762 0
-6.542964 -4.0896444 1.297298 0
-6.2747264 -3.479176 1.2582903 0
-5.8753166 -3.7526958 1.019105 0
-4.7262702 -3.1807292 0.63106555 0
-5.7283716 -4.1393375 0.81715322 0
-6.4385219 -4.002583 1.3003787 0
-6.3783078 -3.4909894 1.2553879 0
-4.7156882 -3.1477792 0.63399714 0
-5.6936698 -4.0863729 0.82171822 0
-4.5486875 -3.4507229 0.2098968 0
-6.4315782 -3.9622138 1.3009431 0
-6.2070208 -3.3826845 1.2612154 0
-7.0647678 -4.2646794 0.94375002 0
-4.7090912 -3.1155586 0.63644129 0
-5.7013645 -4.0554113 0.82237667 0
-4.6093683 -3.4542632 0.19985712 0
-6.3767033 -3.9007487 1.30272 0
-6.3105583 -3.394078 1.2583129 0
-7.0649605 -4.227118 0.94468856 0
-4.7089458 -3.0879953 0.63791001 0
-5.673192 -4.0067 0.82629031 0
-4.5727267 -3.4059191 0.2099092 0
-6.5696611 -3.9603348 1.2980714 0
-6.3217764 -3.3674941 1.2583179 0
-7.1182108 -4.2169795 0.94213837 0
-4.7188053 -3.0667198 0.63791674 0
-5.6755676 -3.9765441 0.8272745 0
-4.5212908 -3.3514874 0.22283208 0
-6.2408419 -3.3010833 1.2612358 0
-7.1398392 -4.1895914 0.94168144 0
-4.7148676 -3.0374947 0.63987315 0
-5.6575112 -3.9338498 0.83021146 0
-4.5327001 -3.3297491 0.22283816 0
-6.2346749 -3.7322359 1.3073986 0
-6.2520633 -3.2733426 1.2612433 0
-6.3130188 -4.251749 1.1417634 0
-4.7251682 -3.0150809 0.63987947 0
-5.6462812 -3.8950639 0.83249736 0
-6.2473927 -3.7045112 1.3074061 0
-6.3187122 -3.2682049 1.259505 0
-6.2358618 -4.1753535 1.1460047 0
-4.7390008 -2.9943032 0.63939822 0
-5.6101818 -3.84341 0.83706212 0
-4.6423626 -3.3319139 0.20491147 0
-6.3668976 -3.2551541 1.2583488 0
-6.2359643 -4.1402225 1.1466639 0
-5.6056252 -3.8086438 0.83869672 0
-4.5350513 -3.2479181 0.22931468 0
-6.2725391 -3.6489568 1.307421 0
-6.3556614 -3.2181079 1.2590545 0
-6.2607317 -4.1180577 1.1461825 0
-4.7522545 -2.9460201 0.64038372 0
-5.59027 -3.7685277 0.84130806 0
-4.64047 -3.2749608 0.20994687 0
-6.3368602 -3.1781948 1.259993 0
-7.1814818 -4.0215354 0.94358099 0
-6.2819281 -4.0938854 1.1458642 0
-4.7694912 -2.9267464 0.63941497 2
-5.5891953 -3.7357771 0.84261507 0
-4.6761169 -3.2653589 0.20493019 0
-6.2973151 -3.5931964 1.307436 0
-6.3215809 -3.1399105 1.2608151 0
-7.1842718 -3.9855981 0.94428706 0
-6.2567201 -4.046061 1.1476638 0
-4.7830276 -2.9057639 0.63893378 0
-5.5912662 -3.7048848 0.84359872 0
-4.5995207 -3.1985278 0.222875 0
-6.3753223 -3.5945294 1.3057678 0
-6.3471613 -3.1176627 1.260357 0
-7.2088346 -3.9594212 0.94359738 0
-6.1563549 -3.9606724 1.152884 0
-4.7928896 -2.8831084 0.63893992 0
-5.6039114 -3.6794035 0.84360558 0
-4.5227842 -3.1322734 0.24081802 0
-6.3582993 -3.5533972 1.3065201 0
-6.3502779 -3.0866783 1.2605972 0
-7.2260046 -3.9298964 0.94337314 0
-4.780859 -2.8508215 0.64187133 0
-5.6021929 -3.6467481 0.84491473 0
-4.5334291 -3.1105216 0.24082422 0
-6.3594065 -3.520432 1.3068068 0
-6.3046789 -3.037266 1.2623501 0
-6.2584901 -3.47082 1.0057147 0
-4.8633084 -2.8598959 0.63212729 0
-5.5824709 -3.6053038 0.8478514 0
-6.3273549 -3.473208 1.3079314 0
-6.3486667 -3.0219448 1.2613105 0
-6.3216252 -3.4651794 1.0024661 0
-4.8329048 -2.8196473 0.63749629 0
-5.5518141 -3.5587714 0.85176456 0
-4.5544891 -3.0669065 0.24083638 0
-6.3575649 -3.4530296 1.3074734 0
-6.3926573 -3.0063527 1.2602706 0
-7.1814842 -3.8000431 0.94874716 0
-7.0220108 -4.2459288 1.116101 0
-4.8424654 -2.7968137 0.63750249 0
-5.5747051 -3.5386558 0.85079491 0
-4.6073847 -3.0656877 0.23223197 0
-6.3766785 -3.4279959 1.307295 0
-6.3878374 -2.9725556 1.2607436 0
-7.2753296 -3.8032858 0.94363868 0
-7.0329256 -4.2137084 1.1162721 0
-4.8299994 -2.7646585 0.64043391 0
-5.5652127 -3.5028393 0.85275501 0
-4.5752535 -3.023144 0.24084866 0
-6.3625388 -3.3889179 1.3079541 0
-6.3565803 -2.9292586 1.262031 0
-6.7562175 -4.0469995 1.3477669 0
-6.2168055 -3.3222277 1.0113266 0
-7.0473294 -4.1831822 1.1162803 0
-4.8649893 -2.7525792 0.6370278 0
-5.5699501 -3.4740033 0.85341305 0
-4.5606604 -2.9893358 0.2458775 0
-6.344789 -3.3484492 1.3087039 0
-6.3890753 -2.9092238 1.2613404 0
-6.7086096 -3.988307 1.3489624 0
-6.2354765 -3.2976243 1.0108688 0
-7.0760727 -4.1594563 1.1156369 0
-4.8743043 -2.7296324 0.63703406 0
-5.5529552 -3.4349403 0.85602403 0
-4.5245638 -2.9455681 0.25521135 0
-6.3328352 -3.3139937 1.3092693 0
-6.3979225 -2.8837814 1.2613474 0
-6.6158972 -3.9124804 1.3509957 0
-6.2196999 -3.2620168 1.0125037 0
-4.893609 -2.7134829 0.63557762 0
-5.5634584 -3.4121222 0.85603052 0
-4.5370979 -2.9276555 0.25449955 0
-6.3552475 -3.2903597 1.3089978 0
-6.3137102 -2.8221505 1.2642612 0
-6.632865 -3.8849535 1.3509343 0
-4.9138021 -2.6947703 0.63412213 0
-5.5786934 -3.3882239 0.85571265 0
-4.6005535 -2.9305556 0.24374354 0
-6.370059 -3.2637007 1.3089129 0
-6.5846596 -3.8273127 1.3521274 0
-8.0413351 -3.9330101 0.89949346 0
-4.9302807 -2.6746178 0.63315362 0
-5.5648837 -3.3510876 0.85799819 0
-4.5997729 -2.9035833 0.2459023 0
-6.3663011 -3.2295468 1.3092928 0
-6.5758986 -3.7883644 1.3525543 0
-4.9651241 -2.6617448 0.62974769 0
-5.5653963 -3.3207171 0.85898173 0
-4.5952892 -2.8750181 0.24877858 0
-6.3735428 -3.1998792 1.3093935 0
-6.6179457 -3.7726495 1.3520035 0
-4.9741116 -2.6384444 0.62975425 0
-5.569417 -3.2920282 0.85963982 0
-4.6480474 -2.8724716 0.24017477 0
-6.3812332 -3.1687839 1.3094945 0
-6.3630638 -2.7123318 1.2639433 0
-7.1556473 -3.97437 1.1158476 0
-4.9985352 -2.6197286 0.62780899 0
-5.581183 -3.2653387 0.8596471 0
-4.643918 -2.8427267 0.24305129 0
-6.3584385 -3.1275156 1.3103396 0
-7.1582575 -3.9385443 1.1163446 0
-5.5816121 -3.2350307 0.86062849 0
-6.3914533 -3.1079473 1.3097888 0
-6.2206931 -3.4887748 1.1586955 0
-5.0606461 -2.5899005 0.62197226 0
-5.5780115 -3.2031479 0.86193734 0
-6.3827629 -3.0739686 1.3102615 0
-6.1989884 -3.4480796 1.1601684 0
-5.5956407 -3.1821609 0.8612932 0
-4.6867766 -2.7834778 0.2401979 0
-6.396935 -3.0471206 1.310176 0
-6.2327356 -3.4299769 1.1591989 0
-5.6027913 -3.1550701 0.86162573 0
-5.5988474 -3.1232626 0.86293465 0
-4.701932 -2.7372282 0.24092805 2
-5.5874381 -3.0884089 0.86489445 0
-4.7112055 -2.714839 0.24093425 2
-5.594789 -3.0601106 0.8652271 0
-4.7281308 -2.6943381 0.23950553 1
-5.586235 -3.0282273 0.86686122 0
-4.7331419 -2.6714702 0.24022925 1
-5.578074 -2.9951653 0.86849558 0
-4.7458162 -2.6504674 0.23951805 0
-4.7547665 -2.6279235 0.23952448 0
-4.7708669 -2.6082842 0.23809648 0
-6.4392147 -2.8066216 1.3111657 0
-4.7979665 -2.5929363 0.23451543 0
-4.7961926 -2.5647397 0.23667443 0
-4.8194852 -2.5477405 0.23381114 0
-4.8280983 -2.5249324 0.23381734 0
-5.1493158 -2.4345748 0.18436325 0
-5.1759925 -2.4171274 0.18078351 0
-5.4762778 -2.4372244 0.12771475 1
-8.3911009 -2.5136991 0.23328614 0
