# .PCD v0.7 - Point Cloud Data file format
VERSION 0.7
FIELDS x y z intensity
SIZE 4 4 4 4
TYPE F F F F
COUNT 1 1 1 1
WIDTH 1431
HEIGHT 1
VIEWPOINT 0 0 0 1 0 0 0
POINTS 1431
DATA ascii
2.8397937 6.282064 1.2940521 110
3.1524758 6.240027 1.2553935 110
4.3530369 11.112926 2.5266256 38
2.5236337 6.2644024 1.3342961 105
3.5020239 6.3073177 1.3622301 106
4.310523 10.926146 3.6438029 52
2.853904 6.3335414 1.441952 115
2.6820209 4.2959023 -0.47057581 6
2.542377 6.3225698 1.4805748 112
3.1936481 6.3555527 1.4015458 115
2.8172574 6.0992837 -0.14728177 110
3.1428275 6.1471734 0.32587397 113
5.5824742 20.140245 1.5936195 9
3.5357127 6.3760834 1.5145321 105
2.8290248 6.1493635 0.61739206 108
3.1614532 6.2143474 0.77733213 112
3.1950982 6.3455524 1.5540426 106
2.8406677 6.1988416 0.91174918 110
3.4912109 6.2185059 0.9860025 101
4.1645813 12.898145 1.8986571 4
2.8535275 6.2543483 1.1464316 103
3.1675749 6.2234221 1.0686792 112
3.6202445 13.582098 1.9923782 4
2.537209 6.2304339 1.1886054 111
3.5090475 6.2644277 1.2110757 104
4.3654542 11.011667 2.0548198 17
2.8627367 6.2816839 1.2938673 110
3.1732664 6.2307582 1.2556006 108
6.2279797 23.239676 4.5027485 1
4.4046173 11.153599 2.5308628 105
2.5463259 6.2651601 1.3341348 105
3.5289056 6.3160119 1.361674 106
4.318327 10.794529 3.620831 36
2.8762496 6.3291922 1.4419529 115
2.6963754 4.2886491 -0.46888506 6
2.5646925 6.3193073 1.480576 112
3.2160749 6.3500166 1.4015466 115
2.8380342 6.0912862 -0.14620292 110
3.165484 6.1456199 0.32509077 113
3.5617061 6.3808312 1.5143943 105
2.851511 6.1489768 0.61677855 108
3.1853271 6.216619 0.77632362 112
3.5709772 12.984505 1.6691389 3
3.223362 6.3632817 1.5539066 110
2.8648996 6.2062359 0.91046631 110
3.5131569 6.2119312 0.98600316 80
4.2098417 12.889178 1.8986583 6
2.8771772 6.2578235 1.1458755 103
3.1895404 6.217977 1.06868 111
4.4145679 11.05683 1.7915823 38
2.5597992 6.2311378 1.1883513 111
3.534657 6.2692471 1.21038 102
5.8038421 20.75284 2.8264709 12
2.8856978 6.2812195 1.2936827 110
3.1972198 6.2330379 1.2551836 106
23.995304 110.7709 15.479513 28
4.4347081 11.109025 2.5279267 105
2.5687814 6.2658348 1.333971 105
3.5535347 6.3169513 1.3613964 106
4.3213825 10.647734 3.5949874 38
2.8985863 6.3247657 1.4419541 115
2.7097931 4.2778368 -0.46550381 6
2.5875998 6.3199215 1.480508 112
3.2374892 6.3405299 1.4016635 114
2.861846 6.0983176 -0.14943552 110
3.1871746 6.1401849 0.32509172 113
5.6978812 19.986673 1.593608 16
3.5877528 6.385478 1.5142566 105
2.874006 6.1485109 0.61616516 108
3.2102165 6.2226472 0.77481073 112
3.2477965 6.3653936 1.5538619 111
2.8876009 6.2057471 0.91003954 110
3.5374289 6.2128935 0.9852612 80
4.2558661 12.883974 1.898753 4
6.2069507 14.844643 1.7737941 0
2.8984604 6.2494855 1.1461551 103
3.2114835 6.2124581 1.068681 111
4.4623423 11.081869 1.7922155 18
2.5830131 6.2357054 1.1878418 111
3.5579584 6.2663379 1.2101486 103
5.8845353 20.777227 2.8288026 14
2.9102767 6.2885027 1.2931268 112
3.2192159 6.2274923 1.2551845 106
2.5915091 6.2664313 1.3338099 105
3.5779314 6.3177958 1.3611161 106
5.3309646 18.026693 6.5244026 0
4.3263755 10.512487 3.5712972 25
2.9233155 6.3320127 1.4416772 115
2.7267761 4.2810245 -0.46888328 6
2.6111355 6.3244047 1.4803704 112
3.2588499 6.3309722 1.4017801 112
2.8841481 6.0977149 -0.15051222 110
3.2117918 6.1460652 0.32274044 113
4.7613401 15.127768 1.5930552 21
3.6114635 6.3823853 1.5142111 105
2.8948965 6.1402235 0.61678058 108
3.2331655 6.2208972 0.77430677 112
4.7876182 20.114307 1.7120094 12
3.2692413 6.3557982 1.5538855 110
2.9094958 6.201282 0.91004044 111
3.5629117 6.2175636 0.98414767 80
4.3043294 12.890353 1.8991281 4
6.2219486 14.710206 1.7723379 2
2.9221373 6.2527943 1.1455989 103
3.2333999 6.2068629 1.0686817 110
2.6050146 6.2323031 1.1878428 111
3.5812554 6.2633429 1.2099171 101
5.9687161 20.816935 2.8320656 9
6.9213591 20.3414 2.4499125 12
2.9324605 6.283958 1.2931278 110
3.2421932 6.2257357 1.2549764 108
23.956099 106.72994 14.992086 28
2.6142449 6.2669473 1.3336486 105
3.6014113 6.314734 1.3609774 106
4.321259 10.34307 3.5411425 9
2.9470439 6.3352475 1.4414903 115
2.7410414 4.2736273 -0.46719229 6
2.6340909 6.3248539 1.4803021 112
3.2801733 6.3213439 1.4018968 111
2.907268 6.1008015 -0.15266705 110
3.2364795 6.1518497 0.32038903 113
5.8452592 19.992929 1.5936143 20
3.6388047 6.3906479 1.514027 105
2.9182088 6.1434684 0.6155526 108
3.2561319 6.2190642 0.77380288 112
4.1721029 15.846117 1.6864517 10
3.2937069 6.3577375 1.5538406 110
2.9330337 6.2045221 0.90918553 111
3.5884609 6.2221322 0.98303413 80
4.3512201 12.888726 1.8993161 5
2.9450347 6.2521133 1.1453212 103
3.2583594 6.2127552 1.0677075 110
3.7117336 12.941044 1.9742767 1
5.0661135 13.053142 1.8283912 2
2.6270142 6.228826 1.187844 111
3.6069803 6.2678752 1.2092212 101
7.0120006 20.396179 2.4530153 11
2.9546385 6.2793365 1.2931287 110
3.2672315 6.231617 1.2543504 107
2.6363657 6.2634368 1.3336496 105
3.623693 6.3077769 1.360978 105
2.9702358 6.334486 1.4413986 115
2.7531409 4.2591743 -0.46212327 6
2.654856 6.3133798 1.4804392 112
3.3055778 6.3271012 1.4015499 112
2.9304323 6.1038036 -0.15482187 110
3.2571907 6.1423807 0.32117391 113
4.8186059 14.878651 1.5930316 6
3.6625772 6.3873725 1.5139816 105
2.9415669 6.1466274 0.61432469 109
3.2821839 6.2286496 0.7717852 112
3.3130498 6.3402634 1.5539099 109
2.9557796 6.2037892 0.90875864 111
3.6116416 6.2190156 0.98266357 80
2.9687924 6.2552509 1.1447651 103
3.2802944 6.2069983 1.0677083 110
3.7128043 12.66542 1.9663341 2
5.1150184 13.052622 1.8286028 2
2.6503124 6.2331495 1.1873344 111
3.6303267 6.2647038 1.2089897 102
4.084301 11.399428 2.2716961 1
7.0854897 20.384956 2.4533427 6
2.9776533 6.2785454 1.292944 110
3.2902672 6.2296882 1.2541424 109
4.0860152 11.391043 3.0233774 0
24.065119 83.601227 8.6670094 21
2.659791 6.2677364 1.3333261 105
3.6459575 6.3007445 1.3609787 105
2.9934456 6.333643 1.4413071 115
2.7710981 4.2656937 -0.46719265 6
2.6797953 6.3255057 1.480163 112
3.323468 6.305738 1.4020118 110
2.9517188 6.0991902 -0.15482366 110
3.2809198 6.1442037 0.31960678 113
3.6900375 6.3954282 1.5137978 105
2.9641066 6.1458416 0.6137113 109
3.3020854 6.2151542 0.77279538 112
3.3406401 6.3536239 1.5537968 111
2.9793677 6.2068634 0.90790379 112
3.6335731 6.2120337 0.98266435 80
2.992559 6.258307 1.1442091 103
3.3042657 6.2088699 1.0670592 110
5.1638899 13.051941 1.8288145 2
2.6729498 6.2334585 1.1870804 111
3.6536338 6.2614603 1.2087584 103
2.9997754 6.2737789 1.2929451 110
3.3237495 6.266232 1.2518452 113
23.937492 81.983864 8.5366535 21
2.6832051 6.2719588 1.3330027 105
3.6706133 6.3012567 1.3607011 105
23.01438 78.500511 16.434628 20
3.0174682 6.3366337 1.441123 115
2.7845364 4.258357 -0.46550179 6
2.7016969 6.3259006 1.480095 112
3.3509636 6.3231936 1.4013172 112
2.9755325 6.1097836 -0.15913379 110
3.3023109 6.1424437 0.31882107 113
3.7114723 6.3885303 1.5137984 105
2.986433 6.1490688 0.61248338 108
3.3271241 6.2248502 0.77077764 112
4.3101244 15.6692 1.6855557 5
3.3629971 6.3517423 1.5537747 111
3.0010452 6.2062054 0.90747684 109
3.658124 6.2166781 0.98155081 79
4.1036024 11.150326 1.8583665 36
6.5175657 14.926599 1.775816 0
3.0135429 6.2537217 1.14421 103
3.3282552 6.2147846 1.0660849 110
3.9542007 13.549267 1.9929732 6
5.2105722 13.051687 1.8290259 2
2.6965666 6.2456694 1.18606 111
3.6783645 6.2660646 1.2080625 103
3.0242972 6.2847676 1.2922034 109
3.344758 6.2605495 1.2518461 113
23.944477 80.948616 8.4551821 21
2.704236 6.2684007 1.3330038 104
3.6929862 6.2982206 1.3605626 105
22.928137 77.173622 16.197002 20
3.0413358 6.3436723 1.4408461 114
2.7996306 4.2542682 -0.46550095 7
2.7253859 6.3299665 1.4799573 112
3.3754025 6.3248191 1.401086 112
3.0013282 6.1238046 -0.16452229 110
3.3187296 6.11764 0.32274187 112
4.1199665 11.071965 1.5925976 105
3.7350068 6.3849878 1.5137501 105
3.0078773 6.1442614 0.61248165 108
3.3522797 6.2303247 0.7692644 112
5.166955 20.233875 1.7130854 3
3.3864787 6.3494754 1.5537527 111
3.0238261 6.2052283 0.90704978 108
3.6813142 6.2133088 0.98118001 79
4.1268578 11.071389 1.8566844 68
23.073885 64.61338 2.3909569 13
3.0364938 6.2527142 1.1439323 102
3.3491161 6.2049465 1.0664105 110
3.9989583 13.525288 1.9925072 6
5.2563562 13.039079 1.8290265 2
2.7186093 6.2418761 1.186061 111
3.7029929 6.2664223 1.2075988 103
4.1420937 11.108673 2.2558553 59
23.093616 76.902351 4.8527813 16
3.0473602 6.2837262 1.2920187 109
3.3700733 6.2660351 1.25122 113
4.1598268 11.171501 2.9989846 111
23.943773 79.856567 8.3691473 21
2.7263584 6.2645802 1.3330048 103
3.7177339 6.2985344 1.3602847 103
23.009911 76.428047 16.069935 20
3.0654955 6.3464732 1.4406618 114
2.814723 4.2501264 -0.46550035 6
2.7484283 6.330009 1.479889 112
3.3988037 6.322504 1.4009708 112
3.022085 6.1151919 -0.16344357 110
3.3403244 6.1116748 0.3227427 111
4.1606421 11.070971 1.5925995 103
3.7588043 6.3813601 1.5137044 105
3.0322213 6.150938 0.6106391 108
3.3740089 6.2242398 0.76926249 112
5.2368546 20.217434 1.7130564 3
3.4110546 6.3509736 1.5537077 111
3.0466199 6.2041698 0.90662271 109
3.7070439 6.2174044 0.98006648 79
4.1756067 11.10544 1.8577139 112
6.5087957 14.554602 1.7716352 0
3.0603533 6.2555122 1.1433761 102
3.3742676 6.2103858 1.0654364 110
4.03228 13.438195 1.990172 2
5.3042784 13.034004 1.8291676 2
2.7420568 6.2458639 1.1855514 111
3.7263784 6.2629013 1.2073672 104
4.1820054 11.103694 2.2560892 59
23.11079 75.938576 4.8150678 16
3.0704355 6.2826023 1.2918338 109
3.3921862 6.259891 1.2512207 113
4.1892281 11.120019 2.9936182 105
23.940107 78.780876 8.2844152 21
2.7505972 6.2724829 1.3325188 104
3.739958 6.2911768 1.3602853 104
4.2036781 11.167224 4.6632428 52
22.9751 75.289124 15.868204 13
3.089695 6.3491831 1.4404774 114
2.827812 4.2389612 -0.46211922 6
2.7693338 6.3181653 1.4800289 112
3.4244003 6.3277955 1.4006237 112
3.0445442 6.114017 -0.1645205 110
3.3629713 6.1094084 0.32195926 110
4.2031527 11.07762 1.5926021 103
3.7761757 6.3587079 1.5138896 105
3.0557275 6.1536736 0.609411 108
3.3981524 6.2257142 0.76825392 112
4.4336109 15.415885 1.6842029 2
3.4343014 6.3485308 1.5536829 111
3.0682566 6.1991534 0.90662092 108
3.7315435 6.217629 0.9793244 79
4.2127829 11.08867 1.857528 110
23.075825 63.140369 2.3745568 12
3.0842462 6.2582216 1.1428199 103
3.3972802 6.2080617 1.0651121 110
4.0182047 13.095401 1.9802433 1
5.3533034 13.032604 1.829379 3
2.7633801 6.2379866 1.1858079 111
3.7484751 6.2555156 1.2073679 104
4.2219076 11.098577 2.2563233 53
23.128073 74.998711 4.7783337 16
3.0944304 6.2852855 1.2914634 109
3.4186811 6.2690301 1.2503859 113
4.230998 11.122582 2.9950831 60
24.022678 78.031914 8.2273846 21
2.7734561 6.2724328 1.3323576 104
3.7647333 6.2913098 1.3600075 105
4.245544 11.169426 4.6663508 52
23.009748 74.419922 15.717443 13
3.1130123 6.3479118 1.4403858 114
2.8448625 4.2416892 -0.46549857 7
2.7945504 6.3298483 1.4797525 112
3.4467287 6.3214617 1.4006245 112
3.0670147 6.1127596 -0.16559744 110
3.3856268 6.107059 0.32117593 110
4.2439013 11.076323 1.592604 102
3.7960138 6.3435798 1.5139825 105
3.0783615 6.1524749 0.60879749 109
3.4223306 6.227097 0.76724541 112
3.4578142 6.346004 1.5536609 111
3.0919743 6.2018037 0.90576601 110
3.7532258 6.2102227 0.97932225 79
4.2523909 11.083445 1.8576182 50
23.074039 62.418282 2.3665211 12
3.1081786 6.2608414 1.1422637 102
3.4236333 6.2171407 1.0638126 110
4.0091114 12.792178 1.9714826 2
5.4001408 13.023339 1.8294498 2
2.7868624 6.2418108 1.1852982 111
3.7744474 6.2593794 1.206672 104
4.2627358 11.0972 2.2567902 22
23.111216 73.963684 4.7375174 16
3.1166122 6.2801061 1.2914643 109
3.4441495 6.2742252 1.2497599 113
4.2700605 11.113406 2.9950838 106
24.016819 76.996216 8.1459122 21
2.7955949 6.268374 1.3323586 104
3.7895384 6.291348 1.3597296 104
4.2865648 11.167713 4.6684237 52
23.022121 73.494743 15.555916 13
3.1372709 6.3504453 1.4402015 114
2.8586087 4.2302198 -0.46211767 8
2.817987 6.3255072 1.4797535 112
3.4723783 6.3224049 1.4003932 112
3.0923562 6.1186576 -0.16883039 110
3.4093454 6.1043177 0.32039261 110
4.2828488 11.058862 1.5926039 51
3.820806 6.3393474 1.5139368 103
3.1020713 6.1509366 0.60818386 109
3.4476209 6.2280707 0.76623672 112
3.4846864 6.3507466 1.553593 111
3.1158721 6.2002392 0.90533888 110
3.7775254 6.206131 0.97895133 79
23.11866 61.81036 2.3599219 12
3.1301641 6.251471 1.1425402 103
3.4489851 6.2181463 1.063164 111
4.0278683 12.634094 1.9670458 1
5.4538155 13.028589 1.8298028 3
2.8115578 6.2453427 1.1847893 111
3.799016 6.2552209 1.206441 104
4.2924452 11.040874 2.2539961 22
3.1408875 6.2784696 1.2912803 109
3.4674611 6.2675056 1.2497613 113
4.3082957 11.092052 2.9936223 104
2.8196402 6.2679567 1.3321981 104
3.8194957 6.3022346 1.359035 105
4.3296261 11.16538 4.6704969 60
22.985275 72.377953 15.358499 13
3.1618071 6.3487363 1.4401106 114
2.8739929 4.2295718 -0.46380639 6
2.8408051 6.32936 1.4796169 112
3.4970791 6.327734 1.4000471 112
3.114799 6.1212316 -0.17098415 110
3.4310279 6.1021171 0.31961012 110
4.3075032 10.999461 1.5926005 103
3.8421507 6.3320203 1.5139383 103
3.1246715 6.1536741 0.60695678 110
3.4697278 6.2257857 0.76573378 112
4.4894071 14.835783 1.6808892 3
3.5083494 6.3522034 1.5535491 111
3.139595 6.2068405 0.90405691 110
3.8010688 6.2064629 0.97821009 79
4.3217201 11.02985 1.8567798 20
23.073156 61.025562 2.3510478 12
3.1531203 6.2541862 1.1419849 103
3.4684501 6.2082295 1.0634873 110
5.5063848 13.046474 1.8303654 3
2.8332705 6.2452826 1.184535 111
3.8253021 6.2630334 1.2055131 104
4.3207278 10.997055 2.2519002 8
22.886497 71.326172 4.6315665 16
3.162904 6.2772789 1.2910955 108
3.4907699 6.2690067 1.2493443 113
4.3140421 10.955855 2.9775219 48
23.90901 74.675789 7.9614639 15
2.8406706 6.2639499 1.3321992 103
3.8379755 6.2873731 1.359314 105
22.98324 71.496086 15.204151 13
3.1840596 6.3474774 1.4400189 114
2.8879566 4.2217035 -0.46211541 7
2.8616014 6.3172178 1.4797566 111
3.5228572 6.3326378 1.3996999 112
3.1391869 6.1272006 -0.1742171 110
3.4548254 6.1032786 0.31804276 110
4.3557615 11.028844 1.5926057 57
3.867166 6.3317704 1.5138464 103
3.1482968 6.1560631 0.60572863 109
3.4916992 6.2192979 0.76573443 112
5.6020689 20.210117 1.7134216 3
3.5319154 6.3494091 1.5535269 111
3.1615024 6.2015052 0.90405768 109
3.8283038 6.21383 0.97672504 79
4.378787 11.094094 1.8585571 16
23.14163 60.543289 2.3459713 12
3.1761563 6.252676 1.1417072 101
3.4949632 6.2170143 1.0621877 112
4.287662 13.496053 1.9932125 12
5.5495863 13.025177 1.8302207 3
2.8542838 6.2370977 1.1847887 110
3.8500795 6.2628298 1.2050493 104
22.904549 70.486282 4.5989132 15
3.1879578 6.283494 1.2905393 107
3.5140476 6.2662711 1.249136 113
4.3265705 10.842388 2.9643488 39
23.987553 73.994576 7.9099722 15
2.8643341 6.2674999 1.3318754 103
3.8682158 6.3021922 1.3584793 106
22.698429 69.654633 14.867453 13
3.207428 6.3458672 1.4399271 114
2.9036684 4.2170367 -0.46211481 7
2.8842089 6.308712 1.4798268 110
3.5474663 6.3294544 1.3995845 112
3.1628203 6.1253357 -0.17529416 111
3.4797149 6.1040263 0.31647527 110
4.412044 11.080814 1.5926135 103
3.8906054 6.3235006 1.5138468 103
3.1720624 6.1542625 0.60511488 109
3.5124145 6.2048144 0.76674426 111
3.5565886 6.3461938 1.5535046 111
3.184469 6.1958227 0.9040584 109
3.8526587 6.2094522 0.97635406 79
4.4216347 11.091673 1.8587447 17
22.332294 57.596024 2.3101711 11
3.2012651 6.2546763 1.1411507 102
3.5296314 6.2482381 1.058938 113
4.3349876 13.474436 1.9928629 6
5.6010523 13.022169 1.8304316 3
2.8781714 6.236454 1.1845342 110
3.8730073 6.254621 1.205047 104
4.429965 11.097467 2.2591205 48
24.890045 76.052597 4.840045 16
3.2112248 6.2777143 1.29054 108
3.5384183 6.2631154 1.2489276 113
4.3324041 10.697708 2.9472721 34
23.980976 73.004868 7.832408 15
2.8875446 6.2629066 1.3318764 102
3.8983297 6.3127208 1.3577837 106
4.4566579 11.173863 4.6808562 46
3.2319074 6.3438911 1.4398352 114
2.9189601 4.2162309 -0.46380436 7
2.9101596 6.3280082 1.4794117 112
3.5722246 6.3345008 1.3992375 112
3.1843247 6.1239281 -0.17637122 110
3.5025043 6.1053314 0.31490791 110
4.4430828 11.04825 1.5926117 48
3.9172659 6.3309855 1.5136627 103
3.1946678 6.1567497 0.60388684 108
3.5320587 6.1947227 0.76724952 111
5.6907253 19.923187 1.7118592 14
3.5802307 6.3473902 1.5534596 111
3.2072263 6.1983151 0.90320343 108
3.8748453 6.2057667 0.97598326 79
22.311695 56.944347 2.3028879 11
3.2242265 6.2571383 1.1405945 102
3.5517664 6.2456889 1.0586137 113
5.6503692 13.02801 1.8307834 3
2.9006972 6.2400775 1.1840246 110
3.8980806 6.2583818 1.2043511 104
24.547562 74.054619 4.7579021 16
3.2330167 6.2762804 1.2903526 108
3.5617893 6.2643604 1.2485106 113
4.3315549 10.546391 2.92922 26
24.021378 72.279167 7.7766809 15
2.9101648 6.2665086 1.3315527 102
3.9181304 6.3013864 1.3579235 105
3.2482002 6.3191581 1.4402992 113
2.931762 4.2047591 -0.46042335 6
2.9365504 6.3430562 1.4790661 113
3.5957651 6.3314743 1.3991222 112
3.2078733 6.1258979 -0.17852592 111
3.5263913 6.1062217 0.31334043 110
3.9423561 6.3304482 1.5135709 103
3.2173915 6.1550512 0.60327327 109
3.5551043 6.1918073 0.76674563 110
5.7572432 19.8932 1.7117656 11
3.6062052 6.3519731 1.5533919 111
3.2321014 6.2042956 0.90192044 110
3.8981173 6.2016068 0.97561234 79
22.278931 56.241028 2.2949929 7
3.2463093 6.2515101 1.1405953 102
3.5761886 6.2465272 1.0579643 113
4.3112621 12.899853 1.9762763 2
5.6984634 13.021505 1.8309243 3
2.9235344 6.2394867 1.1837702 110
3.924299 6.2616458 1.2036551 104
24.814556 74.000847 4.7590432 16
3.2571807 6.2783542 1.2899821 109
3.5872216 6.2689872 1.2478818 113
4.322279 10.360148 2.9067724 27
24.000523 71.329437 7.7020512 15
2.9331026 6.2658892 1.3313913 102
3.9472756 6.3120909 1.357228 106
3.2715116 6.3173156 1.4402074 112
2.9499526 4.2105374 -0.46549296 7
2.9647114 6.3658261 1.4785817 115
3.6205113 6.3321762 1.398891 112
3.2314534 6.1277804 -0.18068099 111
3.5514874 6.1107626 0.31098878 111
7.0373554 20.603062 1.5937204 8
3.9660797 6.3260651 1.5135251 103
3.2431381 6.1647396 0.60081613 110
3.5781517 6.1888099 0.76624155 110
5.8384943 19.933439 1.7120987 10
3.6322346 6.3564529 1.5533241 111
3.2550111 6.2024879 0.90149325 110
3.926929 6.212297 0.9737559 79
5.0091834 12.856524 1.902131 11
6.4867249 13.104026 1.7554721 0
3.2704053 6.2535238 1.140039 101
3.6018426 6.2510743 1.0569898 113
4.3150377 12.69483 1.9704361 2
5.7501822 13.026263 1.8312758 3
2.9463882 6.2388139 1.1835158 109
3.9519577 6.2685466 1.2027271 104
7.0429029 20.527033 2.8299785 1
3.2813778 6.2803383 1.2896115 109
3.6117592 6.2697082 1.2474645 113
24.003422 70.475761 7.6355653 15
2.955194 6.2612791 1.331392 102
3.9737077 6.3151798 1.3568107 106
4.3745513 10.397107 4.4737167 1
23.562586 69.016083 14.802834 13
3.2948041 6.3153896 1.4401153 112
2.9637685 4.2024274 -0.46380246 8
2.9879937 6.3650155 1.478513 116
3.6464834 6.3365912 1.3985436 112
3.2590127 6.1444631 -0.18714762 114
3.5754244 6.1114664 0.30942118 110
3.9925866 6.3290849 1.5133868 104
3.2648768 6.1590481 0.60081673 109
3.6023912 6.1895065 0.76523274 110
4.0781622 11.413427 1.6605279 3
3.6558604 6.3532109 1.5533017 111
3.2779078 6.2005959 0.90106595 110
3.9516273 6.2116761 0.97301346 79
5.0594344 12.863945 1.9025989 5
3.2934847 6.2515893 1.139761 102
3.6263151 6.2517219 1.0563402 113
5.8007464 13.027009 1.8315567 2
2.9683881 6.2341576 1.1835165 110
3.9768643 6.2678556 1.2022629 104
23.002184 66.584221 4.4478664 15
3.3045549 6.2783718 1.2894263 109
3.6350846 6.2665315 1.247256 113
24.027273 69.706429 7.576231 15
2.9787252 6.2644024 1.3310657 104
3.9988046 6.3144193 1.3565327 106
4.4100785 10.383706 4.4726815 0
23.773502 68.845406 14.784883 13
3.3160527 6.305656 1.4402087 112
2.9757187 4.1910615 -0.46042132 11
3.0101967 6.3643627 1.4784447 116
3.6689663 6.333653 1.3984283 112
3.2756143 6.1241302 -0.18283534 111
3.6031704 6.1273532 0.30471766 112
3.363111 6.4439244 1.592086 3
4.0180597 6.3324165 1.5132489 104
3.2886369 6.1650181 0.59897417 110
3.6256003 6.1904607 0.76422405 110
3.6796331 6.3540473 1.5532566 111
3.2997508 6.198915 0.90063882 110
3.9781084 6.2188191 0.97152847 79
5.1044173 12.860197 1.9027865 4
6.4954901 12.857433 1.7527941 2
3.3155017 6.2498698 1.1394832 101
3.6497464 6.2526312 1.0556908 113
5.8478785 13.024497 1.8317678 3
2.9901605 6.2335629 1.1832621 110
4.0035553 6.274951 1.2013347 104
23.092279 66.110039 4.4305601 15
3.3256168 6.2727628 1.2894272 110
3.6585741 6.2674236 1.2468388 113
24.029322 68.926544 7.515615 15
3.0006018 6.2637777 1.3309042 104
4.0197234 6.3065062 1.3565304 106
23.910639 68.490936 14.731041 13
3.3382659 6.3038678 1.4401169 112
2.9905956 4.1863179 -0.46042073 7
3.0335252 6.3633904 1.4783763 116
3.6938033 6.3340778 1.3981971 112
3.2962189 6.1146135 -0.18175673 110
3.6333394 6.1465054 0.29922974 113
4.0575466 6.368854 1.5126954 105
3.3114462 6.162982 0.59836048 110
3.6486869 6.1872087 0.76371998 110
3.7045469 6.3544369 1.5532116 111
3.3226862 6.1968641 0.90021157 110
4.0000572 6.2105651 0.97152889 79
22.243605 53.83683 2.2683918 7
3.3386192 6.2477756 1.1392055 102
3.6743011 6.253099 1.0550413 113
4.0922861 11.07812 1.922891 75
5.8973093 13.021076 1.8319789 2
3.0130358 6.2326522 1.1830077 111
4.0257001 6.2666078 1.2013352 104
23.212074 65.696777 4.416028 15
3.3488183 6.2706385 1.2892423 110
3.6844373 6.2716694 1.2462127 113
24.017315 81.300491 11.954777 27
24.013372 68.067795 7.4484811 14
3.0244579 6.2667351 1.3305805 104
4.0505805 6.320497 1.3556957 106
23.872614 67.57177 14.56949 13
3.3613091 6.3016996 1.4400223 112
3.0077262 4.1884065 -0.46380031 7
3.0577385 6.3662348 1.4782386 116
3.7148957 6.3230181 1.3983135 111
3.3198628 6.1161628 -0.18391168 105
3.6574979 6.1469016 0.29766238 113
3.4085617 6.4316258 1.5920875 9
4.0857806 6.3752441 1.5125113 105
3.3363729 6.1684799 0.59651786 110
3.6730185 6.1876369 0.76271135 110
4.1284289 11.087126 1.6587054 108
3.7294836 6.3547292 1.5531666 111
3.347754 6.2023916 0.89892858 110
4.0248466 6.209662 0.97078651 79
5.1999769 12.854851 1.9032555 4
22.230993 53.24604 2.2618589 7
3.3617389 6.2455969 1.1389276 102
3.7001352 6.2572556 1.0540668 113
4.1320772 11.073337 1.9230089 108
5.9467702 13.017467 1.8321898 2
3.0376821 6.2394452 1.1822426 111
4.0535827 6.2730803 1.200407 103
24.09889 80.58905 6.4729662 39
23.147724 64.737343 4.3779869 15
3.3741693 6.2761259 1.288686 110
3.7090898 6.2720199 1.2457955 113
23.998022 80.135841 11.816206 27
23.981684 67.179718 7.3787384 14
3.0474615 6.265707 1.3304191 104
4.0743256 6.3157153 1.355557 106
4.4778314 10.213068 4.4333234 0
23.892204 66.844101 14.444574 12
3.3857007 6.3032985 1.4398379 113
3.0200279 4.1766725 -0.46042144 6
3.0772653 6.3494945 1.4784447 114
3.7473488 6.346014 1.3973866 113
3.3445699 6.1213312 -0.18714464 109
3.6829193 6.1509237 0.29531062 113
3.4377432 6.4484611 1.5920907 16
4.1082602 6.3666124 1.5125115 105
3.3570633 6.1586609 0.59713292 110
3.6973677 6.1879711 0.76170248 110
4.1691475 11.086114 1.6587535 108
3.7620695 6.3776798 1.5529845 113
3.3717923 6.2039938 0.89807326 110
4.0525475 6.2160821 0.96930134 80
5.2461548 12.84614 1.9033493 4
22.223244 52.678349 2.2556069 7
3.3870211 6.2510147 1.1380925 102
3.7247441 6.2575293 1.0534172 113
4.171854 11.068411 1.9231265 108
5.9962482 13.013672 1.8324006 2
3.06059 6.2383633 1.181988 110
4.0786171 6.2719989 1.1999429 104
23.125349 63.923149 4.346148 14
3.3984816 6.277669 1.2883153 110
3.7324848 6.2684903 1.245587 113
23.986048 66.417404 7.3197498 14
3.0695648 6.2607007 1.3304198 105
4.100976 6.3182874 1.3551396 106
23.919546 66.154411 14.326836 12
3.416657 6.3278909 1.4390976 114
3.0359979 4.1752095 -0.462111 7
3.0987515 6.3404894 1.4785148 114
3.7746062 6.3537116 1.3969206 115
3.3680267 6.1226969 -0.18930233 109
3.7071524 6.1511335 0.29374301 113
3.4550152 6.4228601 1.5920893 22
4.1380644 6.3765087 1.5122811 105
3.3842306 6.1715817 0.59406137 110
3.719213 6.1806993 0.76170301 110
4.2062693 11.069374 1.658707 102
3.7871473 6.3777561 1.5529393 114
3.3947878 6.2016816 0.89764613 110
4.0788774 6.2186832 0.96818757 80
5.3022203 12.871869 1.9042848 8
22.177973 52.025822 2.2482758 7
3.4101851 6.2486615 1.1378146 102
3.7481148 6.2539368 1.0530927 113
4.2180181 11.090597 1.924062 108
6.0457668 13.009693 1.8326114 3
3.0826154 6.2333136 1.181989 110
4.1080985 6.2819624 1.1987826 102
24.084181 78.41481 6.350637 40
23.091108 63.090988 4.3134947 14
3.4217429 6.2752805 1.2881303 110
3.7597601 6.2762203 1.2447519 113
24.082485 78.321411 11.604445 27
24.044477 65.829483 7.2757525 14
3.0934944 6.263401 1.330096 105
4.1276922 6.320756 1.3547224 106
3.4434087 6.3369722 1.438728 114
3.048475 4.1633983 -0.45873034 7
3.1211362 6.3353052 1.4785157 114
3.8022158 6.3612981 1.3964574 115
3.3917856 6.1239758 -0.19145727 110
3.7311454 6.1512451 0.29217291 113
3.4818573 6.4318008 1.5920889 30
4.165 6.3788433 1.512143 105
3.4071112 6.169199 0.59344763 110
3.7436004 6.1808572 0.76069432 110
4.246067 11.064189 1.6587316 66
3.8109462 6.3739529 1.5529171 114
3.4177814 6.1992855 0.89721888 110
4.105248 6.2211766 0.96707386 79
5.3473816 12.858953 1.9042854 5
22.350819 51.931469 2.2479901 7
3.4333477 6.2462244 1.1375368 102
3.7727742 6.2540269 1.0524431 113
4.2514219 11.058139 1.9233619 27
6.0940061 13.001746 1.8327521 3
3.1073859 6.2398376 1.1812236 111
4.1302624 6.2732549 1.1987829 101
23.18141 62.63776 4.2971659 14
3.4483442 6.284318 1.2873883 110
3.7819064 6.2687292 1.2447524 112
24.168819 77.598228 11.521985 27
24.021187 65.015808 7.2122021 14
3.1174531 6.2660117 1.3297722 105
4.1529627 6.3194027 1.3544444 106
24.068361 65.089455 14.151663 12
3.4657688 6.330585 1.4387287 115
3.0620604 4.1549783 -0.45703924 7
3.1425557 6.3261547 1.478586 113
3.8259645 6.3574376 1.396342 115
3.4144804 6.1214685 -0.19253445 110
3.7567053 6.1549745 0.28982127 113
3.4989264 6.4060855 1.5920875 30
4.1932135 6.384778 1.511956 105
3.4286232 6.1629391 0.5934456 109
3.770613 6.1884212 0.75867611 110
4.278367 11.02775 1.6585665 56
3.8373649 6.3776207 1.5528491 114
3.4430146 6.2044406 0.89593571 110
4.128685 6.216177 0.96670276 80
5.3936176 12.849721 1.9043794 4
22.134361 50.87207 2.235491 7
3.4576354 6.2475324 1.1369803 102
3.7974575 6.2540245 1.0517936 113
4.2855635 11.02947 1.9227786 27
6.1461778 13.004956 1.8331033 3
3.130343 6.2385068 1.1809691 111
4.156877 6.2755814 1.1980867 101
24.062763 76.321426 6.2329683 21
23.183376 61.939331 4.2702255 14
3.4693899 6.2740831 1.2875746 109
3.804023 6.2611632 1.2447529 111
24.201023 76.707848 11.418056 27
24.075094 64.440285 7.1691818 14
3.1414452 6.2685342 1.3294482 105
4.1767526 6.3142481 1.3543055 105
24.022263 64.22673 14.000183 12
3.4914951 6.335629 1.4384515 115
3.0780029 4.1533589 -0.45872903 8
3.1610911 6.3052773 1.4788642 111
3.851038 6.3572631 1.3961105 115
3.4382763 6.1225719 -0.19468963 110
3.7784274 6.1474962 0.28982162 113
3.5215273 6.3995061 1.5920881 35
4.218749 6.3831859 1.5118638 105
3.453748 6.167974 0.5916028 109
3.8027017 6.2108469 0.7546367 112
4.3168383 11.018418 1.6585631 39
3.8638387 6.3811822 1.552781 114
3.4671764 6.2056828 0.89508045 110
4.1536226 6.2147775 0.9659602 80
5.451232 12.878656 1.9054081 8
22.779736 51.948498 2.2500486 7
3.4808202 6.2449241 1.1367023 103
3.8208475 6.2501655 1.0514688 113
4.3328629 11.055068 1.9238307 12
6.2050667 13.026823 1.8338056 3
3.1542616 6.2409692 1.1804593 111
4.1805258 6.2704039 1.1978548 80
24.136696 75.59584 6.1935892 21
23.196686 61.2869 4.2452435 14
3.4949529 6.2790952 1.2870182 110
3.8247895 6.249753 1.2449622 110
24.150461 63.936615 7.1323533 14
3.1645222 6.2670846 1.3292866 105
4.2035632 6.3164053 1.353888 106
33.791962 107.7818 31.742844 41
23.976988 63.383671 13.852293 12
3.5184269 6.3444037 1.4380816 115
3.0915313 4.1448455 -0.45703828 8
3.1891067 6.3231716 1.4784489 113
3.8761368 6.3569927 1.395879 115
3.4632096 6.127275 -0.19792259 110
3.8053646 6.1547303 0.28668594 113
3.5452557 6.3966784 1.5920892 41
4.2443037 6.3814936 1.5117718 105
3.4766548 6.165339 0.59098887 109
3.828599 6.2144275 0.75312322 112
4.3738356 11.08272 1.6590142 30
3.8874297 6.3770976 1.552756 114
3.4922552 6.2106385 0.89379448 110
4.1801052 6.2169657 0.96484655 79
5.4929695 12.853733 1.9051282 4
22.844059 51.589516 2.246428 7
3.5051699 6.2460513 1.1361458 103
3.8375716 6.227438 1.0527697 112
6.2440748 12.991916 1.8334546 3
3.1772628 6.2394695 1.1802047 111
4.2056999 6.2688317 1.1973909 102
23.255304 60.774452 4.2263036 14
3.5217385 6.2878337 1.2862763 110
3.8455129 6.2382746 1.2451717 109
22.813276 70.178421 10.600299 16
24.100849 63.091484 7.0658708 14
3.1876175 6.265553 1.3291252 105
4.2289066 6.3147583 1.35361 106
34.151531 107.61338 31.727304 41
23.894394 62.452766 13.687174 12
3.5431376 6.3454137 1.4378972 115
3.1086903 4.1465321 -0.46041787 7
3.2133732 6.3254352 1.4783112 113
3.8985684 6.3491006 1.3958796 113
3.4904423 6.1392531 -0.2033112 110
3.8297367 6.1544724 0.28511834 113
3.5689921 6.3937669 1.5920904 48
4.2714157 6.3834 1.5116336 105
3.500721 6.1664052 0.58976066 108
3.8518727 6.2104368 0.75261915 112
4.41471 11.080819 1.6590626 51
3.9153357 6.3842249 1.5526652 114
3.5164957 6.2116961 0.89293939 110
4.2078857 6.2227244 0.96335864 79
5.5436239 12.859281 1.9055915 3
22.826277 51.038666 2.2403636 7
3.5306873 6.2509055 1.1353106 102
3.8608789 6.223434 1.0524449 111
4.4222126 11.08242 1.9252341 74
6.2977448 12.998301 1.8338758 3
3.2002449 6.2378874 1.1799501 111
4.2293348 6.2634778 1.1971588 104
23.209034 59.980324 4.195117 14
3.5450773 6.2850008 1.2860911 110
3.8702154 6.2380066 1.2447542 106
23.090815 70.210358 10.613958 16
24.018513 62.172478 6.9928684 14
3.2116752 6.2678132 1.3288012 105
4.2588539 6.3240867 1.3529142 108
34.610828 107.77259 31.803944 41
23.942965 61.904541 13.595997 12
3.5690227 6.3501549 1.4376199 115
3.1196928 4.1311035 -0.45534706 7
3.2356839 6.3198547 1.4783118 113
3.9209514 6.3411303 1.39588 112
3.5132279 6.1363897 -0.20438874 105
3.8554487 6.1578069 0.28276658 113
3.5938847 6.3945937 1.5920917 51
4.2985458 6.3851991 1.5114952 105
3.5236263 6.1636028 0.58914673 108
3.8791709 6.217556 0.75060081 112
3.9391904 6.379962 1.5526427 114
3.5395589 6.2088656 0.8925119 110
4.2328877 6.2210293 0.96261597 79
5.5957494 12.86847 1.9061525 6
22.81719 50.518166 2.2346802 7
3.5563359 6.2556658 1.1344762 103
3.8842535 6.2193542 1.052121 110
6.3488116 12.996981 1.8341581 2
3.2232981 6.2362323 1.1796963 111
4.2514768 6.2543702 1.1971599 104
22.765068 58.109482 4.1170826 14
3.5708385 6.2897296 1.2855355 110
3.8949943 6.2376623 1.2443376 106
23.314417 70.066902 10.60518 16
24.00742 61.468533 6.938448 14
3.2368102 6.2738681 1.3283156 105
4.2920427 6.3406763 1.3519409 108
35.01482 107.74935 31.82984 41
23.002501 58.654339 12.980044 12
3.5902653 6.3395343 1.4377139 115
3.1369278 4.1326761 -0.45872605 7
3.2600703 6.3219433 1.4781747 113
3.9420304 6.3293281 1.395997 111
3.5361142 6.1334448 -0.20546508 102
3.8799605 6.1573558 0.28119957 113
3.6224802 6.4067812 1.5920953 58
4.3258247 6.3868842 1.5113578 105
3.5466394 6.1607175 0.58853364 107
3.9039249 6.2171068 0.74959272 112
6.9648132 20.59767 1.7174631 17
3.9590249 6.3643394 1.5526894 112
3.5651093 6.2135391 0.89122951 110
4.2564731 6.2155609 0.96224558 79
5.6385913 12.846906 1.9059672 10
22.815527 50.024036 2.229306 7
3.5793395 6.2526975 1.1341956 103
3.9089458 6.2189217 1.0514715 110
6.4026728 13.002942 1.8345793 3
3.248318 6.2422113 1.178931 111
4.276659 6.2525234 1.1966958 104
23.134933 58.489223 4.1368332 14
3.5942237 6.2867179 1.2853503 110
3.918381 6.2334557 1.2441291 107
23.14357 68.664825 10.434405 16
23.018471 58.12014 6.6536217 14
3.2599556 6.2720771 1.3281541 105
35.419884 107.72431 31.85573 41
23.044106 58.136276 12.893892 12
3.6162224 6.3440881 1.4374367 115
3.1490784 4.1205783 -0.45534527 8
3.284409 6.3239398 1.4780368 113
3.9699113 6.3362055 1.3955338 112
3.5612388 6.1377625 -0.20869803 55
3.9030516 6.1531305 0.28041601 113
3.6414709 6.3883314 1.5920945 67
4.3373575 6.351675 1.5116811 104
3.5707631 6.1615157 0.58730543 107
3.9299998 6.2202816 0.74807924 112
3.9800866 6.3524079 1.5527128 111
3.5894344 6.2143183 0.89037424 110
4.2831011 6.2173281 0.96113175 79
5.6896925 12.851885 1.906435 2
22.589165 49.012012 2.2173238 7
3.6038117 6.2534523 1.1336391 103
3.9334064 6.2183895 1.0508192 110
4.9615555 12.657035 1.9737154 3
6.4524517 12.997438 1.8347898 3
3.2713556 6.2403727 1.1786762 111
4.3034244 6.2542477 1.1959994 104
23.169327 57.956741 4.1169114 14
3.6163969 6.2798114 1.2853508 110
3.9417586 6.2291617 1.2439203 106
3.2831013 6.2702012 1.3279924 105
4.3320045 6.3108921 1.3523588 13
35.79599 107.60567 31.855724 41
23.048042 57.526447 12.789794 11
3.6422286 6.3485389 1.4371593 115
3.1635222 4.1191721 -0.45703459 8
3.3055336 6.3225665 1.4779682 113
3.9914436 6.3325591 1.3954183 112
3.5889413 6.1573458 -0.21624255 61
3.9171157 6.1312537 0.28355265 21
3.6654172 6.3934031 1.5920966 73
4.3591199 6.3468022 1.5116352 104
3.5915506 6.1591439 0.5866915 108
3.9539394 6.2241645 0.74656582 112
3.9974661 6.3374925 1.5527588 110
3.6116071 6.2156992 0.88951892 110
4.3060136 6.2162685 0.96038932 79
5.7302856 12.839058 1.9064355 3
22.754358 48.97163 2.2176492 7
3.6273332 6.2586122 1.1328039 103
3.9545679 6.2148461 1.0504946 110
6.4974623 12.993447 1.8349961 3
3.2930021 6.2428875 1.1781638 111
4.3312259 6.2641382 1.194839 77
23.170378 57.406094 4.0958495 13
3.6400232 6.2849464 1.2847946 110
3.9671822 6.2368183 1.2430853 109
23.175892 67.20121 10.264118 15
23.151613 57.305218 6.5949564 14
3.3030405 6.2649689 1.3279933 105
36.222679 107.7737 31.933401 41
23.032259 56.935837 12.687852 11
3.66608 6.3535995 1.4368823 115
3.1775794 4.1101208 -0.45534432 6
3.3310318 6.3240933 1.4778302 113
4.0205441 6.3388104 1.3949547 112
3.6224022 6.1831026 -0.22594297 57
3.9439859 6.1338243 0.28120065 8
3.6915498 6.3934999 1.5920979 75
4.384213 6.3404112 1.5115891 103
3.6155806 6.1556616 0.58607745 107
3.9783936 6.2193046 0.74606127 112
7.2233014 20.711504 1.7185076 10
4.0308433 6.3549466 1.5525993 111
3.6370769 6.2159495 0.88866341 109
4.3322134 6.2137079 0.95964652 78
5.7800379 12.831539 1.9066224 4
23.239202 49.594181 2.2266145 7
3.6529717 6.2588301 1.1322471 103
3.981823 6.2174554 1.0495197 110
6.5027738 12.863317 1.8328886 3
3.3171697 6.2405901 1.1779089 111
4.3637428 6.2761412 1.1934435 102
23.305775 57.128689 4.0871916 13
3.6682324 6.2927284 1.2840521 109
4.0016203 6.2580743 1.2414141 112
23.146458 66.272163 10.154332 15
23.11973 56.588615 6.5392256 14
3.3304355 6.2742109 1.3273444 105
4.3818035 6.3069854 1.3518023 62
23.910643 68.554909 20.914518 29
23.059305 56.378819 12.59452 11
3.69208 6.3536882 1.4366974 115
3.1895773 4.0979118 -0.4519639 7
3.3543959 6.3219671 1.4777614 113
4.0457535 6.3378901 1.3947231 112
3.6502001 6.1944108 -0.23133194 66
3.9656267 6.1257019 0.281201 5
3.7140994 6.3862572 1.5920982 75
4.4113994 6.3417373 1.5114506 103
3.6397579 6.156199 0.58484888 107
4.0060015 6.2258868 0.74404293 112
7.3031979 20.718855 1.7186738 12
4.0546856 6.3502564 1.5525767 111
3.6614826 6.2164574 0.88780802 110
4.357338 6.2115221 0.95890391 78
5.8300233 12.832169 1.9069964 3
23.199783 49.035191 2.2204094 7
3.6775367 6.2593064 1.1316904 103
4.0080338 6.2203703 1.0485449 110
5.2385688 13.154091 1.9898386 1
3.3402457 6.2385044 1.1776543 111
4.382659 6.2592449 1.1939079 104
23.167274 56.172005 4.0486431 13
3.6914182 6.289362 1.2838643 109
4.0308599 6.2683992 1.2403699 113
23.123064 56.00708 6.4949017 14
3.3547039 6.2759366 1.3270204 105
23.106613 55.91431 12.518419 11
3.7170014 6.3540421 1.4365127 115
3.2047219 4.0960927 -0.45365286 7
3.3788149 6.3277693 1.4775543 113
4.0684576 6.3335667 1.3946078 112
3.6721997 6.1913271 -0.23240888 68
3.9904237 6.1288934 0.27884948 5
3.738039 6.3868985 1.5920999 76
4.4359174 6.3397841 1.5113587 103
3.6629052 6.1569977 0.58362079 107
4.0311832 6.2290707 0.74252963 112
4.081758 6.3570962 1.5524859 111
3.6835976 6.2134547 0.88738084 109
4.3814139 6.2097158 0.95816147 79
5.8778472 12.833345 1.9073709 3
21.707188 45.234592 2.1724977 5
3.7023101 6.2638369 1.1308554 102
4.0332246 6.2235975 1.0475702 110
5.2277799 12.945592 1.9838815 1
22.327379 53.496506 2.5986505 10
3.3633263 6.2404823 1.1771444 111
4.4166369 6.2792668 1.1920511 101
23.170389 55.626945 4.0279069 11
3.7150431 6.2900672 1.2834936 109
4.0559554 6.2715669 1.2397408 113
23.19043 64.899673 9.9957342 15
23.114407 55.43367 6.4509039 10
3.3778954 6.2778754 1.3266964 105
23.092903 55.329159 12.417911 11
3.7408266 6.3546672 1.4363281 115
3.2173264 4.0835304 -0.45027244 8
3.4033113 6.3251605 1.4774854 113
4.0962458 6.3357553 1.3942599 112
3.6951115 6.1837935 -0.23240864 41
4.0145302 6.1238489 0.27806544 5
3.7603981 6.3753295 1.5920997 77
4.4626379 6.3367529 1.5112662 103
3.6869471 6.1532464 0.58300662 107
4.0571175 6.2276154 0.74152029 112
9.4459229 27.774754 1.7623708 1
4.1067305 6.3517871 1.5524632 111
3.7078545 6.2096496 0.88695318 109
4.4125323 6.2177558 0.95630449 79
23.226257 48.179016 2.211334 7
3.7242186 6.252409 1.1311343 102
4.0591564 6.2221665 1.0469203 110
5.2233176 12.747606 1.978274 2
23.068428 54.813274 2.624912 10
3.3885901 6.2417641 1.1766341 111
4.4447718 6.2799335 1.1913544 101
23.165966 55.015438 4.0045557 11
3.7395904 6.2861638 1.2833083 109
4.0820727 6.2700653 1.2393231 113
23.126844 54.868301 6.4081917 10
3.4030542 6.27911 1.3263695 105
4.4549952 6.2923856 1.3512458 102
23.068752 54.671314 12.304478 8
3.7681766 6.3582516 1.4360505 115
3.2311089 4.0782375 -0.45027208 9
3.425622 6.3230848 1.4774168 113
4.1204228 6.3349762 1.3940284 112
3.7220273 6.1951494 -0.2377975 19
4.0379496 6.1232004 0.27649772 5
3.7856259 6.3795896 1.5921016 78
4.4871793 6.3346071 1.511174 103
3.7075915 6.1463852 0.5830071 107
4.0809164 6.2269082 0.74051136 112
4.1324334 6.3546953 1.5523951 111
3.7312393 6.2102513 0.88609773 108
4.4350281 6.2121167 0.95593327 79
5.9768076 12.829874 1.9080253 7
23.226276 47.753624 2.2067738 7
3.7503195 6.2605391 1.1300205 102
4.0829558 6.2214866 1.0462705 110
5.2372632 12.635657 1.9752371 1
24.612417 58.190022 2.6900148 15
3.4117243 6.2435675 1.1761241 111
4.4658327 6.2705579 1.1913545 66
23.167809 54.486549 3.984472 11
3.7632475 6.2866931 1.2829374 109
4.1045723 6.2656078 1.2391145 113
23.114305 63.191448 9.7937298 15
23.118254 54.314785 6.3658228 10
3.4252186 6.2770305 1.3262079 105
4.4873958 6.3084583 1.350269 106
24.082594 65.973526 20.272346 29
23.044455 54.080395 12.202535 7
3.7920794 6.3586926 1.4358658 115
3.2476342 4.0757051 -0.45196187 8
3.4523611 6.3279829 1.4772092 113
4.1483097 6.3369446 1.3936807 112
4.0606256 6.1143274 0.27649784 4
3.8131323 6.3829918 1.5921031 78
4.5156069 6.3350039 1.5110354 103
3.7341986 6.1499395 0.581164 107
4.1039724 6.2178769 0.74051142 112
9.5646114 27.458199 1.7607582 6
4.1589203 6.3529058 1.5523494 112
3.755527 6.206264 0.88567013 108
4.4629898 6.212657 0.95481896 79
6.0292463 12.828979 1.9083989 4
23.188717 47.208454 2.2007554 6
3.7760925 6.2602668 1.1294636 102
4.1104255 6.2235556 1.0452955 110
22.334429 51.865391 2.5720172 10
3.4348464 6.2369885 1.1761246 111
4.4923677 6.2673788 1.1908902 75
23.167423 53.906208 3.9624271 11
3.7904239 6.2901611 1.2823806 109
4.1351843 6.2750349 1.23807 113
23.124992 53.754436 6.3234534 10
3.4506931 6.2780781 1.3258835 105
4.5140772 6.3052058 1.3499905 106
24.028811 65.032333 20.028954 29
23.056818 53.537567 12.111339 7
3.8179674 6.3582783 1.4356781 114
3.2573359 4.0602212 -0.44689083 8
3.474705 6.3257399 1.4771405 113
4.1755209 6.3433952 1.3932172 112
4.3413749 7.8439827 -0.73038554 6
4.0855241 6.1171484 0.27414596 4
3.8384619 6.3870525 1.592105 78
4.5468769 6.3471975 1.5107585 105
3.7587099 6.1541286 0.57932103 107
4.124826 6.2096343 0.74051172 111
9.6277781 27.33576 1.7601656 6
4.1847019 6.3556132 1.5522813 112
3.7789497 6.2066927 0.88481474 106
4.4938211 6.2249289 0.95259088 79
6.0785646 12.833207 1.9088665 4
23.194748 46.809765 2.1965237 6
3.799705 6.2606521 1.128907 102
4.1372581 6.2300839 1.0439956 111
5.5599508 13.408182 1.999537 2
22.283751 51.243755 2.5615492 10
3.4580152 6.2386255 1.1756146 111
4.5217466 6.275979 1.1897295 78
23.160883 53.374897 3.9421804 11
3.8141437 6.2905064 1.2820097 109
4.1607127 6.277802 1.2374436 113
23.112309 53.209682 6.2817369 10
3.4751332 6.2835054 1.325397 105
4.5452781 6.317378 1.3491553 57
24.038778 64.366592 19.861166 28
23.050177 53.010174 12.021599 7
3.8392887 6.3509836 1.4356787 114
3.2742143 4.0612278 -0.4502728 7
3.4990354 6.3269253 1.4769998 113
4.1994019 6.3381715 1.3931016 112
4.3677168 7.8308311 -0.72930741 5
4.1144891 6.1267071 0.270226 4
3.8623159 6.3830762 1.5921059 78
4.5911622 6.3841343 1.5101585 105
3.783042 6.1541171 0.57809269 108
4.1437497 6.193532 0.7415213 110
4.2101345 6.354063 1.552236 111
3.803484 6.2066555 0.88395929 107
4.5157828 6.21489 0.952591 79
6.1275568 12.828917 1.909147 4
23.257088 46.516586 2.1937001 6
3.8231177 6.2568002 1.1286287 102
4.1742687 6.2582169 1.0407455 113
5.5398006 13.168248 1.9926448 1
23.001192 52.493702 2.5866175 10
3.484581 6.247508 1.1745937 111
4.5506277 6.280323 1.1888009 78
23.241751 53.040321 3.930748 10
3.8363388 6.2828398 1.2820102 108
4.1858768 6.2763233 1.237026 112
23.169617 61.240196 9.5692759 14
23.149126 52.768898 6.2494702 10
3.4984469 6.2808528 1.3252354 105
4.5624952 6.2962894 1.349573 104
24.030056 63.624706 19.672665 28
22.705925 51.638084 11.766026 7
3.8656805 6.3545437 1.4354013 114
3.2886295 4.055459 -0.45027232 8
3.5259519 6.3356829 1.476723 113
4.2260609 6.3402529 1.3927512 112
4.2125645 7.3055606 -0.57625198 6
4.1390991 6.125246 0.26865804 4
3.8861854 6.3790054 1.5921067 78
4.6187925 6.3846092 1.5100199 105
3.8087411 6.1577296 0.57624948 107
4.1701536 6.195715 0.74000752 110
6.2277088 15.318988 1.686146 0
4.2371473 6.3560972 1.5521675 111
3.8280838 6.2065096 0.88310373 108
4.5445204 6.2191758 0.95110536 79
6.1780119 12.828173 1.9095207 4
23.251793 46.082142 2.1890445 6
3.8479183 6.2566042 1.1280719 102
4.1994438 6.2566414 1.0400956 113
5.5377421 12.993668 1.9877384 1
22.972221 51.900688 2.5767798 10
3.509002 6.2486153 1.1740835 111
4.5762606 6.2772756 1.1883365 105
23.31749 61.033398 5.370575 17
23.242193 52.513348 3.9108262 10
3.8626101 6.2863579 1.2814535 108
4.2111588 6.2747064 1.2366083 113
22.800373 59.522194 9.3550768 14
23.129358 52.195442 6.2054715 10
3.5241792 6.2857347 1.3247488 103
4.5984359 6.3148937 1.3484594 106
24.017574 62.883282 19.484161 28
23.044815 51.945763 11.841399 7
3.8855374 6.339119 1.4355868 114
3.3016324 4.0462928 -0.44858158 7
3.5494595 6.3328509 1.4766542 112
4.2484193 6.3311505 1.3927513 111
4.2188253 7.2420959 -0.56008327 7
4.1664534 6.1309428 0.26551938 4
3.9124687 6.3823853 1.5921056 78
4.6480618 6.3886003 1.5098343 105
3.8317168 6.1538067 0.5756346 107
4.1935396 6.1904764 0.73950309 110
6.2627831 15.241615 1.6857668 0
4.2565088 6.3395686 1.5522134 110
3.8526738 6.206286 0.88224828 109
4.571578 6.2197642 0.94999129 79
22.010815 43.045773 2.150574 4
3.8740423 6.2600918 1.1272366 102
4.2245798 6.2549982 1.0394458 113
22.217697 49.572876 2.5339336 9
3.5333853 6.2496543 1.1735734 111
4.6035404 6.2777781 1.1876401 77
23.172794 59.961468 5.3088264 17
23.23229 51.972595 3.8902512 10
3.8874986 6.2860475 1.2810825 108
4.2363682 6.2730346 1.2361907 113
23.027046 59.500244 9.3619032 14
23.121759 51.66367 6.1650572 9
3.5463638 6.2790837 1.3247495 104
4.6292882 6.3225489 1.3477633 54
22.826441 58.885998 18.36767 28
23.046234 51.438419 11.755963 7
3.9051962 6.3236823 1.4357724 113
3.3174038 4.0437765 -0.45027149 6
3.5741639 6.3337564 1.476516 113
4.283102 6.351481 1.391824 114
4.2220736 7.1714349 -0.54175913 4
4.1896124 6.1256676 0.26473558 4
3.9363558 6.3781381 1.5921065 78
4.6755953 6.3888526 1.509694 105
3.8573053 6.1572289 0.57378983 108
4.2166557 6.1851463 0.73899597 110
4.2927885 6.3635659 1.5520082 111
3.8772945 6.205966 0.88139272 109
4.6021137 6.2274256 0.94813424 79
6.2788768 12.826182 1.9102682 4
23.207909 45.164989 2.1790743 6
3.8975017 6.25597 1.1269584 101
4.2528248 6.2606087 1.0381458 113
22.194418 49.03231 2.5250077 9
3.5554495 6.2429709 1.173574 111
4.6308661 6.2781663 1.1869434 102
23.169426 51.314621 3.8644509 10
3.911052 6.2818828 1.2808971 108
4.2646961 6.2786293 1.235355 113
22.99069 58.753582 9.2740726 14
23.130831 51.180351 6.1288776 9
3.5720739 6.2838097 1.3242629 103
4.6516004 6.3120399 1.3477632 77
23.044037 58.844326 18.376984 28
23.058149 50.964329 11.676989 7
3.928885 6.319458 1.4356802 112
3.3282461 4.031477 -0.44689059 7
3.5977926 6.3349113 1.476378 113
4.3106279 6.3573818 1.3913605 110
3.9009688 6.2185125 -0.26043272 4
4.2162733 6.1315999 0.26159954 4
3.9632504 6.3854809 1.5921087 79
4.7022285 6.3895297 1.5095555 105
3.8820455 6.1609435 0.57194686 107
4.2420459 6.1874986 0.73748231 110
23.069265 68.823242 2.0185838 20
4.3232117 6.3768034 1.5518687 113
3.9005888 6.2059464 0.88053459 110
4.6264453 6.2247114 0.94739139 79
6.3298798 12.833223 1.9108286 4
23.236269 44.84095 2.1757793 5
3.9225941 6.259655 1.126123 101
4.2784724 6.2628908 1.0371708 113
22.210592 48.617649 2.5183997 9
3.5811419 6.2517924 1.1725529 111
4.6640544 6.2933564 1.1853182 106
23.023752 58.295208 5.2144508 16
23.157301 50.812347 3.8453441 10
3.9362433 6.2855358 1.2803404 108
4.2919788 6.2845678 1.2345195 113
23.15144 58.589252 9.2618694 14
23.124815 50.694016 6.0920467 9
3.5943353 6.2811484 1.324101 103
4.6797118 6.3163819 1.3472062 103
23.119312 58.446621 18.283766 27
23.039742 50.451054 11.589401 7
3.9514496 6.3155518 1.4355879 112
3.3425426 4.0255256 -0.44689023 7
3.6165257 6.3165603 1.4765865 111
4.3361721 6.3553448 1.3911285 110
3.9028702 6.1563487 -0.24426448 5
4.2440462 6.1369691 0.25846338 4
3.9871464 6.3810496 1.5921093 80
4.7317343 6.3931608 1.5093706 105
3.9078839 6.1641679 0.57010365 108
4.2700901 6.1929445 0.73546362 110
23.369715 68.938736 2.0197628 20
4.3519688 6.3820806 1.5517774 114
3.9266129 6.2091727 0.87925094 109
4.6551046 6.2285423 0.94590318 79
6.3774061 12.824241 1.9110107 4
22.558659 43.049458 2.1533697 4
3.9474468 6.2590995 1.1255659 101
4.3083944 6.2719407 1.0355453 113
5.8693204 13.418921 2.0024576 2
22.870857 49.692905 2.5403039 9
3.6044002 6.2487516 1.172298 111
4.681005 6.2719574 1.1860144 79
23.166203 58.055458 5.2041922 16
23.163397 50.336388 3.8275423 10
3.9611945 6.2849417 1.2799692 109
4.3141437 6.2752399 1.2345194 113
23.390583 58.606831 9.2740602 14
23.122965 50.200893 6.0548892 9
3.618907 6.2818756 1.3237766 102
4.7107434 6.323668 1.3465099 106
23.125549 57.838905 18.131512 27
23.053186 49.99625 11.514015 7
3.9779058 6.3186574 1.4353101 112
3.3582342 4.0189204 -0.44689023 7
3.6555972 6.3546095 1.4757543 114
4.3623853 6.3485789 1.3910122 110
3.9159493 6.1187105 -0.23564148 4
4.2693915 6.1304889 0.25767887 4
4.0146823 6.3794451 1.59211 83
4.7635508 6.3955688 1.5091852 105
3.9345541 6.1627798 0.5688746 107
4.2988114 6.1936932 0.73394924 110
6.5430598 15.376528 1.6870164 0
4.3814554 6.3826003 1.5517085 114
3.953476 6.2077575 0.8783949 110
4.6845102 6.2276068 0.94478846 79
22.713224 42.947227 2.1530674 4
3.9714537 6.2501535 1.1255633 101
4.3343697 6.2652726 1.035221 113
5.860177 13.212154 1.9966173 1
22.34333 47.94783 2.5084848 9
3.6299288 6.2449279 1.1720436 110
4.7089195 6.2673659 1.1855503 104
23.213896 57.505024 5.1750636 16
23.180796 49.846134 3.8094163 10
3.987046 6.2796874 1.2797843 108
4.3417225 6.272222 1.234102 113
23.63954 58.586021 9.2823505 14
23.143332 49.719181 6.0193634 9
3.6457882 6.281806 1.3234529 102
4.7353339 6.3117948 1.3465102 105
23.143843 57.213482 17.976151 27
23.070202 49.509197 11.433606 7
4.0052977 6.3170834 1.4351257 112
3.3711386 4.0095406 -0.44519913 7
3.6867001 6.3741441 1.4752702 116
4.3976164 6.3683386 1.3900855 115
3.9362643 6.1070933 -0.23456264 5
4.2973647 6.1356282 0.25454354 4
4.0400982 6.3785677 1.5921119 83
4.7879629 6.3881793 1.5091395 105
3.9605792 6.165791 0.56703222 108
4.3270826 6.1988945 0.73193145 111
23.279282 66.935509 2.0082803 20
4.408843 6.3839612 1.5516407 114
3.9796872 6.2107701 0.87711215 110
4.7100973 6.2240472 0.9440462 78
6.4831991 12.819014 1.9117581 4
23.214844 43.583038 2.1623609 4
3.9978299 6.2531395 1.1247286 101
4.3562145 6.2557936 1.0352185 113
5.8470945 13.014738 1.9910053 1
22.480455 47.805584 2.507143 9
3.6531968 6.2417088 1.1717886 110
4.7363496 6.2673154 1.1848536 104
23.308535 57.149311 5.1575823 16
23.179039 49.367687 3.791451 10
4.0134549 6.28263 1.2792275 109
4.3622513 6.2590599 1.2343109 112
23.873772 58.586777 9.2925892 14
23.144644 49.249226 5.9841614 9
3.666719 6.2709322 1.3236157 102
4.7682648 6.3224015 1.3456748 74
