# .PCD v0.7 - Point Cloud Data file format
VERSION 0.7
FIELDS x y z intensity
SIZE 4 4 4 4
TYPE F F F F
COUNT 1 1 1 1
WIDTH 907
HEIGHT 1
VIEWPOINT 0 0 0 1 0 0 0
POINTS 907
DATA ascii
7.0486865 -2.6799586 -0.07212472 0
7.101573 -2.6857913 -0.086151004 0
6.9912658 -2.6739004 -0.057020068 0
7.1559587 -2.6884851 -0.10017681 0
6.9337368 -2.6683724 -0.04191494 0
7.2099752 -2.6917682 -0.11420262 0
6.9473 -2.6624711 -0.10401249 0
6.994494 -2.6622245 -0.11540079 0
6.8772712 -2.660671 -0.026809454 0
7.0347991 -2.6583111 -0.12471831 0
7.0960565 -2.6641686 -0.14024758 0
6.8897877 -2.657263 -0.089518547 0
7.2532206 -2.6905859 -0.1249913 0
6.8238387 -2.6552966 -0.01278317 0
6.8402023 -2.6532991 -0.077094913 0
7.1150808 -2.6507068 -0.14335358 0
7.2083821 -2.6697593 -0.16820037 0
7.2974682 -2.6872077 -0.13577974 0
6.7637067 -2.6459796 0.0034012794 0
7.2981973 -2.6875272 -0.192011 0
6.7716146 -2.6439948 -0.059495211 0
7.3308706 -2.6795084 -0.14333081 0
6.720695 -2.6453347 0.014190674 0
6.7144213 -2.6376672 -0.045001149 0
7.3742504 -2.6775599 -0.15411913 0
6.6705146 -2.6416304 0.027137876 0
6.6651192 -2.632714 -0.032577634 0
6.6345139 -2.6440873 0.035769105 0
6.7418261 -2.9303212 0.69038248 0
7.0411863 -2.6583586 0.40528119 0
6.9966521 -2.6599958 0.41313159 0
7.0605164 -2.6460373 0.40292799 0
7.1085944 -2.645658 0.39429247 0
7.0504041 -2.6391125 0.39750361 0
7.0379872 -2.8165843 0.65838772 0
7.0948629 -2.6367533 0.39032936 0
6.9620266 -2.6421483 0.41185224 0
6.9247928 -2.6471469 0.41759157 0
7.1500916 -2.6391439 0.38100255 0
6.6944079 -2.9255288 0.6971541 0
6.9993134 -2.6369171 0.40611279 0
6.5883265 -2.6407795 0.047637343 0
6.6116643 -2.6274707 -0.019118547 0
7.1386967 -2.6372778 0.38958323 0
7.1982727 -2.63785 0.37311018 0
6.7244744 -2.8969584 0.69531059 0
6.9217062 -2.643445 0.42804968 0
7.1864386 -2.6372824 0.38094759 0
7.0475435 -2.7981169 0.65838993 0
6.8734908 -2.6449184 0.42620075 0
6.8808594 -2.6461976 0.4351151 0
6.8474827 -2.6514187 0.44060993 0
7.2342448 -2.6369841 0.37231207 0
7.4904623 -2.6829495 -0.18432832 0
6.8185453 -2.6564913 0.44531977 0
7.239315 -2.6329508 0.36665273 0
6.8292961 -2.6458886 0.433375 0
6.7853088 -2.6613305 0.45081484 0
6.8025284 -2.9353652 0.77151489 0
7.2776527 -2.6366251 0.36446166 0
6.8871927 -2.8062758 0.67993242 0
7.1353221 -2.7742491 0.64792949 0
7.2911472 -2.6327107 0.35804296 0
7.0842519 -2.7701974 0.65531611 0
6.5547829 -2.6200929 -0.004624486 0
6.7813892 -2.6448064 0.44126689 0
7.036036 -2.7685978 0.66208649 0
6.5325642 -2.6307654 0.062743425 0
7.3185081 -2.6323936 0.35739684 0
6.7416291 -2.6604297 0.45866573 0
6.747828 -2.650568 0.44628882 0
7.0447798 -2.8499343 0.75006801 0
7.2970328 -2.7861691 0.62453854 0
7.3501096 -2.6353879 0.3479979 0
6.9963465 -2.8489046 0.7554304 0
6.74754 -2.9283905 0.77785164 0
7.1451936 -2.7545087 0.64793181 0
6.6966901 -2.8578081 0.70208597 0
6.7143035 -2.6561227 0.45131063 0
7.1968436 -2.7571106 0.64054543 0
6.8758721 -2.777025 0.68362898 0
6.8488722 -3.5116725 0.99222201 0
6.8587847 -3.4668229 0.99352533 0
6.8514557 -3.4856679 0.99319917 0
6.8638945 -3.4439442 0.99417698 0
6.8401537 -3.5323522 0.99189585 0
7.3664927 -2.6312366 0.34876156 0
6.838583 -3.5565403 0.99091864 0
6.8725333 -3.4232223 0.99450296 0
6.8808432 -3.4024861 0.99482912 0
6.6129127 -2.9001603 0.71008295 0
6.8323784 -3.5803621 0.99026692 0
6.8856611 -3.3795993 0.99548078 0
6.8266912 -3.6032636 0.9896152 0
6.6940989 -2.6582589 0.46730185 0
6.8970747 -3.3609605 0.99548155 0
7.3105011 -2.767585 0.62392545 0
7.3939977 -2.6332753 0.34082305 0
6.4208107 -2.6745961 0.08431685 0
6.7064676 -2.9289 0.78223848 0
6.9085255 -3.3422823 0.99548215 0
6.8248353 -3.6275067 0.98863804 0
6.5048714 -2.6159518 0.0077991486 0
7.0366735 -2.8216417 0.75250489 0
7.0735617 -2.8187854 0.74860489 0
7.1220903 -2.8191466 0.74324256 0
6.8654604 -2.85149 0.76956725 0
6.9125423 -3.3202991 0.99613374 0
6.4870119 -2.6260209 0.074611902 0
6.9847536 -2.9100261 0.827914 0
6.8123879 -3.6458826 0.98863733 0
7.0149693 -2.9041629 0.8248806 0
6.9278135 -3.3027146 0.99580902 0
6.6668143 -2.6542339 0.45920241 0
6.7843413 -2.8775656 0.77687806 0
6.8045664 -2.8649507 0.77541602 0
6.935637 -3.2818489 0.99613506 0
7.4180636 -2.631428 0.33934093 0
6.6309056 -3.4126034 0.94966429 0
7.3588724 -2.7674198 0.61715496 0
6.6218452 -3.4327254 0.94923377 0
6.660368 -3.3339231 0.95181757 0
6.9502225 -3.2650955 0.99581027 0
7.1177287 -2.8883922 0.81426311 0
6.6064029 -3.4965675 0.94665533 0
6.6672792 -3.3162854 0.95224822 0
6.6315689 -3.3904665 0.95095342 0
7.1503682 -2.8065805 0.74080503 0
6.452889 -2.6322749 0.01815176 0
6.6074166 -3.474375 0.94794399 0
6.9681654 -3.2503295 0.99515992 0
6.6544762 -2.6578059 0.4743675 0
6.6752696 -3.2969191 0.95267928 0
6.6365895 -3.3689196 0.95181364 0
6.6448107 -3.349628 0.95224458 0
6.610168 -3.4496698 0.94923311 0
6.5970011 -3.5166402 0.94622493 0
7.1980286 -2.8083599 0.73544258 0
6.6943722 -3.260329 0.95311195 0
7.0253463 -2.8848464 0.82488286 0
6.6798759 -3.2753305 0.95353955 0
6.4545369 -2.6293499 0.082164049 0
7.4424338 -2.630451 0.33293068 0
6.716516 -3.2257974 0.9531154 0
6.9758048 -3.2293556 0.99548608 0
6.7021441 -3.2409008 0.95354295 0
7.2079048 -2.8870409 0.80414969 0
6.7275124 -3.2084718 0.95311731 0
6.62639 -2.655688 0.46565938 0
6.4752274 -3.2598546 0.86024249 0
6.9862242 -3.2113464 0.99548668 0
6.8033447 -2.8417466 0.77687889 0
6.7350903 -3.1889608 0.95354831 0
6.5876989 -3.6644144 0.93763351 0
6.8457632 -3.807862 0.97886842 0
7.1280365 -2.8686967 0.81426543 0
6.4584084 -2.6133084 0.019187331 0
7.2289119 -2.799113 0.7325176 0
6.6178851 -2.6598492 0.48064804 0
7.03514 -2.8664145 0.82488501 0
7.0005908 -3.1943631 0.99516177 0
7.4661627 -2.6296487 0.33070576 0
7.3500285 -2.7401111 0.62023598 0
6.4764271 -3.2366304 0.86176181 0
6.5670309 -3.5718229 0.94536358 0
6.5674973 -3.5980964 0.94364542 0
7.2316666 -2.8753471 0.80212826 0
6.8552876 -3.8426869 0.97658914 0
6.454308 -3.2694852 0.86175889 0
6.7364268 -3.1642931 0.9548381 0
7.0148859 -3.1773202 0.99483693 0
6.4220972 -2.6324825 0.089716077 0
7.2847757 -2.8018658 0.72618014 0
6.5694594 -3.675555 0.93849146 0
6.5877333 -2.6663022 0.48535788 0
6.5719414 -3.7052889 0.93634397 0
6.5787253 -3.7358489 0.93376744 0
7.02915 -3.1602111 0.99451214 0
6.4743266 -3.2111981 0.86378717 0
6.8682737 -3.8790472 0.9739846 0
6.4814196 -3.1933129 0.86429465 0
7.4451337 -2.7609928 0.60546124 0
7.0571918 -3.15096 0.99288541 0
6.5825362 -2.6550579 0.47283375 0
7.4846344 -2.6220684 0.32647336 0
6.5815492 -3.7648833 0.93162006 0
6.3963928 -2.6392341 0.09510994 0
6.6718864 -3.576062 1.0013307 0
6.8040509 -2.9008398 0.84864855 0
6.5926857 -3.8022113 0.92818362 0
7.3228588 -2.7956183 0.72228032 0
6.5585442 -2.6708896 0.49006784 0
7.2193036 -2.847106 0.80516571 0
6.8368797 -3.0599253 0.95141715 0
6.4824214 -3.1701643 0.86581415 0
7.0646896 -3.1297433 0.99321133 0
7.5143175 -2.627564 0.32207048 0
6.5896492 -3.8256164 0.92689514 0
6.9031324 -3.9329984 0.96910131 0
6.4203582 -3.2698998 0.86529911 0
6.8472962 -3.0421729 0.95141906 0
6.8678904 -3.0304723 0.95013332 0
7.2536411 -2.8407397 0.80162686 0
7.0787973 -3.1124225 0.99288648 0
6.5952392 -3.8573329 0.92431891 0
6.7593207 -2.8994253 0.85370582 0
6.8850584 -3.0166457 0.94927675 0
6.508585 -2.8827019 0.72547382 0
7.3788805 -2.7977133 0.71594298 0
6.5422049 -2.6559975 0.4792906 0
7.099782 -3.0989268 0.99191064 0
7.3202829 -2.8494751 0.79353499 0
6.6036601 -3.8916271 0.92131293 0
7.5648994 -2.7942188 0.58637643 0
6.4736638 -3.1404409 0.86885202 0
7.5502806 -2.6286118 0.31499362 0
7.1242585 -3.0872531 0.99060947 0
6.4810338 -3.1217654 0.86935955 0
6.9401836 -3.9905546 0.96389228 0
6.5123801 -2.6622162 0.48359513 0
6.5152164 -2.6684704 0.49791908 0
7.4004707 -2.8669105 0.78341991 0
6.6057329 -3.921015 0.91916567 0
7.5589528 -2.623558 0.31422079 0
7.4165659 -2.7919645 0.71204317 0
7.1411014 -3.0725839 0.989959 0
6.8678412 -2.9826753 0.95271289 0
6.6199589 -3.9605429 0.91530108 0
6.8883004 -2.970793 0.9514271 0
6.5625854 -2.8934665 0.79978687 0
7.1660829 -3.0596857 0.98865789 0
6.9395199 -2.9526138 0.94756794 0
6.3657637 -2.6071379 0.041962743 0
6.5725131 -3.5586474 1.0088156 0
6.9087496 -2.9588027 0.95014137 0
6.479548 -2.6655753 0.48861706 0
6.9633999 -2.9423113 0.94585305 0
6.3741055 -3.260144 0.8708635 0
6.994205 -2.9357851 0.94327974 0
7.0285034 -2.931011 0.9402771 0
7.4284196 -2.8550909 0.78089309 0
6.9694085 -4.0384378 0.95965999 0
6.6412616 -2.9213378 0.86533421 0
7.0996675 -2.9246211 0.93384278 0
7.0588493 -2.9250352 0.93770385 0
6.4783359 -2.6704676 0.5041995 0
6.6278458 -3.995146 0.91229528 0
7.1869936 -3.0457373 0.98768204 0
6.3228331 -3.3940685 0.86629963 0
7.4444523 -2.7788587 0.70960557 0
7.1340613 -2.919229 0.93084037 0
6.4587898 -2.8736885 0.7328614 0
7.6097121 -2.6295207 0.30494893 0
6.3131294 -3.4338224 0.86427259 0
6.3021498 -3.501507 0.86022055 0
6.6137877 -2.928988 0.86786199 0
7.1753917 -2.9174047 0.92697942 0
6.3398662 -3.309103 0.87085897 0
6.5286751 -2.896996 0.80319875 0
6.4827552 -3.0527253 0.87391818 0
6.3015032 -3.4759803 0.86224586 0
7.6143804 -2.6240778 0.30401528 0
6.3080378 -3.4075944 0.86680424 0
6.6539245 -4.0450745 0.90671343 0
6.4462843 -2.6695967 0.49363911 0
6.5903101 -2.9376903 0.86988407 0
7.2173681 -2.9143698 0.92311877 0
7.4624844 -2.8486397 0.77735424 0
6.3462224 -3.2655282 0.87339175 0
6.288239 -3.5133219 0.86072564 0
6.2944312 -3.4456935 0.86528313 0
7.25634 -3.0335078 0.98312664 0
6.3221164 -3.320401 0.8718695 0
6.5667377 -2.9462643 0.8719061 0
6.3088737 -3.3592513 0.87034887 0
6.2818117 -3.5347829 0.85971284 0
6.4288006 -2.877636 0.73655456 0
6.3318157 -3.2792084 0.87389636 0
7.2450962 -2.904578 0.92097539 0
6.6804276 -4.0943732 0.90113175 0
6.4394989 -2.6678288 0.51126575 0
7.3125114 -3.0377128 0.97889626 0
6.2728977 -3.5529969 0.8592065 0
6.5436802 -2.9538713 0.87392825 0
7.5402164 -2.7984941 0.69790614 0
6.2983317 -2.6252751 0.12100589 0
6.3011551 -3.3292654 0.87338609 0
6.2662907 -3.5744438 0.85819376 0
7.6838326 -2.8008366 0.56914198 0
7.2866473 -2.9020255 0.91711473 0
7.4904065 -2.8364675 0.77482748 0
7.5931101 -2.7331686 0.58638465 0
6.2645912 -3.5960102 0.85667533 0
7.6547561 -2.6238379 0.29777408 0
6.2975707 -2.6120827 0.057491302 0
6.4902496 -2.988204 0.87746477 0
6.481113 -2.8922927 0.80856061 0
6.5172467 -2.9592607 0.87645626 0
6.2614346 -3.6448503 0.85313213 0
7.7665162 -2.8668163 0.55313051 0
7.3192878 -3.0157192 0.9792223 0
6.6785288 -4.1217308 0.89941382 0
6.4099855 -2.6724558 0.51597571 0
7.673007 -2.6268659 0.29302454 0
7.3317747 -2.9010532 0.91282487 0
6.3064117 -2.5954726 0.057491541 0
6.2581468 -3.6680617 0.85161364 0
6.3987803 -2.6666868 0.501531 0
6.2571697 -3.6945992 0.84958887 0
6.2485228 -3.6099989 0.8571806 0
7.5569081 -2.7808604 0.69693106 0
6.4903226 -2.9653325 0.87898427 0
6.2598138 -3.7479701 0.84503376 0
7.3764658 -2.9007816 0.908535 0
6.2505894 -3.7153156 0.84857631 0
6.2621346 -3.7764056 0.84250337 0
6.3800559 -2.6777093 0.52068591 0
6.1771083 -2.6944168 0.075088382 0
7.5712967 -2.8513305 0.76471245 0
6.2594404 -2.6236508 0.13071644 0
6.2680154 -3.806679 0.83946693 0
6.2784324 -3.8437514 0.83541822 0
6.286994 -3.8767865 0.83187586 0
6.3754272 -2.8668003 0.74455827 0
7.6703973 -2.7443633 0.57468879 0
6.2548962 -2.609935 0.067843676 0
7.7034578 -2.6194062 0.28988183 0
6.236958 -2.6315501 0.13503087 0
7.4292779 -2.9019058 0.90338695 0
6.3542004 -2.6831582 0.5246104 0
7.6021934 -2.7774172 0.69205678 0
6.3592825 -2.6655967 0.50798798 0
7.714088 -2.6203578 0.28595984 0
6.211422 -2.6373582 0.14042485 0
6.2614098 -3.8821723 0.83389848 0
7.4533248 -2.8892658 0.90167266 0
6.3247581 -2.6872721 0.52932048 0
6.3130412 -2.8929832 0.75071138 0
7.6666241 -2.8725975 0.75257397 0
7.7146363 -2.7422707 0.56853426 0
6.1891952 -2.6449935 0.14473987 0
6.3223543 -2.8778627 0.75071287 0
6.1221151 -2.7050593 0.086475849 0
6.2734747 -3.9474695 0.82731956 0
6.3227234 -2.6670241 0.51372731 0
6.2503753 -3.9012337 0.83339196 0
6.2122951 -2.6075194 0.078196049 0
6.1702905 -2.6544914 0.14797568 0
7.4976497 -2.8892207 0.89738274 0
6.2748775 -3.9763098 0.82478958 0
6.2953534 -2.6912122 0.53403068 0
6.2999582 -2.675952 0.51659697 0
6.2997556 -4.0262961 0.81821096 0
7.7703481 -2.6222966 0.27840221 0
7.7697167 -2.6198528 0.27575469 0
6.1896977 -2.6162174 0.082336783 0
6.1849756 -3.167347 0.82171339 0
6.3628259 -2.8906596 0.82123387 0
7.6942463 -2.8605223 0.75004733 0
6.3125248 -4.0659146 0.81365645 0
6.3466768 -2.9025078 0.82220846 0
6.214488 -3.0935585 0.82366538 0
6.2737355 -2.6828094 0.52018404 0
7.7345028 -2.8120184 0.67548263 0
6.2006073 -3.1076183 0.82415235 0
6.1825929 -3.1422358 0.82366377 0
6.2145138 -3.0715249 0.82512838 0
7.6886368 -2.834981 0.75207323 0
6.1866975 -3.1216145 0.82463932 0
6.120748 -3.2889018 0.81975961 0
6.3198242 -2.9089127 0.82464552 0
6.2592449 -2.6909521 0.54031169 0
7.7922544 -2.7525856 0.55683863 0
6.1469569 -3.1883073 0.82414979 0
6.1316786 -3.2248828 0.82317376 0
6.0993624 -3.3191268 0.81975859 0
6.1030807 -3.3001649 0.82073414 0
6.1349406 -2.6274693 0.093724132 0
6.2372785 -2.6836486 0.52592355 0
6.1174459 -3.2385509 0.82366073 0
6.2924647 -2.9159949 0.8270824 0
7.8290033 -2.6205428 0.26476431 0
7.836874 -2.6258523 0.26692271 0
6.1262856 -3.1975048 0.82561189 0
7.7208152 -2.7541552 0.67986959 0
6.2294517 -2.6953015 0.54502189 0
6.0792007 -3.3539376 0.81927001 0
6.0598378 -3.4868588 0.81146622 0
6.061986 -3.4376833 0.81488001 0
6.3114061 -4.150794 0.80657142 0
7.7413082 -2.8345923 0.74600554 0
6.2197809 -2.9003422 0.76240665 0
6.1343594 -3.1572843 0.82756275 0
6.0996532 -3.2498519 0.82463527 0
6.0657125 -3.3926089 0.81780624 0
6.2696185 -2.923353 0.82903206 0
6.0521307 -3.5815701 0.80512595 0
6.0565028 -3.4582338 0.81390446 0
6.060431 -3.4131296 0.81683064 0
6.0510302 -3.5050035 0.81097794 0
6.0483842 -3.5280292 0.80951494 0
6.1059213 -2.6318877 0.099935651 0
7.8272734 -2.7418005 0.55253172 0
6.2076807 -2.6881974 0.5302279 0
6.071435 -3.3240039 0.82219553 0
6.0531368 -2.6854186 0.10511053 0
6.0587568 -3.3618035 0.820732 0
6.101963 -2.633909 0.16739881 0
6.1817498 -3.0269904 0.8314662 0
6.0901637 -2.6462958 0.16847658 0
6.1933484 -2.9050567 0.76548421 0
6.2394342 -2.9272077 0.83195645 0
6.1935382 -2.6946161 0.55130315 0
6.2261157 -2.9414544 0.83244348 0
6.2023783 -2.9719057 0.83293015 0
6.0250869 -3.5322802 0.81146437 0
6.2124643 -2.9556439 0.83293062 0
6.0247679 -3.6351936 0.8036617 0
6.1735435 -2.9139791 0.76733011 0
6.0330296 -3.7198477 0.79634678 0
7.8811536 -2.6177673 0.25534439 0
6.174314 -2.7039542 0.55365765 0
7.8828321 -2.6177633 0.25974846 0
6.0148249 -3.5773699 0.80902565 0
6.0188022 -3.6806796 0.80073524 0
6.0124626 -3.5996182 0.80756247 0
6.1536994 -2.922797 0.76917619 0
6.1676531 -2.6866398 0.53668499 0
6.0055304 -3.6465132 0.80463594 0
6.0423021 -3.8579583 0.7846427 0
6.1488781 -2.7083018 0.55758286 0
6.0111437 -3.7278013 0.79780877 0
6.1338787 -2.93151 0.77102214 0
6.0218458 -3.7896333 0.79195696 0
6.0269718 -3.8206358 0.78903121 0
6.0111589 -3.7527831 0.79585797 0
7.9334874 -2.765224 0.53591061 0
6.1347537 -2.6888115 0.54170698 0
6.1234522 -2.7125092 0.56150806 0
6.110507 -2.9379079 0.7734834 0
6.0361166 -3.908217 0.78122848 0
6.0223808 -3.869163 0.78561711 0
7.9336171 -2.6146555 0.24592495 0
6.0949764 -2.9471126 0.77471387 0
6.0346437 -3.9343038 0.77927768 0
7.9463048 -2.6179287 0.24898636 0
6.1009054 -2.7194164 0.56464779 0
5.9853396 -3.159677 0.76977587 0
6.1086516 -2.6947923 0.54529411 0
6.0179501 -2.6226203 0.12167585 0
6.0337219 -3.9596477 0.77732682 0
7.9293246 -2.8218229 0.65305841 0
7.9472098 -2.7441306 0.53529835 0
6.0682759 -4.046473 0.76708722 0
6.0431457 -3.997154 0.77342564 0
6.0713472 -2.9540455 0.77717566 0
5.9854431 -2.6633804 0.19113314 0
6.0067368 -2.6358356 0.19005692 0
6.0750475 -2.7241032 0.56857312 0
7.9211454 -2.7904768 0.6554957 0
6.0683861 -4.0762835 0.76464874 0
6.0547376 -2.9645803 0.77840585 0
6.0796623 -2.6978135 0.54959875 0
5.9879622 -2.6445191 0.19329298 0
5.9861441 -3.0911973 0.77593619 0
7.9524336 -2.7219672 0.53591704 0
7.8839931 -2.7983823 0.73134667 0
7.9786415 -2.6081812 0.23807561 0
6.0525236 -2.7307529 0.57171309 0
6.0348768 -2.972775 0.78025198 0
5.949842 -3.1546166 0.77470189 0
5.915113 -3.2660537 0.76853949 0
5.9911151 -3.0500674 0.77901667 0
6.0225253 -2.9839184 0.78086686 0
6.0535955 -2.703485 0.5531857 0
6.0300131 -2.7372711 0.57485294 0
5.932755 -3.1644263 0.77593303 0
7.9621043 -2.6992054 0.53592014 0
5.9737482 -3.0608957 0.78024745 0
8.0098639 -2.6176841 0.23822427 0
5.9173179 -3.1982789 0.77470028 0
5.922492 -3.1782329 0.77593261 0
7.9394741 -2.7469592 0.65549535 0
5.9501333 -3.087142 0.78086215 0
5.8841128 -3.2868242 0.77038652 0
6.0241895 -2.7069659 0.55749023 0
5.8607969 -3.3859348 0.76361048 0
5.8759255 -3.3036582 0.76977026 0
5.8631892 -3.3640943 0.76545835 0
6.0041928 -2.7415349 0.57877827 0
5.8973083 -3.2047641 0.77654624 0
7.9257903 -2.6324861 0.5451616 0
5.8528252 -3.4020228 0.76299441 0
5.8624182 -3.3397772 0.76792192 0
5.8797426 -3.2601471 0.77346575 0
5.8894634 -3.2216046 0.77592999 0
5.8451638 -3.4425106 0.75991482 0
5.8417778 -3.4651198 0.75806689 0
6.0015225 -2.7143695 0.56035984 0
5.8323517 -3.5555165 0.75005901 0
5.9849801 -2.7499304 0.58113301 0
8.0418186 -2.6089354 0.22630036 0
5.8584709 -3.3130074 0.77100152 0
5.8334985 -3.4811816 0.75745088 0
7.9237757 -2.6062849 0.54701173 0
5.8244944 -3.5224433 0.75437135 0
5.9181538 -2.6255033 0.14445102 0
5.9657602 -2.7582233 0.58348751 0
8.0620956 -2.6137714 0.2296145 0
5.8179631 -3.4934752 0.75806648 0
5.911828 -2.6360662 0.21271491 0
5.9721732 -2.7175281 0.56466454 0
7.9171057 -2.5807579 0.5494771 0
5.8199792 -3.3984747 0.76730496 0
5.8009963 -3.6277859 0.74636412 0
5.7994213 -3.551378 0.75436991 0
5.9397316 -2.7620909 0.58741236 0
5.7943954 -3.6471467 0.74513227 0
7.9112506 -2.5531442 0.55194283 0
5.7948365 -3.6704309 0.74266893 0
5.7914381 -3.5666537 0.75375414 0
5.9423723 -2.721278 0.56896901 0
5.7838535 -3.5873418 0.75252223 0
5.7874269 -3.6905074 0.74143726 0
5.7892513 -3.7179341 0.73835796 0
5.8766236 -2.6199856 0.15480363 0
8.1086941 -2.6107686 0.21373987 0
5.7886958 -3.7420204 0.73589462 0
5.9107113 -2.7636335 0.59212321 0
5.898037 -2.7759345 0.59290719 0
5.7809567 -3.7621317 0.73466295 0
5.8853064 -2.7881775 0.59369135 0
8.1294374 -2.6141987 0.218135 0
5.9135532 -2.7233233 0.57327366 0
5.8697982 -2.7974386 0.5952608 0
5.77982 -3.838779 0.72665721 0
5.7937789 -3.9045184 0.7180357 0
7.9174399 -2.5055728 0.55379593 0
5.7802067 -3.8671548 0.7235781 0
5.7623 -3.7706735 0.73589474 0
5.8383441 -2.6302059 0.23105812 0
7.9929872 -2.6366763 0.65451956 0
5.8876147 -2.7280552 0.57686079 0
5.7557521 -3.789336 0.73466331 0
5.8473258 -2.8029032 0.59840101 0
8.1574812 -2.6047778 0.20510566 0
5.8346272 -2.8149326 0.59918541 0
5.7980318 -3.9909623 0.70818138 0
5.7859306 -3.9526172 0.71372497 0
5.7747083 -3.9130023 0.71926749 0
5.819685 -2.6381299 0.23429418 0
7.9830327 -2.6078069 0.65695661 0
5.8066821 -4.0273395 0.70325482 0
5.8074737 -2.6501772 0.23537207 0
7.9439335 -2.5660989 0.66329342 0
5.8116422 -4.0617237 0.69894415 0
5.8153701 -2.8224175 0.60154033 0
5.8584757 -2.7305317 0.58116543 0
5.7992949 -2.8320594 0.60310978 0
5.8392611 -2.7391911 0.58331746 0
5.7869325 -2.8431821 0.60389411 0
8.2009907 -2.6144602 0.20593798 0
7.905725 -2.4995465 0.670605 0
5.7924452 -2.6104276 0.17550874 0
5.7808332 -2.622453 0.17654383 0
5.7686353 -2.6351664 0.17757869 0
5.7703481 -2.8533797 0.60546356 0
5.8117447 -4.1455784 0.68970764 0
8.2172394 -2.6028707 0.19411564 0
5.8133759 -2.7434869 0.58690453 0
5.7974386 -2.7540607 0.58833921 0
5.7442212 -2.6485002 0.25047755 0
5.7414856 -2.8536484 0.61017472 0
5.7748833 -2.7602465 0.59120882 0
8.2570391 -2.6108768 0.19661069 0
5.7223792 -2.6538129 0.25479293 0
5.7221971 -2.8606422 0.61252952 0
5.7563286 -2.7670093 0.59336096 0
5.6992888 -2.6521764 0.19103658 0
5.706089 -2.8698421 0.61409932 0
5.7005787 -2.6590035 0.25910866 0
5.6931386 -2.8812826 0.61488354 0
5.701736 -2.6335356 0.19310749 0
5.7365808 -2.7758682 0.59551311 0
8.280241 -2.6031687 0.1823405 0
5.6738157 -2.8880045 0.6172387 0
5.676538 -2.6605372 0.26450348 0
5.6638246 -2.672699 0.26558149 0
8.305707 -2.6041269 0.18871832 0
5.660768 -2.6478252 0.20035386 0
5.7042236 -2.7751458 0.60053533 0
5.6511097 -2.8922865 0.62037855 0
5.6887188 -2.7844975 0.60196984 0
5.6381054 -2.9035003 0.62116295 0
5.6388559 -2.6753616 0.27097607 0
5.6387835 -2.6537523 0.2044946 0
5.6265755 -2.6866832 0.27205431 0
5.6229582 -2.9109447 0.62273282 0
8.34377 -2.6019235 0.17056561 0
5.665729 -2.7907956 0.6048395 0
5.6200624 -2.6616676 0.20760012 0
5.6088972 -2.6921835 0.27529109 0
5.6497245 -2.8006876 0.60627419 0
5.6031346 -2.9179664 0.62508798 0
5.5962706 -2.9337468 0.62430149 0
5.5980906 -2.6673601 0.21174109 0
5.5897961 -2.6996033 0.27852786 0
8.3774385 -2.6031623 0.1765213 0
5.6277208 -2.8053243 0.60914373 0
5.5738277 -2.9375353 0.62744218 0
5.5712705 -2.7062523 0.2817651 0
5.5766039 -2.6722245 0.21588206 0
8.3927555 -2.5945563 0.16193175 0
5.5521665 -2.7134647 0.28500199 0
5.5578632 -2.6798236 0.21898746 0
5.6019855 -2.8083103 0.61273098 0
5.5423355 -2.6894786 0.22105777 0
5.546237 -2.9350672 0.63215393 0
5.585557 -2.8186131 0.61416566 0
8.3915482 -2.6714303 0.47560847 0
5.5313845 -2.7163424 0.28931844 0
5.5325971 -2.9465044 0.63293868 0
5.5267773 -2.6990561 0.22312796 0
5.5663033 -2.8258662 0.61631763 0
5.5119834 -2.9734149 0.63293821 0
5.5164633 -2.9547954 0.63450944 0
5.51229 -2.7233434 0.29255533 0
5.5080318 -2.7063773 0.22623372 0
8.4377918 -2.5986855 0.16647685 0
5.5534534 -2.8375714 0.61703485 0
5.5003843 -2.7334874 0.29363418 0
5.5415854 -2.8478291 0.61775208 0
8.4417696 -2.5868769 0.15329778 0
5.488801 -2.7142839 0.22933924 0
5.4906225 -2.9753876 0.63607973 0
5.4817648 -2.7396581 0.29687142 0
5.4736891 -2.7229214 0.23140943 0
5.4768686 -2.9865739 0.6368646 0
5.5181179 -2.8539116 0.62062162 0
8.451992 -2.6686938 0.46699238 0
5.4641514 -2.9964051 0.63764989 0
5.462666 -2.746376 0.30010843 0
5.458076 -2.732167 0.23347986 0
5.5052042 -2.8654132 0.62133878 0
5.4959397 -2.8784916 0.62133843 0
5.4502006 -2.7569621 0.30118704 0
5.4508743 -3.0068271 0.63843501 0
5.4425492 -2.7413356 0.23555005 0
5.4829578 -2.8898904 0.62205541 0
5.4351301 -2.7645347 0.3033452 0
5.4370418 -3.017832 0.63922006 0
5.4269447 -2.7504256 0.23762047 0
5.4660168 -2.8995757 0.62349004 0
5.4226332 -2.7750039 0.30442405 0
5.4144244 -2.7616861 0.23865533 0
5.4236927 -3.0281308 0.64000523 0
5.410336 -2.7847841 0.30550194 0
5.4138746 -3.040252 0.64000505 0
5.3987589 -2.7706342 0.24072564 0
5.4476767 -2.9047782 0.6256423 0
5.4034834 -3.0529747 0.64000493 0
5.3942552 -2.7934279 0.30765986 0
5.3935928 -3.065027 0.64000493 0
5.4341269 -2.9166527 0.6263594 0
5.3828092 -2.7795057 0.24279583 0
8.5124969 -2.6655657 0.45837665 0
5.3743157 -2.7915249 0.24279559 0
5.3791289 -2.8007281 0.30981803 0
5.4210453 -2.9277892 0.62707651 0
5.3793325 -3.0757675 0.64078891 0
5.3723335 -3.090292 0.6400035 0
5.3665485 -2.8109565 0.31089699 0
5.4084444 -2.9381981 0.62779373 0
5.4010277 -2.9546878 0.62707561 0
5.3549833 -2.79864 0.24590123 0
5.3588095 -3.1003027 0.64078879 0
5.3394475 -2.8267634 0.24486518 0
5.3506126 -3.1160295 0.64000326 0
5.3504009 -2.8193736 0.31305504 0
5.3412857 -2.8312473 0.31305492 0
5.339241 -2.807291 0.24797153 0
5.3405137 -3.1279025 0.64000338 0
5.3357921 -3.1455519 0.63843286 0
5.3816314 -2.9608188 0.62922788 0
5.3725805 -2.9728129 0.62922746 0
8.5546627 -2.6548595 0.45283914 0
5.3619075 -2.9867706 0.6292271 0
5.3220906 -3.1553898 0.63921827 0
5.3548956 -3.0024676 0.62850916 0
5.3226871 -2.8365021 0.31629264 0
5.3138919 -2.8290057 0.25004137 0
5.3477387 -3.0181489 0.62779123 0
5.3129964 -2.8489015 0.31629241 0
5.3112974 -3.167784 0.63921821 0
8.5911255 -2.5900228 0.12503731 0
5.334897 -3.0282328 0.62850833 0
5.2557344 -3.4326229 0.59190381 0
5.2980943 -2.8374448 0.25211167 0
5.3004484 -3.1801445 0.63921821 0
5.3270922 -3.0445206 0.62779027 0
5.2587914 -3.3881569 0.59692776 0
5.252614 -3.4535546 0.58975065 0
5.2500811 -3.6452534 0.5660671 0
5.250843 -3.6726551 0.5624786 0
5.3153811 -3.078228 0.62563688 0
5.3202763 -3.0594778 0.62707233 0
5.2613773 -3.3438466 0.60195154 0
5.3560491 -4.1897364 0.4813838 0
5.2586765 -3.3646815 0.59979838 0
5.2491241 -3.4745061 0.58759749 0
5.2633944 -3.323679 0.6041047 0
5.2461257 -3.5926123 0.5732438 0
5.2519279 -3.7221735 0.55601937 0
5.297287 -2.8564174 0.31845069 0
5.3449903 -4.1573677 0.4939301 0
5.2470126 -3.4941874 0.58544433 0
5.2456975 -3.6158259 0.57037294 0
5.3079152 -3.093821 0.62491894 0
5.2529631 -3.7490401 0.55243099 0
5.2442789 -3.5660515 0.57683206 0
5.2552729 -3.7800636 0.54812503 0
5.2881641 -3.9729767 0.51870114 0
5.3258967 -4.1062975 0.50413966 0
5.2735863 -3.9054003 0.52946573 0
5.2466822 -3.6938548 0.56032526 0
5.2628875 -3.3002682 0.60697532 0
5.2500815 -3.4037004 0.59620965 0
5.2429724 -3.5158141 0.58329111 0
5.2653928 -3.2795067 0.60912842 0
5.2895684 -3.192461 0.63921833 0
5.2790456 -3.9383569 0.52444202 0
5.2952852 -4.0096402 0.51295978 0
5.3753595 -4.2504349 0.47586703 0
5.3001184 -3.1093993 0.62420094 0
5.2638268 -3.8655465 0.53592443 0
5.2593164 -3.836906 0.54023045 0
5.2818003 -3.1811543 0.61845887 0
5.2400556 -3.5361741 0.58113807 0
5.306529 -4.0554061 0.51434958 0
5.2532635 -3.8042161 0.54525405 0
5.3002019 -4.0428629 0.50793612 0
5.2827911 -2.845155 0.25418198 0
5.3562603 -4.2162461 0.47779512 0
5.2930427 -3.1243072 0.62348294 0
5.2652159 -3.255522 0.61199921 0
5.2883592 -3.1424258 0.62204742 0
5.2845421 -2.8662934 0.31952977 0
5.2938633 -4.0141687 0.52220297 0
5.2695141 -3.9040165 0.54183602 0
5.3075895 -4.0790696 0.50219488 0
5.2823515 -3.9718335 0.53005648 0
5.2743297 -3.9367211 0.53633869 0
5.2716241 -3.2418935 0.63529164 0
5.2689476 -3.2147782 0.61630523 0
5.2730837 -2.8581526 0.25418174 0
5.278646 -3.2047386 0.63921839 0
5.2806253 -3.1579614 0.62132955 0
5.2638879 -3.2328742 0.61486971 0
5.2714891 -3.193471 0.61845833 0
5.2747583 -2.878557 0.31952965 0
5.249299 -3.7999887 0.55989873 0
5.2456851 -3.771122 0.56461048 0
5.2520704 -3.8295267 0.55518687 0
5.2408385 -3.7382288 0.57010913 0
5.2629251 -2.8717597 0.25418139 0
5.2375784 -3.7088964 0.57482123 0
5.254014 -3.8597357 0.550475 0
5.2493706 -2.902348 0.25211 0
5.2585282 -2.9048345 0.31845021 0
5.2619638 -2.8883295 0.3206085 0
5.2653561 -3.2137113 0.64000404 0
5.2301846 -3.6779802 0.58031857 0
5.2306914 -3.479219 0.60858989 0
5.2291846 -3.5030487 0.60544872 0
5.2276058 -3.5489984 0.5991661 0
5.2270379 -3.5991178 0.5920983 0
5.2177052 -2.9803691 0.24589622 0
5.2302685 -3.4572363 0.61173123 0
5.2261596 -3.6219151 0.58895719 0
5.2500916 -2.8823087 0.25521612 0
5.2245092 -3.6453466 0.58581603 0
5.2349834 -3.3675628 0.62351078 0
5.2281704 -3.4313166 0.61565804 0
5.2226562 -3.5207036 0.60387826 0
5.2190714 -2.9602845 0.24900258 0
5.252502 -3.2454715 0.63764817 0
5.2202654 -3.5672855 0.59759575 0
5.2444735 -3.2831941 0.63372135 0
5.2344413 -2.9091449 0.25418031 0
5.2351809 -3.3445442 0.62665206 0
5.2225828 -2.9432869 0.2510736 0
5.2302327 -3.3839259 0.62194043 0
8.6184912 -2.653636 0.44360745 0
5.2427087 -2.9120529 0.3206085 0
5.2265344 -2.9256549 0.25314462 0
5.2008195 -3.0076783 0.24486005 0
5.2358503 -3.3209577 0.62979364 0
5.1338882 -3.3461328 0.1992979 0
5.2436743 -3.2609076 0.63686275 0
5.1846771 -3.0581212 0.23968244 0
5.1886172 -3.0411158 0.24175346 0
5.2286453 -2.9412365 0.31845009 0
5.1930103 -3.0234838 0.24382424 0
5.2230473 -3.4026992 0.62036967 0
5.2354989 -3.2986186 0.63293612 0
5.1339707 -3.3231187 0.20343983 0
5.2332864 -2.9235613 0.3206085 0
5.2010393 -2.988868 0.24796641 0
5.1766481 -3.0738933 0.23864651 0
5.2053308 -3.0044925 0.31197369 0
5.2191057 -2.9526963 0.31845009 0
5.1252537 -3.3612332 0.19826221 0
5.1217742 -3.4047196 0.19101369 0
5.1227522 -3.3810105 0.1951555 0
5.1655083 -3.1053522 0.23553979 0
5.1311283 -3.297488 0.20861685 0
5.1691046 -3.0889843 0.23761094 0
5.2073569 -2.9842973 0.3152113 0
5.1332645 -3.2777963 0.21172333 0
5.1489582 -3.178458 0.22622025 0
5.1184735 -3.425164 0.1879071 0
5.2296228 -4.1681972 0.024306774 0
5.1386018 -3.2372227 0.21793616 0
5.2111592 -2.9678438 0.31736958 0
5.1554337 -3.1412475 0.23139763 0
5.115665 -3.4450037 0.18480074 0
5.195075 -3.0164707 0.31197381 0
5.1433096 -3.1967337 0.22414911 0
5.1505179 -3.1588824 0.22932673 0
5.1698914 -3.9876645 0.070900917 0
5.1125741 -3.5152578 0.17237496 0
5.1329899 -3.2548997 0.21586514 0
5.1600389 -3.9493454 0.080219865 0
5.1572695 -3.1210811 0.2345041 0
5.1386867 -3.2137601 0.22207808 0
5.1116571 -3.4661007 0.18169415 0
5.1784277 -3.0650704 0.3065784 0
5.1756721 -4.0190854 0.063652754 0
5.2029352 -4.1090889 0.040873408 0
5.1698809 -3.0979936 0.30226195 0
5.173646 -3.0821242 0.30442011 0
5.1481695 -3.9076357 0.090574145 0
5.1093745 -3.5351892 0.16926849 0
5.1119885 -3.6368632 0.14959466 0
5.1850176 -4.05761 0.054333806 0
5.1858244 -3.027221 0.31197405 0
5.1135626 -3.6893847 0.13924015 0
5.1801662 -3.0454521 0.30981553 0
5.10815 -3.6079206 0.15580726 0
5.1068892 -3.5817971 0.16098464 0
5.1100216 -3.6603262 0.14545274 0
5.230547 -4.1984191 0.018093824 0
5.1054573 -3.5557551 0.16616201 0
5.1052008 -3.4838841 0.17962289 0
5.1491699 -3.166831 0.29362893 0
5.1128917 -3.7116847 0.1350981 0
5.156589 -3.13009 0.2990247 0
5.1327176 -3.8638804 0.10196376 0
5.1180916 -3.3614402 0.26233387 0
5.1587553 -3.1104329 0.30226219 0
5.1165586 -3.7672853 0.12370813 0
5.1192374 -3.3382711 0.26665032 0
5.1128192 -3.7386742 0.12992072 0
5.1241922 -3.829391 0.11024725 0
5.1492405 -3.1439259 0.29794574 0
5.1411362 -3.1812489 0.29254997 0
5.1196899 -3.3157218 0.27096677 0
5.1161823 -3.7943797 0.11853063 0
5.126122 -3.2536564 0.28175902 0
5.1229877 -3.2734241 0.2785207 0
5.1277804 -3.2350798 0.28499639 0
5.1310134 -3.2147694 0.28823376 0
5.1092739 -3.3758352 0.26125515 0
5.1166859 -3.2910888 0.27636242 0
5.1308217 -3.1924045 0.29255044 0
5.1030931 -3.3929589 0.25909722 0
5.0981612 -3.4576197 0.24722755 0
5.0969191 -3.4803526 0.24291122 0
5.1002202 -3.4122579 0.25586045 0
5.0947666 -3.5253277 0.23427868 0
5.0934944 -3.5744092 0.22456682 0
5.0940242 -3.6001372 0.21916986 0
5.0931873 -3.5481517 0.22996235 0
5.0959721 -3.4327333 0.25262332 0
5.0929461 -3.5003169 0.23967421 0
5.1016464 -3.7346396 0.19003451 0
5.0961928 -3.677017 0.20298374 0
5.1015673 -3.7606568 0.1846391 0
5.095789 -3.7035072 0.19758821 0
5.0901179 -3.6196468 0.21593308 0
5.090641 -3.6454484 0.21053755 0
5.112 -3.8494527 0.16413641 0
5.1061406 -3.8186269 0.17169011 0
5.1163721 -3.8815174 0.15658271 0
5.1230297 -3.9165871 0.14794958 0
5.1013489 -3.7867143 0.17924356 0
5.1382408 -3.9899497 0.12960458 0
5.1270041 -3.9488101 0.14039588 0
5.155036 -4.0666714 0.11018014 0
5.1418247 -4.0223451 0.12205088 0
5.2025452 -4.2124481 0.070250154 0
5.1804132 -4.155745 0.086437583 0
5.1630931 -4.1051912 0.10046804 0
8.6864071 -2.6522186 0.4337604 0
8.7722149 -2.6102319 0.10836232 0
8.7434425 -2.6461573 0.42576051 0
8.7928858 -2.6462581 0.10262263 0
