# .PCD v0.7 - Point Cloud Data file format
VERSION 0.7
FIELDS x y z rgb label
SIZE 4 4 4 4 4
TYPE F F F F U
COUNT 1 1 1 1 1
WIDTH 796
HEIGHT 1
VIEWPOINT 0 0 0 1 0 0 0
POINTS 796
DATA ascii
0.969881 1.575476 0.604430 0.000000000000000e+00 1701537140
0.793344 1.434722 0.680651 0.000000000000000e+00 1851878480
0.972692 1.565466 0.752432 0.000000000000000e+00 1851878480
0.920769 1.519513 0.830329 0.000000000000000e+00 1851878480
0.795291 1.416620 0.919206 0.000000000000000e+00 1851878480
0.640251 1.290184 1.020539 0.000000000000000e+00 1851878480
-0.002742 0.784735 1.210329 0.000000000000000e+00 1851878480
0.935980 1.580725 0.077370 0.000000000000000e+00 1701537140
0.754680 1.438356 0.118436 0.000000000000000e+00 1701537140
0.803981 1.468821 0.207564 0.000000000000000e+00 1701537140
0.958650 1.579236 0.306794 0.000000000000000e+00 1701537140
0.955987 1.571120 0.380655 0.000000000000000e+00 1701537140
0.957702 1.566330 0.454883 0.000000000000000e+00 1701537140
0.962269 1.563681 0.529664 0.000000000000000e+00 1701537140
0.969501 1.563136 0.603712 0.000000000000000e+00 1701537140
0.806936 1.432243 0.679878 0.000000000000000e+00 1851878480
0.972876 1.553523 0.752053 0.000000000000000e+00 1851878480
0.920522 1.506964 0.830142 0.000000000000000e+00 1851878480
0.797335 1.405218 0.918966 0.000000000000000e+00 1851878480
0.644835 1.279989 1.020097 0.000000000000000e+00 1851878480
0.020429 0.785921 1.207009 0.000000000000000e+00 1851878480
0.941460 1.572762 0.076650 0.000000000000000e+00 1701537140
0.765910 1.433869 0.118702 0.000000000000000e+00 1701537140
0.914997 1.540220 0.223843 0.000000000000000e+00 1701537140
0.958822 1.567308 0.305416 0.000000000000000e+00 1701537140
0.945846 1.551287 0.378377 0.000000000000000e+00 1701537140
0.803562 1.436244 0.442432 0.000000000000000e+00 1701537140
0.776009 1.408558 0.520489 0.000000000000000e+00 1701537140
0.969358 1.550919 0.602995 0.000000000000000e+00 1701537140
0.820385 1.429723 0.679110 0.000000000000000e+00 1851878480
0.972456 1.541058 0.751699 0.000000000000000e+00 1851878480
0.920098 1.494218 0.829970 0.000000000000000e+00 1851878480
0.798971 1.393458 0.918770 0.000000000000000e+00 1851878480
0.649181 1.269588 1.019690 0.000000000000000e+00 1851878480
0.043098 0.786858 1.203772 0.000000000000000e+00 1851878480
0.947208 1.564998 0.075984 0.000000000000000e+00 1701537140
0.777280 1.429536 0.118997 0.000000000000000e+00 1701537140
0.931390 1.540429 0.224894 0.000000000000000e+00 1701537140
0.958822 1.555195 0.304006 0.000000000000000e+00 1701537140
0.955106 1.546195 0.378092 0.000000000000000e+00 1701537140
0.803357 1.423179 0.441285 0.000000000000000e+00 1701537140
0.787656 1.404490 0.520053 0.000000000000000e+00 1701537140
0.969371 1.538766 0.602277 0.000000000000000e+00 1701537140
0.833765 1.427219 0.678348 0.000000000000000e+00 1851878480
0.971857 1.528392 0.751353 0.000000000000000e+00 1851878480
0.919477 1.481255 0.829813 0.000000000000000e+00 1851878480
0.800486 1.381557 0.918590 0.000000000000000e+00 1851878480
0.653201 1.258908 1.019331 0.000000000000000e+00 1851878480
0.158151 0.860893 1.185503 0.000000000000000e+00 1634431585
0.949346 1.554479 0.074509 0.000000000000000e+00 1701537140
0.788612 1.425223 0.119287 0.000000000000000e+00 1701537140
0.946204 1.539525 0.225698 0.000000000000000e+00 1701537140
0.947900 1.534613 0.301130 0.000000000000000e+00 1701537140
0.948181 1.528633 0.376123 0.000000000000000e+00 1701537140
0.725204 1.349646 0.434305 0.000000000000000e+00 1701537140
0.799378 1.400532 0.519624 0.000000000000000e+00 1701537140
0.969551 1.526686 0.601558 0.000000000000000e+00 1701537140
0.847264 1.424878 0.677587 0.000000000000000e+00 1851878480
0.971072 1.515517 0.751015 0.000000000000000e+00 1851878480
0.918588 1.468016 0.829676 0.000000000000000e+00 1851878480
0.801854 1.369493 0.918427 0.000000000000000e+00 1851878480
0.656943 1.247981 1.019012 0.000000000000000e+00 1851878480
0.207612 0.883854 1.177894 0.000000000000000e+00 1634431585
0.949455 1.542370 0.072572 0.000000000000000e+00 1701537140
0.934623 1.524661 0.145623 0.000000000000000e+00 1701537140
0.955051 1.534099 0.225534 0.000000000000000e+00 1701537140
0.952226 1.525688 0.300275 0.000000000000000e+00 1701537140
0.956692 1.522947 0.375754 0.000000000000000e+00 1701537140
0.738709 1.346772 0.434142 0.000000000000000e+00 1701537140
0.811240 1.396737 0.519204 0.000000000000000e+00 1701537140
0.969936 1.514714 0.600839 0.000000000000000e+00 1701537140
0.860782 1.422622 0.676830 0.000000000000000e+00 1851878480
0.970047 1.502389 0.750686 0.000000000000000e+00 1851878480
0.917487 1.454544 0.829556 0.000000000000000e+00 1851878480
0.803006 1.357211 0.918290 0.000000000000000e+00 1851878480
0.660425 1.236820 1.018732 0.000000000000000e+00 1851878480
0.241264 0.894587 1.172856 0.000000000000000e+00 1634431585
0.949454 1.530118 0.070597 0.000000000000000e+00 1701537140
0.950864 1.524896 0.146966 0.000000000000000e+00 1701537140
0.944883 1.513919 0.222249 0.000000000000000e+00 1701537140
0.943922 1.506897 0.297716 0.000000000000000e+00 1701537140
0.947619 1.503530 0.373538 0.000000000000000e+00 1701537140
0.926422 1.480656 0.447151 0.000000000000000e+00 1701537140
0.823053 1.392956 0.518785 0.000000000000000e+00 1701537140
0.970410 1.502754 0.600118 0.000000000000000e+00 1701537140
0.874230 1.420381 0.676078 0.000000000000000e+00 1851878480
0.968744 1.488970 0.750369 0.000000000000000e+00 1851878480
0.916254 1.440893 0.829446 0.000000000000000e+00 1851878480
0.804050 1.344787 0.918166 0.000000000000000e+00 1851878480
0.663520 1.225314 1.018508 0.000000000000000e+00 1851878480
0.272977 0.904012 1.168133 0.000000000000000e+00 1634431585
0.949454 1.517808 0.068607 0.000000000000000e+00 1701537140
0.964017 1.522822 0.147719 0.000000000000000e+00 1701537140
0.954832 1.509316 0.222254 0.000000000000000e+00 1701537140
0.954520 1.502797 0.297692 0.000000000000000e+00 1701537140
0.803215 1.377450 0.357020 0.000000000000000e+00 1701537140
0.942239 1.480592 0.447246 0.000000000000000e+00 1701537140
0.834865 1.389227 0.518370 0.000000000000000e+00 1701537140
0.970888 1.490745 0.599394 0.000000000000000e+00 1701537140
0.887334 1.417937 0.675334 0.000000000000000e+00 1851878480
0.967172 1.475263 0.750062 0.000000000000000e+00 1851878480
0.914907 1.427078 0.829346 0.000000000000000e+00 1851878480
0.805001 1.332236 0.918055 0.000000000000000e+00 1851878480
0.666453 1.213641 1.018310 0.000000000000000e+00 1851878480
0.307883 0.916258 1.162886 0.000000000000000e+00 1634431585
0.963526 1.516444 0.069776 0.000000000000000e+00 1701537140
0.971083 1.516042 0.147287 0.000000000000000e+00 1701537140
0.958736 1.499994 0.221261 0.000000000000000e+00 1701537140
0.941154 1.479823 0.294419 0.000000000000000e+00 1701537140
0.748275 1.320752 0.349837 0.000000000000000e+00 1701537140
0.955842 1.478863 0.447180 0.000000000000000e+00 1701537140
0.904394 1.431547 0.520649 0.000000000000000e+00 1701537140
0.971323 1.478646 0.598666 0.000000000000000e+00 1701537140
0.900373 1.415507 0.674595 0.000000000000000e+00 1851878480
0.965392 1.461314 0.749763 0.000000000000000e+00 1851878480
0.913456 1.413105 0.829254 0.000000000000000e+00 1851878480
0.805808 1.319514 0.917961 0.000000000000000e+00 1851878480
0.669083 1.201682 1.018157 0.000000000000000e+00 1851878480
0.342437 0.928488 1.157695 0.000000000000000e+00 1634431585
0.967388 1.507125 0.068642 0.000000000000000e+00 1701537140
0.969105 1.502133 0.145078 0.000000000000000e+00 1701537140
0.788668 1.352882 0.191368 0.000000000000000e+00 1701537140
0.949701 1.474064 0.294107 0.000000000000000e+00 1701537140
0.762053 1.318210 0.349912 0.000000000000000e+00 1701537140
0.964310 1.473105 0.446724 0.000000000000000e+00 1701537140
0.920523 1.431671 0.520463 0.000000000000000e+00 1701537140
0.971571 1.466341 0.597931 0.000000000000000e+00 1701537140
0.913461 1.413184 0.673859 0.000000000000000e+00 1851878480
0.963423 1.447133 0.749471 0.000000000000000e+00 1851878480
0.911989 1.399041 0.829164 0.000000000000000e+00 1851878480
0.806452 1.306602 0.917887 0.000000000000000e+00 1851878480
0.671586 1.189578 1.018025 0.000000000000000e+00 1851878480
0.367274 0.933024 1.154091 0.000000000000000e+00 1634431585
0.969378 1.496302 0.067075 0.000000000000000e+00 1701537140
0.953884 1.477625 0.140245 0.000000000000000e+00 1701537140
0.801642 1.349889 0.191762 0.000000000000000e+00 1701537140
0.954280 1.465159 0.293252 0.000000000000000e+00 1701537140
0.775817 1.315727 0.349991 0.000000000000000e+00 1701537140
0.967368 1.463017 0.445850 0.000000000000000e+00 1701537140
0.936155 1.431492 0.520261 0.000000000000000e+00 1701537140
0.971402 1.453640 0.597186 0.000000000000000e+00 1701537140
0.926630 1.410994 0.673125 0.000000000000000e+00 1851878480
0.961338 1.432777 0.749183 0.000000000000000e+00 1851878480
0.910465 1.384853 0.829080 0.000000000000000e+00 1851878480
0.807136 1.293663 0.917812 0.000000000000000e+00 1851878480
0.673933 1.177302 1.017918 0.000000000000000e+00 1851878480
0.390170 0.936133 1.150804 0.000000000000000e+00 1634431585
0.970801 1.484987 0.065368 0.000000000000000e+00 1701537140
0.961277 1.470982 0.139847 0.000000000000000e+00 1701537140
0.814637 1.346976 0.192163 0.000000000000000e+00 1701537140
0.956834 1.454609 0.292113 0.000000000000000e+00 1701537140
0.789509 1.313257 0.350067 0.000000000000000e+00 1701537140
0.946931 1.433885 0.443146 0.000000000000000e+00 1701537140
0.947046 1.427558 0.519838 0.000000000000000e+00 1701537140
0.970273 1.440094 0.596420 0.000000000000000e+00 1701537140
0.939284 1.408452 0.672402 0.000000000000000e+00 1851878480
0.959129 1.418236 0.748900 0.000000000000000e+00 1851878480
0.908964 1.370606 0.828994 0.000000000000000e+00 1851878480
0.807546 1.280439 0.917768 0.000000000000000e+00 1851878480
0.676137 1.164860 1.017835 0.000000000000000e+00 1851878480
0.411244 0.937883 1.147817 0.000000000000000e+00 1634431585
0.971523 1.473066 0.063488 0.000000000000000e+00 1701537140
0.963360 1.460083 0.138394 0.000000000000000e+00 1701537140
0.827569 1.344080 0.192560 0.000000000000000e+00 1701537140
0.958507 1.443312 0.290847 0.000000000000000e+00 1701537140
0.803169 1.310833 0.350145 0.000000000000000e+00 1701537140
0.958831 1.430820 0.442945 0.000000000000000e+00 1701537140
0.950861 1.417892 0.519078 0.000000000000000e+00 1701537140
0.967352 1.425008 0.595617 0.000000000000000e+00 1701537140
0.951654 1.405743 0.671685 0.000000000000000e+00 1851878480
0.956853 1.403557 0.748618 0.000000000000000e+00 1851878480
0.907509 1.356319 0.828907 0.000000000000000e+00 1851878480
0.807884 1.267094 0.917734 0.000000000000000e+00 1851878480
0.678102 1.152174 1.017789 0.000000000000000e+00 1851878480
0.428385 0.936490 1.145476 0.000000000000000e+00 1634431585
0.971122 1.460184 0.061336 0.000000000000000e+00 1701537140
0.955243 1.440888 0.134898 0.000000000000000e+00 1701537140
0.840531 1.341269 0.192966 0.000000000000000e+00 1701537140
0.959488 1.431404 0.289476 0.000000000000000e+00 1701537140
0.816830 1.308479 0.350228 0.000000000000000e+00 1701537140
0.967450 1.425122 0.442490 0.000000000000000e+00 1701537140
0.948947 1.403492 0.518037 0.000000000000000e+00 1701537140
0.961961 1.407793 0.594763 0.000000000000000e+00 1701537140
0.963965 1.403044 0.670972 0.000000000000000e+00 1851878480
0.954494 1.388720 0.748338 0.000000000000000e+00 1851878480
0.906049 1.341947 0.828820 0.000000000000000e+00 1851878480
0.808238 1.253696 0.917702 0.000000000000000e+00 1851878480
0.680100 1.139461 1.017742 0.000000000000000e+00 1851878480
0.444341 0.934195 1.143332 0.000000000000000e+00 1634431585
0.967341 1.444492 0.058390 0.000000000000000e+00 1701537140
0.930447 1.407969 0.128043 0.000000000000000e+00 1701537140
0.853548 1.338566 0.193386 0.000000000000000e+00 1701537140
0.959345 1.418522 0.287939 0.000000000000000e+00 1701537140
0.830420 1.306136 0.350309 0.000000000000000e+00 1701537140
0.970752 1.415064 0.441614 0.000000000000000e+00 1701537140
0.949454 1.391010 0.517109 0.000000000000000e+00 1701537140
0.955847 1.389859 0.593888 0.000000000000000e+00 1701537140
0.974580 1.398994 0.670282 0.000000000000000e+00 1851878480
0.952104 1.373769 0.748059 0.000000000000000e+00 1851878480
0.904649 1.327543 0.828730 0.000000000000000e+00 1851878480
0.808310 1.239996 0.917701 0.000000000000000e+00 1851878480
0.681952 1.126573 1.017720 0.000000000000000e+00 1851878480
0.459844 0.931603 1.141264 0.000000000000000e+00 1634431585
0.958406 1.424491 0.054232 0.000000000000000e+00 1701537140
0.944722 1.406745 0.128977 0.000000000000000e+00 1701537140
0.866558 1.335923 0.193810 0.000000000000000e+00 1701537140
0.958882 1.405312 0.286348 0.000000000000000e+00 1701537140
0.844075 1.303918 0.350401 0.000000000000000e+00 1701537140
0.872450 1.320705 0.432652 0.000000000000000e+00 1701537140
0.949454 1.378047 0.516149 0.000000000000000e+00 1701537140
0.849203 1.287905 0.591087 0.000000000000000e+00 1851878480
0.983276 1.393382 0.669616 0.000000000000000e+00 1851878480
0.949699 1.358716 0.747778 0.000000000000000e+00 1851878480
0.903263 1.313070 0.828641 0.000000000000000e+00 1851878480
0.808430 1.226268 0.917699 0.000000000000000e+00 1851878480
0.683425 1.113311 1.017753 0.000000000000000e+00 1851878480
0.573239 1.012298 1.123098 0.000000000000000e+00 1851878480
0.949909 1.404696 0.050145 0.000000000000000e+00 1701537140
0.949454 1.397736 0.127996 0.000000000000000e+00 1701537140
0.895692 1.346678 0.196992 0.000000000000000e+00 1701537140
0.955904 1.389947 0.284392 0.000000000000000e+00 1701537140
0.857725 1.301766 0.350498 0.000000000000000e+00 1701537140
0.904483 1.334044 0.434022 0.000000000000000e+00 1701537140
0.850596 1.282268 0.510282 0.000000000000000e+00 1701537140
0.864702 1.287349 0.590586 0.000000000000000e+00 1851878480
0.984690 1.381662 0.669031 0.000000000000000e+00 1851878480
0.947306 1.343582 0.747497 0.000000000000000e+00 1851878480
0.901944 1.298572 0.828547 0.000000000000000e+00 1851878480
0.808406 1.212348 0.917714 0.000000000000000e+00 1851878480
0.680639 1.096359 1.018360 0.000000000000000e+00 1851878480
0.577237 1.000537 1.122914 0.000000000000000e+00 1851878480
0.958209 1.392045 0.127822 0.000000000000000e+00 1701537140
0.910987 1.346148 0.197829 0.000000000000000e+00 1701537140
0.882408 1.315639 0.272475 0.000000000000000e+00 1701537140
0.871408 1.299715 0.350605 0.000000000000000e+00 1701537140
0.920366 1.334084 0.434113 0.000000000000000e+00 1701537140
0.966638 1.366397 0.515073 0.000000000000000e+00 1701537140
0.880024 1.286734 0.590087 0.000000000000000e+00 1851878480
0.982207 1.366588 0.668486 0.000000000000000e+00 1851878480
0.944956 1.328394 0.747212 0.000000000000000e+00 1851878480
0.900636 1.284002 0.828454 0.000000000000000e+00 1851878480
0.808258 1.198252 0.917745 0.000000000000000e+00 1851878480
0.687546 1.087618 1.017677 0.000000000000000e+00 1851878480
0.580801 0.988365 1.122808 0.000000000000000e+00 1851878480
0.967407 1.386748 0.127737 0.000000000000000e+00 1701537140
0.926197 1.345637 0.198660 0.000000000000000e+00 1701537140
0.897888 1.315218 0.273062 0.000000000000000e+00 1701537140
0.901187 1.311289 0.352507 0.000000000000000e+00 1701537140
0.936021 1.334028 0.434193 0.000000000000000e+00 1701537140
0.970087 1.356248 0.514278 0.000000000000000e+00 1701537140
0.895221 1.286102 0.589590 0.000000000000000e+00 1851878480
0.979583 1.351303 0.667939 0.000000000000000e+00 1851878480
0.942805 1.313283 0.746917 0.000000000000000e+00 1851878480
0.899464 1.269466 0.828352 0.000000000000000e+00 1851878480
0.808137 1.184104 0.917777 0.000000000000000e+00 1851878480
0.689338 1.074458 1.017682 0.000000000000000e+00 1851878480
0.584148 0.975965 1.122743 0.000000000000000e+00 1851878480
0.970648 1.376480 0.126439 0.000000000000000e+00 1701537140
0.941085 1.344946 0.199444 0.000000000000000e+00 1701537140
0.913365 1.314888 0.273657 0.000000000000000e+00 1701537140
0.917078 1.311338 0.352880 0.000000000000000e+00 1701537140
0.949203 1.331966 0.434079 0.000000000000000e+00 1701537140
0.971556 1.344381 0.513379 0.000000000000000e+00 1701537140
0.910316 1.285473 0.589097 0.000000000000000e+00 1851878480
0.976831 1.335815 0.667390 0.000000000000000e+00 1851878480
0.940665 1.298093 0.746621 0.000000000000000e+00 1851878480
0.898271 1.254831 0.828252 0.000000000000000e+00 1851878480
0.807842 1.169736 0.917829 0.000000000000000e+00 1851878480
0.690973 1.061108 1.017713 0.000000000000000e+00 1851878480
0.587297 0.963350 1.122718 0.000000000000000e+00 1851878480
0.971543 1.364197 0.124651 0.000000000000000e+00 1701537140
0.949455 1.338815 0.199104 0.000000000000000e+00 1701537140
0.928729 1.314551 0.274243 0.000000000000000e+00 1701537140
0.932839 1.311369 0.353246 0.000000000000000e+00 1701537140
0.949454 1.318912 0.432911 0.000000000000000e+00 1701537140
0.969199 1.329178 0.512280 0.000000000000000e+00 1701537140
0.925317 1.284849 0.588607 0.000000000000000e+00 1851878480
0.973868 1.320046 0.666839 0.000000000000000e+00 1851878480
0.938892 1.283127 0.746309 0.000000000000000e+00 1851878480
0.897132 1.240159 0.828150 0.000000000000000e+00 1851878480
0.807330 1.155098 0.917907 0.000000000000000e+00 1851878480
0.692449 1.047557 1.017771 0.000000000000000e+00 1851878480
0.590361 0.950612 1.122713 0.000000000000000e+00 1851878480
0.963999 1.344682 0.121119 0.000000000000000e+00 1701537140
0.957195 1.332168 0.198654 0.000000000000000e+00 1701537140
0.943690 1.313961 0.274780 0.000000000000000e+00 1701537140
0.947715 1.310737 0.353519 0.000000000000000e+00 1701537140
0.962196 1.316539 0.432764 0.000000000000000e+00 1701537140
0.956348 1.304825 0.510632 0.000000000000000e+00 1701537140
0.939866 1.283921 0.588112 0.000000000000000e+00 1851878480
0.970812 1.304096 0.666286 0.000000000000000e+00 1851878480
0.937302 1.268232 0.745989 0.000000000000000e+00 1851878480
0.896024 1.225429 0.828046 0.000000000000000e+00 1851878480
0.805388 1.139129 0.918135 0.000000000000000e+00 1851878480
0.693849 1.033876 1.017843 0.000000000000000e+00 1851878480
0.593278 0.937695 1.122739 0.000000000000000e+00 1851878480
0.967569 1.327790 0.198663 0.000000000000000e+00 1701537140
0.949455 1.305545 0.273998 0.000000000000000e+00 1701537140
0.949454 1.298853 0.352309 0.000000000000000e+00 1701537140
0.969178 1.309245 0.432145 0.000000000000000e+00 1701537140
0.885143 1.229601 0.505940 0.000000000000000e+00 1851878480
0.954283 1.282961 0.587620 0.000000000000000e+00 1851878480
0.968269 1.288493 0.665723 0.000000000000000e+00 1851878480
0.935904 1.253417 0.745659 0.000000000000000e+00 1851878480
0.894769 1.210486 0.827954 0.000000000000000e+00 1851878480
0.807197 1.126369 0.917981 0.000000000000000e+00 1851878480
0.695026 1.019935 1.017951 0.000000000000000e+00 1851878480
0.596158 0.924695 1.122778 0.000000000000000e+00 1851878480
0.971062 1.317515 0.197465 0.000000000000000e+00 1701537140
0.960950 1.302080 0.274043 0.000000000000000e+00 1701537140
0.962483 1.296721 0.352379 0.000000000000000e+00 1701537140
0.971504 1.297899 0.431137 0.000000000000000e+00 1701537140
0.900651 1.229302 0.505720 0.000000000000000e+00 1851878480
0.967961 1.281434 0.587116 0.000000000000000e+00 1851878480
0.966203 1.273210 0.665153 0.000000000000000e+00 1851878480
0.934652 1.238644 0.745323 0.000000000000000e+00 1851878480
0.893434 1.195386 0.827869 0.000000000000000e+00 1851878480
0.805964 1.110856 0.918142 0.000000000000000e+00 1851878480
0.696003 1.005749 1.018090 0.000000000000000e+00 1851878480
0.599042 0.911647 1.122823 0.000000000000000e+00 1851878480
0.970232 1.303453 0.195497 0.000000000000000e+00 1701537140
0.969031 1.295693 0.273594 0.000000000000000e+00 1701537140
0.969470 1.289377 0.351761 0.000000000000000e+00 1701537140
0.966866 1.280405 0.429540 0.000000000000000e+00 1701537140
0.916056 1.229004 0.505502 0.000000000000000e+00 1851878480
0.979872 1.278426 0.586579 0.000000000000000e+00 1851878480
0.964401 1.258068 0.664577 0.000000000000000e+00 1851878480
0.933441 1.223821 0.744983 0.000000000000000e+00 1851878480
0.891794 1.179927 0.827807 0.000000000000000e+00 1851878480
0.804691 1.095216 0.918311 0.000000000000000e+00 1851878480
0.696912 0.991432 1.018244 0.000000000000000e+00 1851878480
0.601922 0.898543 1.122876 0.000000000000000e+00 1851878480
0.950591 1.272878 0.190182 0.000000000000000e+00 1701537140
0.971551 1.284448 0.272332 0.000000000000000e+00 1701537140
0.971633 1.277796 0.350587 0.000000000000000e+00 1701537140
0.888719 1.197988 0.421739 0.000000000000000e+00 1851878480
0.931243 1.228605 0.505278 0.000000000000000e+00 1851878480
0.979473 1.264555 0.585771 0.000000000000000e+00 1851878480
0.962800 1.243014 0.663997 0.000000000000000e+00 1851878480
0.932292 1.208968 0.744641 0.000000000000000e+00 1851878480
0.889868 1.164118 0.827766 0.000000000000000e+00 1851878480
0.803386 1.079457 0.918486 0.000000000000000e+00 1851878480
0.697615 0.976858 1.018431 0.000000000000000e+00 1851878480
0.604841 0.885421 1.122928 0.000000000000000e+00 1851878480
0.864417 1.183549 0.172994 0.000000000000000e+00 1851878480
0.962453 1.262919 0.269357 0.000000000000000e+00 1701537140
0.959417 1.253455 0.347741 0.000000000000000e+00 1701537140
0.904329 1.197818 0.421797 0.000000000000000e+00 1851878480
0.946080 1.227986 0.505041 0.000000000000000e+00 1851878480
0.975029 1.246999 0.584869 0.000000000000000e+00 1851878480
0.961241 1.227908 0.663412 0.000000000000000e+00 1851878480
0.931186 1.194068 0.744296 0.000000000000000e+00 1851878480
0.887837 1.148120 0.827734 0.000000000000000e+00 1851878480
0.802039 1.063569 0.918670 0.000000000000000e+00 1851878480
0.698153 0.962064 1.018646 0.000000000000000e+00 1851878480
0.607834 0.872315 1.122975 0.000000000000000e+00 1851878480
0.880058 1.183253 0.173847 0.000000000000000e+00 1851878480
0.882423 1.178302 0.255904 0.000000000000000e+00 1851878480
0.893452 1.181090 0.338622 0.000000000000000e+00 1851878480
0.919838 1.197649 0.421853 0.000000000000000e+00 1851878480
0.960805 1.227350 0.504804 0.000000000000000e+00 1851878480
0.971333 1.229992 0.583975 0.000000000000000e+00 1851878480
0.959716 1.212740 0.662824 0.000000000000000e+00 1851878480
0.930088 1.179086 0.743949 0.000000000000000e+00 1851878480
0.885733 1.131956 0.827708 0.000000000000000e+00 1851878480
0.800661 1.047555 0.918859 0.000000000000000e+00 1851878480
0.698529 0.947040 1.018887 0.000000000000000e+00 1851878480
0.610877 0.859199 1.123021 0.000000000000000e+00 1851878480
0.895283 1.182680 0.174633 0.000000000000000e+00 1851878480
0.897983 1.178050 0.256485 0.000000000000000e+00 1851878480
0.909039 1.180930 0.338947 0.000000000000000e+00 1851878480
0.934935 1.197202 0.421881 0.000000000000000e+00 1851878480
0.974308 1.225700 0.504506 0.000000000000000e+00 1851878480
0.969331 1.214401 0.583115 0.000000000000000e+00 1851878480
0.958203 1.197491 0.662233 0.000000000000000e+00 1851878480
0.929021 1.164043 0.743601 0.000000000000000e+00 1851878480
0.883775 1.115823 0.827672 0.000000000000000e+00 1851878480
0.799253 1.031419 0.919055 0.000000000000000e+00 1851878480
0.698764 0.931809 1.019154 0.000000000000000e+00 1851878480
0.613975 0.846080 1.123064 0.000000000000000e+00 1851878480
0.910414 1.182111 0.175411 0.000000000000000e+00 1851878480
0.913144 1.177530 0.257015 0.000000000000000e+00 1851878480
0.924233 1.180509 0.339232 0.000000000000000e+00 1851878480
0.949882 1.196709 0.421902 0.000000000000000e+00 1851878480
0.980587 1.217578 0.503818 0.000000000000000e+00 1851878480
0.967572 1.198933 0.582254 0.000000000000000e+00 1851878480
0.956717 1.182173 0.661638 0.000000000000000e+00 1851878480
0.927954 1.148913 0.743251 0.000000000000000e+00 1851878480
0.886045 1.103466 0.827337 0.000000000000000e+00 1851878480
0.797813 1.015155 0.919258 0.000000000000000e+00 1851878480
0.698943 0.916443 1.019433 0.000000000000000e+00 1851878480
0.617104 0.832936 1.123109 0.000000000000000e+00 1851878480
0.924503 1.180691 0.176009 0.000000000000000e+00 1851878480
0.928209 1.177014 0.257538 0.000000000000000e+00 1851878480
0.939263 1.180030 0.339506 0.000000000000000e+00 1851878480
0.964069 1.195612 0.421864 0.000000000000000e+00 1851878480
0.974982 1.198617 0.502473 0.000000000000000e+00 1851878480
0.965915 1.183462 0.581390 0.000000000000000e+00 1851878480
0.955237 1.166769 0.661040 0.000000000000000e+00 1851878480
0.926889 1.133693 0.742900 0.000000000000000e+00 1851878480
0.886098 1.089010 0.827161 0.000000000000000e+00 1851878480
0.796337 0.998760 0.919468 0.000000000000000e+00 1851878480
0.698951 0.900834 1.019742 0.000000000000000e+00 1851878480
0.620281 0.819783 1.123153 0.000000000000000e+00 1851878480
0.933443 1.174685 0.175680 0.000000000000000e+00 1851878480
0.942184 1.175594 0.257906 0.000000000000000e+00 1851878480
0.953580 1.178988 0.339702 0.000000000000000e+00 1851878480
0.976130 1.192651 0.421647 0.000000000000000e+00 1851878480
0.970215 1.180286 0.501163 0.000000000000000e+00 1851878480
0.964357 1.167988 0.580523 0.000000000000000e+00 1851878480
0.953733 1.151248 0.660438 0.000000000000000e+00 1851878480
0.925771 1.118335 0.742550 0.000000000000000e+00 1851878480
0.886150 1.074472 0.826987 0.000000000000000e+00 1851878480
0.794828 0.982234 0.919685 0.000000000000000e+00 1851878480
0.698874 0.885059 1.020067 0.000000000000000e+00 1851878480
0.623441 0.806560 1.123207 0.000000000000000e+00 1851878480
0.926378 1.154110 0.172431 0.000000000000000e+00 1851878480
0.950278 1.168874 0.257394 0.000000000000000e+00 1851878480
0.965855 1.176154 0.339661 0.000000000000000e+00 1851878480
0.972645 1.175448 0.420069 0.000000000000000e+00 1851878480
0.967607 1.163817 0.499964 0.000000000000000e+00 1851878480
0.962890 1.152501 0.579653 0.000000000000000e+00 1851878480
0.952255 1.135655 0.659833 0.000000000000000e+00 1851878480
0.924661 1.102891 0.742199 0.000000000000000e+00 1851878480
0.886199 1.059851 0.826814 0.000000000000000e+00 1851878480
0.793286 0.965576 0.919909 0.000000000000000e+00 1851878480
0.698680 0.869084 1.020415 0.000000000000000e+00 1851878480
0.626588 0.793268 1.123270 0.000000000000000e+00 1851878480
0.920713 1.134662 0.169413 0.000000000000000e+00 1851878480
0.943430 1.148422 0.254618 0.000000000000000e+00 1851878480
0.962163 1.158648 0.337712 0.000000000000000e+00 1851878480
0.966849 1.155990 0.418276 0.000000000000000e+00 1851878480
0.965323 1.147541 0.498775 0.000000000000000e+00 1851878480
0.961490 1.136983 0.578778 0.000000000000000e+00 1851878480
0.950867 1.120051 0.659224 0.000000000000000e+00 1851878480
0.921098 1.085057 0.741942 0.000000000000000e+00 1851878480
0.886247 1.045147 0.826643 0.000000000000000e+00 1851878480
0.791710 0.948782 0.920140 0.000000000000000e+00 1851878480
0.698322 0.852864 1.020790 0.000000000000000e+00 1851878480
0.629643 0.779834 1.123355 0.000000000000000e+00 1851878480
0.917312 1.117162 0.166788 0.000000000000000e+00 1851878480
0.938001 1.129128 0.252036 0.000000000000000e+00 1851878480
0.955886 1.138625 0.335437 0.000000000000000e+00 1851878480
0.963511 1.138677 0.416687 0.000000000000000e+00 1851878480
0.963250 1.131359 0.497589 0.000000000000000e+00 1851878480
0.960191 1.121465 0.577900 0.000000000000000e+00 1851878480
0.949477 1.104350 0.658612 0.000000000000000e+00 1851878480
0.925144 1.074270 0.741389 0.000000000000000e+00 1851878480
0.886293 1.030362 0.826472 0.000000000000000e+00 1851878480
0.790108 0.931862 0.920378 0.000000000000000e+00 1851878480
0.697826 0.836421 1.021190 0.000000000000000e+00 1851878480
0.632255 0.765922 1.123522 0.000000000000000e+00 1851878480
0.914290 1.099894 0.164213 0.000000000000000e+00 1851878480
0.934753 1.111723 0.249767 0.000000000000000e+00 1851878480
0.952383 1.121039 0.333479 0.000000000000000e+00 1851878480
0.960829 1.121860 0.415144 0.000000000000000e+00 1851878480
0.961383 1.115263 0.496406 0.000000000000000e+00 1851878480
0.958990 1.105941 0.577020 0.000000000000000e+00 1851878480
0.948073 1.088536 0.657996 0.000000000000000e+00 1851878480
0.925408 1.059861 0.740982 0.000000000000000e+00 1851878480
0.886339 1.015489 0.826304 0.000000000000000e+00 1851878480
0.788496 0.914823 0.920620 0.000000000000000e+00 1851878480
0.697298 0.819848 1.021601 0.000000000000000e+00 1851878480
0.634662 0.751747 1.123731 0.000000000000000e+00 1851878480
0.911529 1.082753 0.161666 0.000000000000000e+00 1851878480
0.931894 1.094564 0.247539 0.000000000000000e+00 1851878480
0.949464 1.103880 0.331576 0.000000000000000e+00 1851878480
0.958417 1.105185 0.413613 0.000000000000000e+00 1851878480
0.959784 1.099319 0.495230 0.000000000000000e+00 1851878480
0.957925 1.090451 0.576137 0.000000000000000e+00 1851878480
0.946652 1.072608 0.657376 0.000000000000000e+00 1851878480
0.925641 1.045341 0.740576 0.000000000000000e+00 1851878480
0.886395 1.000541 0.826136 0.000000000000000e+00 1851878480
0.786859 0.897653 0.920868 0.000000000000000e+00 1851878480
0.696630 0.803042 1.022037 0.000000000000000e+00 1851878480
0.637177 0.737609 1.123929 0.000000000000000e+00 1851878480
0.909085 1.065796 0.159158 0.000000000000000e+00 1851878480
0.929301 1.077540 0.245336 0.000000000000000e+00 1851878480
0.946833 1.086879 0.329694 0.000000000000000e+00 1851878480
0.956287 1.088668 0.412096 0.000000000000000e+00 1851878480
0.958390 1.083468 0.494057 0.000000000000000e+00 1851878480
0.956982 1.074981 0.575251 0.000000000000000e+00 1851878480
0.945061 1.056417 0.656755 0.000000000000000e+00 1851878480
0.925869 1.030734 0.740169 0.000000000000000e+00 1851878480
0.886440 0.985497 0.825970 0.000000000000000e+00 1851878480
0.785201 0.880353 0.921122 0.000000000000000e+00 1851878480
0.695900 0.786075 1.022487 0.000000000000000e+00 1851878480
0.636173 0.719989 1.124729 0.000000000000000e+00 1851878480
0.906971 1.049040 0.156693 0.000000000000000e+00 1851878480
0.927015 1.060695 0.243163 0.000000000000000e+00 1851878480
0.944512 1.070059 0.327836 0.000000000000000e+00 1851878480
0.954492 1.072363 0.410599 0.000000000000000e+00 1851878480
0.957150 1.067666 0.492886 0.000000000000000e+00 1851878480
0.956100 1.059476 0.574362 0.000000000000000e+00 1851878480
0.945449 1.042027 0.656118 0.000000000000000e+00 1851878480
0.926104 1.016051 0.739761 0.000000000000000e+00 1851878480
0.886481 0.970362 0.825806 0.000000000000000e+00 1851878480
0.783500 0.862902 0.921385 0.000000000000000e+00 1851878480
0.695061 0.768898 1.022959 0.000000000000000e+00 1851878480
0.633317 0.700451 1.125850 0.000000000000000e+00 1851878480
0.905059 1.032367 0.154246 0.000000000000000e+00 1851878480
0.925080 1.044074 0.241028 0.000000000000000e+00 1851878480
0.942568 1.053489 0.326010 0.000000000000000e+00 1851878480
0.952977 1.056221 0.409116 0.000000000000000e+00 1851878480
0.955999 1.051850 0.491711 0.000000000000000e+00 1851878480
0.955261 1.043916 0.573468 0.000000000000000e+00 1851878480
0.945953 1.027668 0.655478 0.000000000000000e+00 1851878480
0.926346 1.001291 0.739352 0.000000000000000e+00 1851878480
0.886519 0.955136 0.825643 0.000000000000000e+00 1851878480
0.781789 0.845328 0.921652 0.000000000000000e+00 1851878480
0.694137 0.751532 1.023449 0.000000000000000e+00 1851878480
0.631685 0.681983 1.126775 0.000000000000000e+00 1851878480
0.903250 1.015684 0.151800 0.000000000000000e+00 1851878480
0.923368 1.027558 0.238911 0.000000000000000e+00 1851878480
0.940888 1.037065 0.324203 0.000000000000000e+00 1851878480
0.951640 1.040147 0.407638 0.000000000000000e+00 1851878480
0.954901 1.035986 0.490532 0.000000000000000e+00 1851878480
0.954404 1.028243 0.572568 0.000000000000000e+00 1851878480
0.946126 1.012906 0.654837 0.000000000000000e+00 1851878480
0.926588 0.986445 0.738942 0.000000000000000e+00 1851878480
0.886555 0.939819 0.825482 0.000000000000000e+00 1851878480
0.780085 0.827648 0.921923 0.000000000000000e+00 1851878480
0.693129 0.733976 1.023957 0.000000000000000e+00 1851878480
0.630660 0.663998 1.127606 0.000000000000000e+00 1851878480
0.901402 0.998858 0.149328 0.000000000000000e+00 1851878480
0.921749 1.011029 0.236793 0.000000000000000e+00 1851878480
0.939333 1.020658 0.322399 0.000000000000000e+00 1851878480
0.950379 1.024048 0.406156 0.000000000000000e+00 1851878480
0.953780 1.020003 0.489343 0.000000000000000e+00 1851878480
0.950869 1.009860 0.571589 0.000000000000000e+00 1851878480
0.946225 0.997987 0.654193 0.000000000000000e+00 1851878480
0.926835 0.971521 0.738532 0.000000000000000e+00 1851878480
0.886601 0.924424 0.825321 0.000000000000000e+00 1851878480
0.778334 0.809809 0.922202 0.000000000000000e+00 1851878480
0.669098 0.693488 1.027610 0.000000000000000e+00 1851878480
0.631146 0.647403 1.128191 0.000000000000000e+00 1851878480
0.899489 0.981857 0.146823 0.000000000000000e+00 1851878480
0.920086 0.994346 0.234651 0.000000000000000e+00 1851878480
0.937783 1.004148 0.320580 0.000000000000000e+00 1851878480
0.949111 1.007838 0.404663 0.000000000000000e+00 1851878480
0.952612 1.003870 0.488142 0.000000000000000e+00 1851878480
0.952968 0.996880 0.570758 0.000000000000000e+00 1851878480
0.946331 0.982987 0.653546 0.000000000000000e+00 1851878480
0.927068 0.956494 0.738121 0.000000000000000e+00 1851878480
0.886631 0.908920 0.825164 0.000000000000000e+00 1851878480
0.776528 0.791796 0.922491 0.000000000000000e+00 1851878480
0.670366 0.677843 1.027824 0.000000000000000e+00 1851878480
0.631662 0.630740 1.128780 0.000000000000000e+00 1851878480
0.918331 0.977466 0.232479 0.000000000000000e+00 1851878480
0.936129 0.987429 0.318735 0.000000000000000e+00 1851878480
0.947801 0.991482 0.403155 0.000000000000000e+00 1851878480
0.951310 0.987503 0.486925 0.000000000000000e+00 1851878480
0.953016 0.981810 0.569867 0.000000000000000e+00 1851878480
0.946468 0.967928 0.652897 0.000000000000000e+00 1851878480
0.927312 0.941389 0.737709 0.000000000000000e+00 1851878480
0.886657 0.893320 0.825007 0.000000000000000e+00 1851878480
0.774736 0.773678 0.922782 0.000000000000000e+00 1851878480
0.671651 0.662129 1.028041 0.000000000000000e+00 1851878480
0.632243 0.614047 1.129366 0.000000000000000e+00 1851878480
0.916654 0.960553 0.230301 0.000000000000000e+00 1851878480
0.934434 0.970559 0.316870 0.000000000000000e+00 1851878480
0.946443 0.974974 0.401631 0.000000000000000e+00 1851878480
0.948739 0.969771 0.485622 0.000000000000000e+00 1851878480
0.952974 0.966559 0.568967 0.000000000000000e+00 1851878480
0.946625 0.952799 0.652244 0.000000000000000e+00 1851878480
0.927565 0.926205 0.737296 0.000000000000000e+00 1851878480
0.886695 0.877638 0.824852 0.000000000000000e+00 1851878480
0.772948 0.755445 0.923078 0.000000000000000e+00 1851878480
0.672988 0.646380 1.028258 0.000000000000000e+00 1851878480
0.632770 0.597201 1.129971 0.000000000000000e+00 1851878480
0.915192 0.943740 0.228141 0.000000000000000e+00 1851878480
0.932857 0.953697 0.315006 0.000000000000000e+00 1851878480
0.945012 0.958286 0.400089 0.000000000000000e+00 1851878480
0.949092 0.954835 0.484488 0.000000000000000e+00 1851878480
0.952946 0.951230 0.568062 0.000000000000000e+00 1851878480
0.946788 0.937586 0.651588 0.000000000000000e+00 1851878480
0.927816 0.910927 0.736882 0.000000000000000e+00 1851878480
0.886715 0.861843 0.824699 0.000000000000000e+00 1851878480
0.771110 0.737040 0.923382 0.000000000000000e+00 1851878480
0.674290 0.630509 1.028486 0.000000000000000e+00 1851878480
0.633269 0.580226 1.130590 0.000000000000000e+00 1851878480
0.914027 0.927113 0.226012 0.000000000000000e+00 1851878480
0.931527 0.936970 0.313160 0.000000000000000e+00 1851878480
0.943478 0.941385 0.398525 0.000000000000000e+00 1851878480
0.949364 0.939729 0.483343 0.000000000000000e+00 1851878480
0.952913 0.935804 0.567152 0.000000000000000e+00 1851878480
0.946951 0.922282 0.650928 0.000000000000000e+00 1851878480
0.928065 0.895558 0.736468 0.000000000000000e+00 1851878480
0.886745 0.845961 0.824547 0.000000000000000e+00 1851878480
0.769223 0.718461 0.923696 0.000000000000000e+00 1851878480
0.675656 0.614613 1.028712 0.000000000000000e+00 1851878480
0.633711 0.563093 1.131228 0.000000000000000e+00 1851878480
0.913181 0.910698 0.223918 0.000000000000000e+00 1851878480
0.930600 0.920538 0.311351 0.000000000000000e+00 1851878480
0.941263 0.923688 0.396885 0.000000000000000e+00 1851878480
0.949376 0.924271 0.482173 0.000000000000000e+00 1851878480
0.952868 0.920271 0.566236 0.000000000000000e+00 1851878480
0.947128 0.906900 0.650266 0.000000000000000e+00 1851878480
0.928299 0.880080 0.736053 0.000000000000000e+00 1851878480
0.886761 0.829970 0.824397 0.000000000000000e+00 1851878480
0.767357 0.699779 0.924011 0.000000000000000e+00 1851878480
0.676956 0.598561 1.028953 0.000000000000000e+00 1851878480
0.634131 0.545835 1.131879 0.000000000000000e+00 1851878480
0.912550 0.894396 0.221842 0.000000000000000e+00 1851878480
0.930053 0.904386 0.309577 0.000000000000000e+00 1851878480
0.941475 0.908330 0.395465 0.000000000000000e+00 1851878480
0.949278 0.908609 0.480989 0.000000000000000e+00 1851878480
0.952794 0.904616 0.565313 0.000000000000000e+00 1851878480
0.947304 0.891426 0.649600 0.000000000000000e+00 1851878480
0.928551 0.864529 0.735636 0.000000000000000e+00 1851878480
0.886772 0.813876 0.824249 0.000000000000000e+00 1851878480
0.714379 0.628281 0.929614 0.000000000000000e+00 1851878480
0.678356 0.582523 1.029186 0.000000000000000e+00 1851878480
0.638884 0.532969 1.131797 0.000000000000000e+00 1851878480
0.912044 0.878115 0.219771 0.000000000000000e+00 1851878480
0.929892 0.888521 0.307840 0.000000000000000e+00 1851878480
0.942180 0.893378 0.394083 0.000000000000000e+00 1851878480
0.949128 0.892793 0.479793 0.000000000000000e+00 1851878480
0.952704 0.888845 0.564384 0.000000000000000e+00 1851878480
0.947488 0.875863 0.648932 0.000000000000000e+00 1851878480
0.928802 0.848881 0.735219 0.000000000000000e+00 1851878480
0.886762 0.797660 0.824104 0.000000000000000e+00 1851878480
0.716424 0.613083 0.929537 0.000000000000000e+00 1851878480
0.679670 0.566303 1.029439 0.000000000000000e+00 1851878480
0.634893 0.510925 1.133223 0.000000000000000e+00 1851878480
0.911596 0.861791 0.217693 0.000000000000000e+00 1851878480
0.929859 0.872690 0.306106 0.000000000000000e+00 1851878480
0.942419 0.877861 0.392645 0.000000000000000e+00 1851878480
0.948980 0.876882 0.478590 0.000000000000000e+00 1851878480
0.952604 0.872965 0.563449 0.000000000000000e+00 1851878480
0.947668 0.860201 0.648259 0.000000000000000e+00 1851878480
0.929058 0.833140 0.734801 0.000000000000000e+00 1851878480
0.886770 0.781361 0.823960 0.000000000000000e+00 1851878480
0.718497 0.597831 0.929460 0.000000000000000e+00 1851878480
0.681000 0.550004 1.029695 0.000000000000000e+00 1851878480
0.634971 0.492992 1.133961 0.000000000000000e+00 1851878480
0.911102 0.845315 0.215591 0.000000000000000e+00 1851878480
0.929925 0.856860 0.304372 0.000000000000000e+00 1851878480
0.942529 0.862116 0.391185 0.000000000000000e+00 1851878480
0.948830 0.860869 0.477377 0.000000000000000e+00 1851878480
0.952494 0.856975 0.562507 0.000000000000000e+00 1851878480
0.947845 0.844438 0.647584 0.000000000000000e+00 1851878480
0.929309 0.817299 0.734382 0.000000000000000e+00 1851878480
0.886782 0.764963 0.823816 0.000000000000000e+00 1851878480
0.720578 0.582504 0.929387 0.000000000000000e+00 1851878480
0.682334 0.533616 1.029958 0.000000000000000e+00 1851878480
0.635010 0.474903 1.134717 0.000000000000000e+00 1851878480
0.910624 0.828750 0.213475 0.000000000000000e+00 1851878480
0.929935 0.840876 0.302618 0.000000000000000e+00 1851878480
0.942575 0.846205 0.389708 0.000000000000000e+00 1851878480
0.948676 0.844750 0.476156 0.000000000000000e+00 1851878480
0.952374 0.840874 0.561560 0.000000000000000e+00 1851878480
0.948023 0.828579 0.646905 0.000000000000000e+00 1851878480
0.929542 0.801340 0.733962 0.000000000000000e+00 1851878480
0.886795 0.748464 0.823674 0.000000000000000e+00 1851878480
0.722655 0.567090 0.929318 0.000000000000000e+00 1851878480
0.683707 0.517173 1.030222 0.000000000000000e+00 1851878480
0.635032 0.456682 1.135485 0.000000000000000e+00 1851878480
0.910152 0.812085 0.211343 0.000000000000000e+00 1851878480
0.929897 0.824740 0.300843 0.000000000000000e+00 1851878480
0.942588 0.830161 0.388216 0.000000000000000e+00 1851878480
0.948521 0.828528 0.474926 0.000000000000000e+00 1851878480
0.952260 0.824676 0.560606 0.000000000000000e+00 1851878480
0.948201 0.812621 0.646223 0.000000000000000e+00 1851878480
0.929795 0.785303 0.733541 0.000000000000000e+00 1851878480
0.886786 0.731836 0.823535 0.000000000000000e+00 1851878480
0.724804 0.551665 0.929246 0.000000000000000e+00 1851878480
0.685035 0.500586 1.030499 0.000000000000000e+00 1851878480
0.635041 0.438332 1.136266 0.000000000000000e+00 1851878480
0.909633 0.795262 0.209187 0.000000000000000e+00 1851878480
0.929833 0.808476 0.299052 0.000000000000000e+00 1851878480
0.942576 0.813990 0.386711 0.000000000000000e+00 1851878480
0.948363 0.812199 0.473688 0.000000000000000e+00 1851878480
0.952140 0.808370 0.559647 0.000000000000000e+00 1851878480
0.948370 0.796553 0.645537 0.000000000000000e+00 1851878480
0.930046 0.769163 0.733120 0.000000000000000e+00 1851878480
0.886755 0.715079 0.823399 0.000000000000000e+00 1851878480
0.726923 0.536123 0.929181 0.000000000000000e+00 1851878480
0.686233 0.483762 1.030801 0.000000000000000e+00 1851878480
0.634958 0.419764 1.137073 0.000000000000000e+00 1851878480
0.909102 0.778319 0.207011 0.000000000000000e+00 1851878480
0.929743 0.792082 0.297244 0.000000000000000e+00 1851878480
0.942551 0.797704 0.385194 0.000000000000000e+00 1851878480
0.948215 0.795778 0.472441 0.000000000000000e+00 1851878480
0.952025 0.791965 0.558681 0.000000000000000e+00 1851878480
0.948518 0.780363 0.644848 0.000000000000000e+00 1851878480
0.930296 0.752923 0.732697 0.000000000000000e+00 1851878480
0.886737 0.698231 0.823264 0.000000000000000e+00 1851878480
0.729125 0.520587 0.929112 0.000000000000000e+00 1851878480
0.687318 0.466718 1.031126 0.000000000000000e+00 1851878480
0.634935 0.401143 1.137881 0.000000000000000e+00 1851878480
0.908560 0.761251 0.204816 0.000000000000000e+00 1851878480
0.929643 0.775570 0.295420 0.000000000000000e+00 1851878480
0.942509 0.781293 0.383663 0.000000000000000e+00 1851878480
0.948059 0.779238 0.471185 0.000000000000000e+00 1851878480
0.951899 0.775441 0.557708 0.000000000000000e+00 1851878480
0.948667 0.764067 0.644155 0.000000000000000e+00 1851878480
0.930545 0.736575 0.732273 0.000000000000000e+00 1851878480
0.886730 0.681282 0.823130 0.000000000000000e+00 1851878480
0.731270 0.504899 0.929052 0.000000000000000e+00 1851878480
0.688286 0.449439 1.031474 0.000000000000000e+00 1851878480
0.634813 0.382291 1.138716 0.000000000000000e+00 1851878480
0.908016 0.744069 0.202604 0.000000000000000e+00 1851878480
0.929501 0.758907 0.293576 0.000000000000000e+00 1851878480
0.942448 0.764757 0.382120 0.000000000000000e+00 1851878480
0.947892 0.762580 0.469919 0.000000000000000e+00 1851878480
0.951763 0.758797 0.556729 0.000000000000000e+00 1851878480
0.948812 0.747663 0.643459 0.000000000000000e+00 1851878480
0.930777 0.720105 0.731849 0.000000000000000e+00 1851878480
0.886699 0.664198 0.822998 0.000000000000000e+00 1851878480
0.736156 0.492104 0.928713 0.000000000000000e+00 1851878480
0.689158 0.431950 1.031842 0.000000000000000e+00 1851878480
0.634773 0.363406 1.139547 0.000000000000000e+00 1851878480
0.907459 0.726758 0.200371 0.000000000000000e+00 1851878480
0.929337 0.742110 0.291715 0.000000000000000e+00 1851878480
0.942380 0.748104 0.380563 0.000000000000000e+00 1851878480
0.947731 0.745819 0.468645 0.000000000000000e+00 1851878480
0.951635 0.742054 0.555744 0.000000000000000e+00 1851878480
0.948961 0.731158 0.642759 0.000000000000000e+00 1851878480
0.931029 0.703550 0.731423 0.000000000000000e+00 1851878480
0.885314 0.645524 0.822963 0.000000000000000e+00 1851878480
0.735636 0.473336 0.928939 0.000000000000000e+00 1851878480
0.689897 0.414203 1.032237 0.000000000000000e+00 1851878480
0.634717 0.344378 1.140393 0.000000000000000e+00 1851878480
0.906886 0.709312 0.198117 0.000000000000000e+00 1851878480
0.929147 0.725176 0.289836 0.000000000000000e+00 1851878480
0.942304 0.731334 0.378995 0.000000000000000e+00 1851878480
0.947564 0.728941 0.467361 0.000000000000000e+00 1851878480
0.951502 0.725195 0.554752 0.000000000000000e+00 1851878480
0.949093 0.714526 0.642055 0.000000000000000e+00 1851878480
0.931288 0.686895 0.730996 0.000000000000000e+00 1851878480
0.885594 0.628547 0.822813 0.000000000000000e+00 1851878480
0.737817 0.457416 0.928889 0.000000000000000e+00 1851878480
0.690605 0.396311 1.032643 0.000000000000000e+00 1851878480
0.634712 0.325281 1.141240 0.000000000000000e+00 1851878480
0.906302 0.691738 0.195843 0.000000000000000e+00 1851878480
0.928930 0.708100 0.287938 0.000000000000000e+00 1851878480
0.942216 0.714439 0.377412 0.000000000000000e+00 1851878480
0.947408 0.711963 0.466068 0.000000000000000e+00 1851878480
0.951369 0.708224 0.553753 0.000000000000000e+00 1851878480
0.949230 0.697791 0.641348 0.000000000000000e+00 1851878480
0.931539 0.670124 0.730568 0.000000000000000e+00 1851878480
0.885429 0.610968 0.822696 0.000000000000000e+00 1851878480
0.739762 0.441143 0.928868 0.000000000000000e+00 1851878480
0.691250 0.378234 1.033066 0.000000000000000e+00 1851878480
0.634668 0.306012 1.142106 0.000000000000000e+00 1851878480
0.905699 0.674025 0.193547 0.000000000000000e+00 1851878480
0.928692 0.690887 0.286022 0.000000000000000e+00 1851878480
0.942119 0.697424 0.375817 0.000000000000000e+00 1851878480
0.947244 0.694863 0.464765 0.000000000000000e+00 1851878480
0.951231 0.691134 0.552748 0.000000000000000e+00 1851878480
0.949376 0.680957 0.640637 0.000000000000000e+00 1851878480
0.931795 0.653247 0.730139 0.000000000000000e+00 1851878480
0.885260 0.593265 0.822580 0.000000000000000e+00 1851878480
0.741510 0.424553 0.928872 0.000000000000000e+00 1851878480
0.691874 0.360016 1.033499 0.000000000000000e+00 1851878480
0.634691 0.286690 1.142971 0.000000000000000e+00 1851878480
0.905074 0.656169 0.191229 0.000000000000000e+00 1851878480
0.928386 0.673487 0.284081 0.000000000000000e+00 1851878480
0.942010 0.680284 0.374209 0.000000000000000e+00 1851878480
0.947070 0.677640 0.463452 0.000000000000000e+00 1851878480
0.951081 0.673919 0.551735 0.000000000000000e+00 1851878480
0.949511 0.663999 0.639921 0.000000000000000e+00 1851878480
0.932051 0.636263 0.729709 0.000000000000000e+00 1851878480
0.885087 0.575441 0.822467 0.000000000000000e+00 1851878480
0.743111 0.407700 0.928896 0.000000000000000e+00 1851878480
0.692460 0.341640 1.033945 0.000000000000000e+00 1851878480
0.634650 0.267168 1.143858 0.000000000000000e+00 1851878480
0.904447 0.638185 0.188891 0.000000000000000e+00 1851878480
0.928067 0.655951 0.282123 0.000000000000000e+00 1851878480
0.941897 0.663022 0.372588 0.000000000000000e+00 1851878480
0.946904 0.660306 0.462130 0.000000000000000e+00 1851878480
0.950938 0.656592 0.550716 0.000000000000000e+00 1851878480
0.949641 0.646922 0.639202 0.000000000000000e+00 1851878480
0.932313 0.619169 0.729277 0.000000000000000e+00 1851878480
0.884930 0.557513 0.822354 0.000000000000000e+00 1851878480
0.744573 0.390583 0.928939 0.000000000000000e+00 1851878480
0.693030 0.323122 1.034401 0.000000000000000e+00 1851878480
0.634651 0.247559 1.144750 0.000000000000000e+00 1851878480
0.903811 0.620067 0.186533 0.000000000000000e+00 1851878480
0.927718 0.638263 0.280145 0.000000000000000e+00 1851878480
0.941783 0.645642 0.370953 0.000000000000000e+00 1851878480
0.946736 0.642853 0.460798 0.000000000000000e+00 1851878480
0.950795 0.639147 0.549690 0.000000000000000e+00 1851878480
0.949772 0.629730 0.638479 0.000000000000000e+00 1851878480
0.931193 0.600402 0.728891 0.000000000000000e+00 1851878480
0.884832 0.539527 0.822239 0.000000000000000e+00 1851878480
0.745856 0.373156 0.929005 0.000000000000000e+00 1851878480
0.693575 0.304452 1.034869 0.000000000000000e+00 1851878480
0.634604 0.227761 1.145661 0.000000000000000e+00 1851878480
0.903161 0.601807 0.184152 0.000000000000000e+00 1851878480
0.927357 0.620439 0.278149 0.000000000000000e+00 1851878480
0.941661 0.628134 0.369305 0.000000000000000e+00 1851878480
0.946567 0.625279 0.459456 0.000000000000000e+00 1851878480
0.950640 0.621570 0.548656 0.000000000000000e+00 1851878480
0.949900 0.612419 0.637752 0.000000000000000e+00 1851878480
