# .PCD v0.7 - Point Cloud Data file format
VERSION 0.7
FIELDS x y z intensity
SIZE 4 4 4 4
TYPE F F F F
COUNT 1 1 1 1
WIDTH 888
HEIGHT 1
VIEWPOINT 0 0 0 1 0 0 0
POINTS 888
DATA ascii
-0.40201399 -2.1347761 0.22555999 0
-0.47499201 -2.088429 0.23050299 0
-0.39214101 -2.1185501 0.455127 0
-0.540685 -2.044158 0.235103 0
-0.433054 -2.079334 0.45755401 0
-0.59934402 -2.0018389 0.23937599 0
-0.45412701 -2.044667 0.459589 0
-0.65193099 -1.961201 0.243366 0
-0.467801 -2.0117331 0.461476 0
-0.69964498 -1.921939 0.247127 0
-0.47624001 -1.9800121 0.46326101 0
-0.74122101 -1.884263 0.25060901 0
-0.481902 -1.948949 0.46499199 0
-0.77397102 -1.848652 0.25370201 0
-0.491961 -1.917073 0.46680099 0
-0.80189598 -1.814234 0.25657901 0
-0.538773 -1.878001 0.46927699 0
-0.828044 -1.78037 0.25937 0
-0.58507699 -1.839357 0.471728 0
-0.38780299 -1.890057 0.69694197 0
-0.84369099 -1.74871 0.261713 0
-0.63087201 -1.8011349 0.474154 0
-0.54002398 -1.8305809 0.69754899 0
-0.85702598 -1.7176141 0.263953 0
-0.67617297 -1.763328 0.476556 0
-0.58776802 -1.791981 0.698744 0
-0.87164903 -1.686397 0.26623899 0
-0.86570197 -1.6990089 0.48147199 0
-0.63546199 -1.753723 0.69992602 0
-0.88712502 -1.655149 0.26855299 0
-0.88021803 -1.6679111 0.483284 0
-0.68250299 -1.715914 0.70109999 0
-0.90323502 -1.623915 0.27088499 0
-0.89453501 -1.636971 0.48508701 0
-0.72778201 -1.678749 0.70227301 0
-0.91989499 -1.592714 0.27323201 0
-0.91028899 -1.6058969 0.486911 0
-0.769979 -1.642446 0.70345402 0
-0.93485498 -1.561941 0.275502 0
-0.92633301 -1.5749021 0.48873401 0
-0.80979502 -1.6068521 0.70464098 0
-0.91369998 -1.5374 0.27631199 0
-0.94200402 -1.544098 0.49054599 0
-0.84828502 -1.571762 0.705827 0
-0.76166803 -1.534497 0.27189001 0
-0.95385897 -1.5140589 0.49228999 0
-0.87090498 -1.5396169 0.70711797 0
-0.95525903 -1.474342 0.28129399 0
-0.90192997 -1.494601 0.49298799 0
-0.88197303 -1.509554 0.70848799 0
-0.97160202 -1.443758 0.28359401 0
-0.81713599 -1.4801461 0.49317199 0
-0.89136302 -1.479859 0.70986903 0
-0.94945502 -1.4193389 0.28436801 0
-0.95595002 -1.429845 0.49696401 0
-0.90060699 -1.450273 0.71125102 0
-0.93535602 -1.393572 0.28546399 0
-0.97111702 -1.399593 0.498752 0
-0.91003102 -1.420743 0.712632 0
-0.95269001 -1.351434 0.075277999 0
-0.72582901 -1.397185 0.27891999 0
-0.967215 -1.372358 0.50023597 0
-0.91991401 -1.391227 0.71400797 0
-0.96610099 -1.3215851 0.077858999 0
-0.68724698 -1.374306 0.27910599 0
-0.94804198 -1.347399 0.50148499 0
-0.93019402 -1.361739 0.71538001 0
-0.971582 -1.292978 0.079939 0
-0.95114201 -1.30751 0.29102501 0
-0.95083398 -1.319144 0.50307798 0
-0.94000602 -1.332409 0.71675599 0
-0.96843803 -1.2656389 0.081478 0
-0.956909 -1.278867 0.29289201 0
-0.956424 -1.290532 0.504713 0
-0.94853699 -1.3033479 0.71814102 0
-0.94945502 -1.2404751 0.082036003 0
-0.95059901 -1.251953 0.29429099 0
-0.69053698 -1.299885 0.50228202 0
-0.95525497 -1.274617 0.71954298 0
-0.93709499 -1.21433 0.083005004 0
-0.95152402 -1.224046 0.295968 0
-0.68444198 -1.272151 0.50378799 0
-0.95982802 -1.246249 0.720963 0
-0.81516999 -1.202477 0.077243 0
-0.95167798 -1.19627 0.29761299 0
-0.68083298 -1.244073 0.50533301 0
-0.96225399 -1.2182209 0.722404 0
-0.79710901 -1.1766191 0.077886999 0
-0.958233 -1.167689 0.29949999 0
-0.67881799 -1.2157871 0.50690299 0
-0.96324003 -1.19042 0.72385901 0
-0.79094899 -1.149189 0.079262003 0
-0.95247197 -1.140725 0.300919 0
-0.97165197 -1.1499569 0.51268703 0
-0.96307498 -1.162796 0.72532803 0
-0.79818702 -1.12011 0.081450999 0
-0.95525801 -1.112694 0.302659 0
-0.929533 -1.127579 0.51364303 0
-0.96182799 -1.1353281 0.72680998 0
-0.948147 -1.0741611 0.092295997 0
-0.80576199 -1.10297 0.29871699 0
-0.96878397 -1.095098 0.51574898 0
-0.959005 -1.108066 0.72830999 0
-0.964688 -1.044574 0.095008999 0
-0.80517101 -1.074945 0.300354 0
-0.68136001 -1.101492 0.51334298 0
-0.95472598 -1.080981 0.729828 0
-0.970945 -1.016264 0.097092003 0
-0.80456001 -1.046937 0.30199099 0
-0.68547899 -1.072578 0.51500201 0
-0.94915301 -1.054041 0.731363 0
-0.97018701 -0.98878098 0.098747998 0
-0.803936 -1.018948 0.30362499 0
-0.69347602 -1.043275 0.51671302 0
-0.94278401 -1.027176 0.73290998 0
-0.96018398 -0.96229601 0.099846996 0
-0.803307 -0.99097401 0.30525899 0
-0.94945401 -0.98699701 0.52170902 0
-0.93615103 -1.000321 0.73446602 0
-0.93754297 -0.93707502 0.100192 0
-0.68005198 -0.97585499 0.30242801 0
-0.97148699 -0.95709801 0.52355599 0
-0.929901 -0.97340298 0.736022 0
-0.68995398 -0.94646502 0.30446401 0
-0.96333402 -0.93045801 0.52500802 0
-0.92418599 -0.94641 0.73757702 0
-0.969872 -0.89052701 0.31622601 0
-0.94424999 -0.90487897 0.52632302 0
-0.91918302 -0.91932702 0.73913002 0
-0.96516401 -0.86351103 0.31768 0
0.69113302 -1.035792 0.50733602 0
-0.91542399 -0.89210701 0.74067402 0
-0.93367302 -0.83895999 0.31817901 0
-0.95807499 -0.84854102 0.52962202 0
-0.91238999 -0.86481202 0.74221402 0
0.68933398 -0.95667303 0.26218599 0
-0.95285201 -0.82156199 0.53112102 0
-0.91030502 -0.83742899 0.743747 0
-0.93778998 -0.78353202 0.321578 0
-0.94677001 -0.79464102 0.53261298 0
-0.90877903 -0.80999702 0.745278 0
-0.93979597 -0.75586301 0.323273 0
-0.94086999 -0.76768202 0.534109 0
-0.90775198 -0.782529 0.74680698 0
-0.282305 -0.84913898 0.980259 0
-0.92612898 -0.72948098 0.32441899 0
-0.935592 -0.74065298 0.53561699 0
-0.90715098 -0.75503403 0.74833298 0
-0.42972001 -0.80728102 0.97666502 0
-0.92010403 -0.70243698 0.32583401 0
-0.93172401 -0.71349198 0.53714299 0
-0.90683901 -0.72752398 0.74985999 0
-0.51242799 -0.77159202 0.97530401 0
-0.91707301 -0.67514801 0.327355 0
-0.928653 -0.68626201 0.53868097 0
-0.90677297 -0.70000798 0.751387 0
-0.573645 -0.73810101 0.97468102 0
-0.91403103 -0.64785397 0.32887599 0
-0.92557901 -0.65902603 0.54022098 0
-0.90687197 -0.67249101 0.75291502 0
-0.61949301 -0.70615 0.97458899 0
-0.91112 -0.62054598 0.330401 0
-0.92276198 -0.63176697 0.541767 0
-0.90703201 -0.64498401 0.75444603 0
-0.65877301 -0.67496502 0.97472203 0
-0.90872502 -0.59319597 0.33194399 0
-0.92105401 -0.60442603 0.54332602 0
-0.90729803 -0.61748201 0.75597799 0
-0.69705099 -0.64409697 0.97488201 0
-0.90660298 -0.56582803 0.33349699 0
-0.91974097 -0.57706302 0.54489201 0
-0.90760797 -0.58999097 0.75751299 0
-0.71191901 -0.61502397 0.975878 0
-0.90480298 -0.538436 0.33506101 0
-0.918859 -0.549676 0.54646403 0
-0.90797198 -0.56250799 0.75905102 0
-0.72233701 -0.58633101 0.97703499 0
-0.90344 -0.51102102 0.33663899 0
-0.91843897 -0.52226698 0.548042 0
-0.90830201 -0.53504097 0.76059198 0
-0.72843099 -0.55797303 0.978351 0
-0.90250099 -0.483585 0.33823201 0
-0.91845298 -0.49484199 0.54962701 0
-0.90863001 -0.50758499 0.76213598 0
-0.92954499 -0.51851499 0.97255599 0
-0.90192997 -0.45613199 0.33983701 0
-0.91904402 -0.467397 0.55121797 0
-0.90892798 -0.48014101 0.76368397 0
-0.95504802 -0.489786 0.97313499 0
-0.901703 -0.42866901 0.341452 0
-0.91983598 -0.43995401 0.55281299 0
-0.90913701 -0.452714 0.76523602 0
-0.72357798 -0.47436199 0.98316997 0
-0.90154099 -0.401209 0.34307 0
-0.920681 -0.412521 0.55440903 0
-0.90928501 -0.42529699 0.76679301 0
-0.72285801 -0.446446 0.98475498 0
-0.90144598 -0.37375501 0.34468901 0
-0.92145902 -0.38510501 0.55600601 0
-0.90932798 -0.39789599 0.768354 0
-0.72221899 -0.41852999 0.98634303 0
-0.90129101 -0.34630799 0.346306 0
-0.92211503 -0.35770401 0.557603 0
-0.90937299 -0.3705 0.76991898 0
-0.72161901 -0.390616 0.98793501 0
-0.90108401 -0.31887001 0.34792 0
-0.92256302 -0.33032301 0.55919898 0
-0.90924603 -0.34312001 0.77148998 0
-0.72106302 -0.36270601 0.98953098 0
-0.90073699 -0.29144001 0.34953001 0
-0.92274803 -0.302959 0.560794 0
-0.90910798 -0.31574401 0.77306402 0
-0.72061998 -0.33479199 0.99112898 0
-0.90032703 -0.26401499 0.351138 0
-0.92268801 -0.27560899 0.56238902 0
-0.90890002 -0.288376 0.774643 0
-0.72016299 -0.30688301 0.992733 0
-0.90487897 -0.22416399 0.14167701 0
-0.89980698 -0.236597 0.35274199 0
-0.92245001 -0.24826901 0.56398398 0
-0.90866202 -0.261013 0.77622598 0
-0.71971798 -0.27897799 0.99434203 0
-0.90571499 -0.196713 0.14336 0
-0.89922798 -0.209181 0.35434401 0
-0.92202401 -0.220936 0.565579 0
-0.90840602 -0.23365299 0.77781302 0
-0.71921301 -0.251075 0.99595898 0
-0.90641898 -0.169275 0.145034 0
-0.89855498 -0.181768 0.35594401 0
-0.92149699 -0.193608 0.56717497 0
-0.90805101 -0.20629901 0.779405 0
-0.71864802 -0.223176 0.99758399 0
-0.90707898 -0.141844 0.146703 0
-0.89783001 -0.154355 0.35754099 0
-0.92078799 -0.166282 0.56877202 0
-0.90763098 -0.178947 0.78100199 0
-0.71796501 -0.195278 0.99922001 0
-0.90764201 -0.114423 0.14836399 0
-0.89700103 -0.12694199 0.35913599 0
-0.92007601 -0.13895699 0.57037002 0
-0.90722197 -0.15159699 0.78260201 0
-0.7173 -0.167382 1.00086 0
-0.317233 -0.187782 1.241349 0
-0.90814698 -0.087006003 0.15002 0
-0.89613199 -0.099527001 0.36072901 0
-0.919159 -0.111632 0.57196897 0
-0.90681601 -0.124246 0.78420699 0
-0.71669602 -0.13948099 1.0025049 0
-0.39781699 -0.157369 1.238025 0
-0.908602 -0.059597 0.15167101 0
-0.89513701 -0.072109997 0.36231899 0
-0.91825199 -0.084303997 0.57357001 0
-0.906425 -0.096896 0.785815 0
-0.716075 -0.111582 1.004156 0
-0.44154301 -0.127937 1.236975 0
-0.90896201 -0.032189999 0.15331399 0
-0.894113 -0.044688001 0.36390799 0
-0.91722202 -0.056972001 0.57517201 0
-0.90609503 -0.069544002 0.78742498 0
-0.71556997 -0.083678 1.005808 0
-0.470054 -0.098929003 1.236869 0
-0.90925699 -0.0047889999 0.154952 0
-0.89297003 -0.017263001 0.36549401 0
-0.91616201 -0.029637 0.57677698 0
-0.90576202 -0.042190999 0.78904003 0
-0.715056 -0.055774 1.007467 0
-0.48723 -0.070175998 1.237471 0
-0.90947801 0.022612 0.15658399 0
-0.89179301 0.010168 0.36707899 0
-0.91502398 -0.002295 0.57838303 0
-0.90527302 -0.014839 0.79066098 0
-0.71446902 -0.027868001 1.009135 0
-0.50044101 -0.041545998 1.238323 0
-0.90961701 0.050012 0.15820999 0
-0.89051801 0.037609 0.36866099 0
-0.91383898 0.025054 0.57999098 0
-0.90477198 0.012518 0.79228699 0
-0.71376997 4.2e-05 1.010813 0
-0.50770599 -0.013002 1.239553 0
-0.90973502 0.077411003 0.159833 0
-0.88919902 0.065056004 0.37024301 0
-0.91261899 0.052409001 0.58160102 0
-0.90426803 0.039877001 0.79391599 0
-0.71292597 0.027956 1.012504 0
-0.51263201 0.0155 1.240937 0
-0.90977401 0.104812 0.161449 0
-0.88780802 0.092514999 0.37182301 0
-0.911327 0.079774998 0.58321297 0
-0.90378201 0.06724 0.79554999 0
-0.71193701 0.055877 1.0142061 0
-0.515028 0.043986 1.242487 0
-0.90982598 0.13221399 0.163064 0
-0.88634598 0.119982 0.373402 0
-0.91000301 0.107149 0.58482701 0
-0.903292 0.094607003 0.79718697 0
-0.71078998 0.083806001 1.015921 0
-0.514539 0.072479002 1.2442271 0
-0.90987003 0.15961801 0.16467801 0
-0.88483799 0.14746299 0.37498 0
-0.908602 0.134535 0.58644402 0
-0.90275598 0.121979 0.79882997 0
-0.70942402 0.111747 1.017651 0
-0.51131099 0.101008 1.246151 0
-0.90996301 0.187022 0.166291 0
-0.88327903 0.174955 0.37655699 0
-0.907139 0.16193099 0.58806199 0
-0.90205401 0.149358 0.80047899 0
-0.70789403 0.139699 1.019394 0
-0.50559801 0.12959 1.248242 0
-0.91018999 0.214426 0.16790999 0
-0.88172603 0.20246001 0.378135 0
-0.90564603 0.18934099 0.589683 0
-0.90133101 0.17674699 0.80213398 0
-0.70625001 0.167666 1.021149 0
-0.49744099 0.158251 1.250501 0
-0.91052502 0.24182899 0.169533 0
-0.88023299 0.229975 0.379715 0
-0.90408802 0.216763 0.59130597 0
-0.90056598 0.204142 0.80379301 0
-0.70441198 0.19565 1.022918 0
-0.48229 0.18710101 1.253219 0
-0.910936 0.269232 0.171158 0
-0.87891197 0.257498 0.38130099 0
-0.902574 0.24419799 0.592933 0
-0.89975202 0.231547 0.805457 0
-0.70244801 0.22365101 1.0247 0
-0.459984 0.216207 1.256413 0
-0.91126198 0.29664001 0.172777 0
-0.87785602 0.285027 0.38289601 0
-0.90104097 0.27164701 0.59456199 0
-0.89886999 0.258964 0.807127 0
-0.70033097 0.251674 1.026494 0
-0.417604 0.245968 1.260921 0
-0.911246 0.324063 0.174376 0
-0.87705201 0.312556 0.384498 0
-0.89964497 0.29910499 0.59619403 0
-0.89793098 0.28639099 0.80880302 0
-0.69817102 0.279713 1.028298 0
-0.91056299 0.35151801 0.17594001 0
-0.87641799 0.34009099 0.386105 0
-0.89848399 0.32656899 0.59783 0
-0.89679402 0.31383699 0.81048697 0
-0.69597298 0.30777401 1.03011 0
-0.90916598 0.37901101 0.17746601 0
-0.875799 0.367634 0.387714 0
-0.89759099 0.35403499 0.59947002 0
-0.895459 0.34130201 0.81217903 0
-0.693802 0.33585101 1.031927 0
-0.90714502 0.40654901 0.178959 0
-0.87512797 0.39519 0.38932201 0
-0.89693701 0.38150299 0.60111398 0
-0.89392501 0.36879101 0.81387901 0
-0.69155002 0.36395201 1.033756 0
-0.90471601 0.43412501 0.18043 0
-0.87407702 0.42277399 0.39092001 0
-0.89642102 0.40897501 0.60276097 0
-0.89220601 0.39630201 0.815588 0
-0.68924803 0.39207301 1.035593 0
-0.90234298 0.461721 0.181904 0
-0.938986 0.44711801 0.394319 0
-0.89579302 0.436463 0.60440999 0
-0.89029002 0.423841 0.81730598 0
-0.686876 0.420221 1.037441 0
-0.90254599 0.4892 0.183507 0
-0.94256699 0.47428799 0.39603201 0
-0.89463198 0.46398899 0.60606003 0
-0.88829702 0.45140201 0.81902999 0
-0.68435597 0.44839501 1.0393029 0
-0.90307897 0.516666 0.18512499 0
-0.94275701 0.50163299 0.397654 0
-0.89192998 0.49161401 0.60770601 0
-0.88625699 0.478986 0.82076102 0
-0.68168998 0.476601 1.041178 0
-0.903593 0.54414099 0.18674 0
-0.942949 0.52898598 0.399275 0
-0.88671303 0.51940799 0.60934699 0
-0.88423699 0.50659001 0.822496 0
-0.67874002 0.50484902 1.043072 0
-0.90408999 0.57162303 0.188353 0
-0.94314897 0.556346 0.40089801 0
-0.87942803 0.54736501 0.61098599 0
-0.88227499 0.53421199 0.82423502 0
-0.67544299 0.53314102 1.0449899 0
-0.90458602 0.59911197 0.189964 0
-0.943344 0.58371598 0.40252101 0
-0.951186 0.57039601 0.61288202 0
-0.880449 0.56184697 0.82597601 0
-0.67225701 0.56145799 1.04691 0
-0.90506601 0.62660998 0.19157299 0
-0.94353199 0.611094 0.40414399 0
-0.951114 0.59774601 0.61453801 0
-0.87872303 0.58949602 0.827721 0
-0.669043 0.58980501 1.04884 0
-0.90554202 0.65411699 0.19318099 0
-0.94372398 0.638484 0.40576801 0
-0.95102 0.62511098 0.61619699 0
-0.87697297 0.61716998 0.82947201 0
-0.66592199 0.61817801 1.050773 0
-0.906021 0.68163103 0.194787 0
-0.94389898 0.665883 0.407392 0
-0.95094001 0.65248501 0.61785799 0
-0.87518901 0.64486599 0.83122802 0
-0.66285503 0.64657497 1.052712 0
-0.90647 0.709158 0.19639 0
-0.94406098 0.69329602 0.40901601 0
-0.950818 0.67987603 0.61952198 0
-0.87421203 0.67252499 0.832973 0
-0.65985298 0.67500001 1.054656 0
-0.90690798 0.73669398 0.197991 0
-0.94423097 0.72071701 0.41064101 0
-0.95068902 0.70727801 0.621189 0
-0.87249303 0.70025998 0.83473802 0
-0.65692502 0.703448 1.056604 0
-0.907341 0.76424199 0.199591 0
-0.94436699 0.74815601 0.41226599 0
-0.95055902 0.73469698 0.62285799 0
-0.87079602 0.72801602 0.83650798 0
-0.67053598 0.73063201 1.0578229 0
-0.90776497 0.79180098 0.201189 0
-0.944484 0.77560699 0.413892 0
-0.95040298 0.76212901 0.62453002 0
-0.86918098 0.75578898 0.83828199 0
-0.67352998 0.75861001 1.059518 0
-0.90818602 0.819372 0.202786 0
-0.94459802 0.80307102 0.41551799 0
-0.95023501 0.78957802 0.62620503 0
-0.86762398 0.78358001 0.84006 0
-0.67273903 0.78690398 1.06139 0
-0.908593 0.84695798 0.204381 0
-0.94465899 0.83055502 0.41714299 0
-0.94999897 0.81704903 0.62788302 0
-0.86612898 0.81138998 0.841842 0
-0.67145097 0.81526101 1.063291 0
-0.90899301 0.87455499 0.205974 0
-0.94467598 0.85805702 0.418769 0
-0.94973701 0.84453797 0.62956297 0
-0.86475599 0.83921099 0.84362698 0
-0.66965199 0.84368598 1.065223 0
-0.90951401 0.90215498 0.207571 0
-0.944646 0.88558 0.420394 0
-0.94947398 0.87204498 0.63124698 0
-0.86347198 0.86704898 0.845415 0
-0.66716099 0.87220198 1.0671951 0
-0.91046101 0.92972302 0.209188 0
-0.944282 0.91315103 0.422012 0
-0.94920301 0.89956897 0.63293302 0
-0.862297 0.89489901 0.847206 0
-0.66355598 0.90085697 1.069225 0
-0.91219097 0.95722097 0.210841 0
-0.94431299 0.94070101 0.42364001 0
-0.94891697 0.927113 0.63462299 0
-0.86126697 0.922759 0.84899902 0
-0.65674502 0.92987102 1.071411 0
-0.91450799 0.98466003 0.212519 0
-0.94718897 0.96796298 0.425338 0
-0.94866401 0.95467198 0.636316 0
-0.86036801 0.95062703 0.85079497 0
-0.64860898 0.959077 1.073668 0
-0.91692299 1.0120929 0.214201 0
-0.94946498 0.99529201 0.427021 0
-0.94845003 0.98224598 0.63801098 0
-0.85962301 0.97850198 0.85259199 0
-0.63944 0.98846 1.075984 0
-0.91930002 1.039534 0.21587899 0
-0.95160902 1.022639 0.42870101 0
-0.94822001 1.00984 0.63971001 0
-0.85903698 1.006382 0.85439098 0
-0.62964499 1.017984 1.0783401 0
-0.92212403 1.066926 0.217576 0
-0.953686 1.049999 0.43037999 0
-0.94729799 1.037534 0.64141202 0
-0.85862601 1.034263 0.85619098 0
-0.61921698 1.047658 1.080736 0
-0.92579103 1.094219 0.219311 0
-0.95605099 1.077333 0.43206701 0
-0.948955 1.064949 0.64311701 0
-0.85836601 1.06215 0.85799301 0
-0.60831398 1.0774699 1.083167 0
-0.93007201 1.121433 0.221072 0
-0.95911998 1.104584 0.43376899 0
-0.95124698 1.092296 0.64482403 0
-0.85830802 1.090032 0.85979497 0
-0.59692502 1.107424 1.085632 0
-0.936409 1.148381 0.22292601 0
-0.96295297 1.131742 0.43549001 0
-0.95353597 1.11965 0.64653403 0
-0.85836297 1.1179219 0.86159998 0
-0.58384299 1.137674 1.088189 0
-0.94164199 1.175454 0.22472601 0
-0.96759897 1.158792 0.43722799 0
-0.95594501 1.1469949 0.64824599 0
-0.85736001 1.145964 0.86343598 0
0.69298702 1.420338 0.15132301 0
-0.975335 1.18543 0.43903601 0
-0.95848799 1.174329 0.64995998 0
-0.85856903 1.173751 0.86522299 0
-0.81060302 1.248799 0.221854 0
0.67463499 1.434867 0.403918 0
-0.961088 1.201661 0.651676 0
-0.85960001 1.201573 0.86702001 0
-0.95120001 1.257465 0.22983199 0
-0.89574301 1.2516969 0.44054601 0
-0.96371299 1.228997 0.65339398 0
-0.86048299 1.229432 0.86882502 0
-0.96845299 1.28281 0.232168 0
-0.95708501 1.271015 0.44354001 0
-0.96654803 1.256309 0.65511501 0
-0.86121398 1.257329 0.87063903 0
-0.96758801 1.3107001 0.233679 0
-0.97121698 1.29676 0.44548801 0
-0.96984398 1.283561 0.65683699 0
-0.86170501 1.285278 0.872464 0
-0.68484497 1.380392 0.222506 0
-0.94945401 1.327709 0.446659 0
-0.974222 1.31066 0.65855902 0
-0.86193901 1.3132859 0.87430102 0
-0.67766702 1.410164 0.223782 0
-0.68247598 1.395543 0.44260001 0
-0.97926098 1.337657 0.66028202 0
-0.86211902 1.341323 0.87614501 0
-0.80353999 1.4194731 0.231001 0
-0.95397502 1.382737 0.45004699 0
-0.98385501 1.364717 0.66200697 0
-0.862041 1.369424 0.87800097 0
-0.80407399 1.4477611 0.232601 0
-0.96529001 1.408855 0.45193201 0
-0.86168498 1.3975919 0.87987 0
-0.95127201 1.46624 0.025976 0
-0.80455798 1.476083 0.234198 0
-0.95238203 1.438783 0.45331001 0
0.91830999 1.719913 0.67050898 0
-0.86083502 1.425866 0.88175797 0
-0.95735502 1.493233 0.027837001 0
-0.80496901 1.504439 0.235792 0
-0.96850801 1.4641089 0.455293 0
0.67452198 1.714444 0.67193103 0
-0.858899 1.454344 0.88367999 0
-0.96232998 1.520403 0.029619001 0
-0.95054299 1.5086221 0.24376699 0
-0.80436802 1.519145 0.453585 0
0.97262001 1.796209 0.67490399 0
-0.855416 1.4831131 0.88564998 0
-0.96525103 1.547919 0.031257 0
-0.95065099 1.536631 0.24532101 0
-0.80445099 1.5475841 0.455268 0
0.96311802 1.828544 0.67700601 0
-0.84921497 1.512378 0.88770097 0
-0.96604699 1.5758179 0.032749001 0
-0.80526203 1.589825 0.240527 0
-0.804389 1.576075 0.456949 0
0.95205498 1.860587 0.67910397 0
-0.83906198 1.542376 0.88986599 0
-0.96482003 1.6041 0.034102999 0
-0.80498201 1.6184109 0.242089 0
-0.95899498 1.5776089 0.46171099 0
0.93951201 1.892343 0.68119597 0
-0.82370597 1.5733581 0.89218402 0
-0.96139598 1.632816 0.035307001 0
-0.95354199 1.6203671 0.250092 0
-0.96289003 1.604978 0.46344599 0
0.92568803 1.923828 0.68328297 0
-0.80443799 1.605147 0.89462203 0
-0.956038 1.66194 0.03638 0
-0.94996297 1.649155 0.251486 0
-0.80348098 1.661863 0.46199 0
0.91038102 1.955 0.68536401 0
-0.78007901 1.637991 0.89721501 0
-0.80354601 1.704469 0.24674501 0
-0.683532 1.712516 0.46135801 0
-0.714849 1.692632 0.68068099 0
-0.74676901 1.6726331 0.90007502 0
-0.68682897 1.7551301 0.24332599 0
-0.69355899 1.739652 0.46326399 0
-0.87956297 1.6909781 0.68178499 0
-0.70613098 1.7088619 0.90315998 0
-0.71242899 1.779286 0.24600901 0
-0.75218499 1.757522 0.46609101 0
-0.98485601 1.699531 0.683101 0
-0.65945399 1.746503 0.90644002 0
-0.78156 1.7948411 0.25053 0
-0.82627797 1.772071 0.46919 0
-0.98228902 1.7281311 0.68489599 0
-0.60684401 1.785598 0.90991497 0
-0.85301101 1.8095371 0.25512499 0
-0.94945502 1.7765549 0.473176 0
-0.97680801 1.757345 0.68671 0
-0.53483802 1.828799 0.91397703 0
-0.96067399 1.816543 0.26122001 0
-0.97120601 1.800529 0.47525001 0
-0.969625 1.786963 0.68853998 0
-0.97088301 1.842798 0.26319301 0
-0.96068299 1.830937 0.47672901 0
-0.96121502 1.816908 0.69038302 0
-0.95105898 1.875247 0.263908 0
-0.68740702 1.915491 0.47346699 0
-0.95192802 1.847118 0.69223899 0
-0.72001201 1.952293 0.255849 0
-0.834463 1.9140199 0.47782299 0
-0.941127 1.877735 0.69411099 0
-0.85192102 1.953329 0.26289701 0
-0.96269602 1.9156491 0.481794 0
-0.92848402 1.908842 0.69600302 0
-0.922768 1.966802 0.26738101 0
-0.96121103 1.944414 0.48344901 0
-0.91382402 1.940497 0.69791698 0
-0.91153198 1.997908 0.268471 0
-0.944318 1.9765871 0.48483899 0
-0.89762402 1.972613 0.69985002 0
-0.88972998 2.0314801 0.269133 0
-0.92363399 2.0097439 0.486173 0
-0.87996799 2.0051889 0.701805 0
-0.86532301 2.0658171 0.269696 0
-0.90057498 2.043602 0.48747599 0
-0.85578698 2.0393691 0.70381498 0
-0.83769202 2.1010859 0.27013701 0
-0.87372899 2.0785069 0.488727 0
-0.77188599 2.087249 0.70625699 0
-0.79595 2.139852 0.27001801 0
-0.84517199 2.114018 0.48996201 0
-0.65635502 2.1429541 0.70896602 0
-0.69253701 2.1934559 0.267434 0
-0.809111 2.1515059 0.491088 0
-0.45519701 2.2193401 0.71236002 0
-0.40328199 2.276999 0.48623899 0
0.693084 -1.899647 0.170479 0
0.61907202 -1.905326 0.17529701 0
0.36402401 -2.124712 0.49098301 0
0.50950098 -1.938751 0.18165199 0
0.36331901 -2.075947 0.493211 0
0.22377101 -2.108959 0.19566099 0
0.219173 -2.1373279 0.497471 0
0.071140997 -2.178308 0.20379999 0
0.150913 -2.141109 0.50062102 0
-0.000849 -2.1858871 0.20840199 0
0.089937001 -2.139647 0.50365001 0
-0.070450999 -2.1920559 0.212881 0
0.028299 -2.1390619 0.50666898 0
-0.12992799 -2.1906641 0.216906 0
-0.035436999 -2.1405039 0.50969601 0
-0.187125 -2.187809 0.220816 0
0.37270901 -1.767833 0.50655699 0
-0.24226101 -2.183635 0.22462399 0
-0.121195 -2.1112511 0.51515698 0
-0.294227 -2.1772201 0.22828101 0
-0.20349801 -2.1285851 0.51836598 0
-0.338653 -2.164968 0.23160499 0
-0.206016 -2.081995 0.52056098 0
-0.37544999 -2.146704 0.234595 0
-0.28969699 -2.101217 0.52374798 0
-0.408402 -2.125412 0.237413 0
0.684802 -1.254962 0.51428902 0
-0.44091901 -2.103857 0.240205 0
-0.40398401 -2.0977509 0.52941298 0
-0.47308999 -2.0821011 0.242975 0
-0.43799001 -2.0773511 0.53195399 0
-0.50500202 -2.060216 0.245726 0
-0.46419799 -2.0505559 0.53439999 0
-0.536596 -2.0381429 0.248456 0
-0.49632999 -2.0287499 0.53690702 0
0.57432902 -1.15769 0.84456998 0
-0.56785601 -2.0158679 0.251165 0
-0.53169501 -2.009758 0.53944403 0
0.39396301 -1.255219 0.84425801 0
-0.598773 -1.9933749 0.25385201 0
-0.56365103 -1.98799 0.54193598 0
0.29376 -1.286473 0.84543902 0
-0.62928998 -1.97061 0.25651601 0
-0.59481502 -1.9656219 0.54441398 0
0.218073 -1.297611 0.84706801 0
-0.65941399 -1.947575 0.25915599 0
-0.62512302 -1.942593 0.54687703 0
0.158153 -1.295753 0.848988 0
-0.68905997 -1.924184 0.26177001 0
-0.65335298 -1.9178309 0.54931498 0
0.106327 -1.287268 0.85105503 0
-0.71800202 -1.900238 0.26434901 0
-0.68160999 -1.893134 0.55174798 0
0.059363998 -1.274834 0.85320902 0
-0.74581599 -1.875348 0.266875 0
-0.70969403 -1.868325 0.55417597 0
0.019026 -1.2568361 0.85549098 0
-0.77187097 -1.848943 0.269324 0
-0.73562503 -1.84166 0.55657899 0
0.14186101 -1.095726 0.86129802 0
-0.79654402 -1.821324 0.27171099 0
-0.76071 -1.814257 0.558972 0
0.078529 -1.097463 0.86310899 0
-0.82049298 -1.7930599 0.27406499 0
-0.78354502 -1.784856 0.561342 0
0.018307 -1.09683 0.86496598 0
-0.84072399 -1.761445 0.276265 0
-0.805879 -1.754986 0.56370598 0
-0.039287001 -1.094207 0.86686099 0
-0.85607898 -1.725365 0.278267 0
-0.82593203 -1.723029 0.56604999 0
-0.094426997 -1.089707 0.86879301 0
-0.87227303 -1.689949 0.28029999 0
-0.84509599 -1.690213 0.56838602 0
-0.147431 -1.083585 0.87075597 0
-0.88925099 -1.655149 0.28236201 0
-0.87078202 -1.663288 0.57077301 0
-0.198459 -1.075948 0.87274897 0
-0.90683597 -1.620824 0.28444499 0
-0.88661802 -1.6273201 0.573084 0
-0.24699301 -1.066293 0.87478602 0
-0.92488497 -1.58684 0.28654301 0
-0.90177703 -1.5906219 0.57539099 0
-0.29300001 -1.054547 0.87686998 0
-0.94057798 -1.550581 0.288546 0
-0.91803098 -1.55483 0.57770801 0
-0.32411399 -1.029209 0.87930697 0
-0.927118 -1.486855 0.289415 0
-0.93433601 -1.5189821 0.58002698 0
-0.36517501 -1.013191 0.88149399 0
-0.96120298 -1.467573 0.29212901 0
-0.95015699 -1.4825751 0.58234501 0
-0.40443 -0.995637 0.883717 0
-0.94703299 -1.402558 0.29297701 0
-0.962372 -1.442644 0.58464301 0
-0.44220001 -0.97681999 0.88597 0
-0.95858598 -1.361659 0.29481801 0
-0.93468601 -1.364545 0.58670199 0
-0.47839499 -0.95662498 0.88825703 0
-0.94207299 -1.293619 0.295587 0
-0.95861101 -1.335295 0.589086 0
-0.513219 -0.935224 0.89057302 0
0.25245401 -0.23247901 1.238645 0
-0.952299 -1.2509429 0.29738 0
-0.97043699 -1.294351 0.59140098 0
-0.54649502 -0.91241801 0.89292598 0
0.154691 -0.26710701 1.237354 0
-0.952115 -1.197951 0.29877901 0
-0.96985602 -1.241209 0.59365398 0
-0.57820898 -0.88817298 0.895316 0
0.083415002 -0.27698699 1.23757 0
-0.95273697 -1.145434 0.300212 0
-0.96393102 -1.1825351 0.595891 0
-0.60811102 -0.862212 0.89775401 0
0.022908 -0.27690601 1.238395 0
-0.77862799 -0.92057401 0.29507899 0
-0.96763599 -1.132937 0.59818798 0
-0.63621002 -0.834517 0.90023899 0
-0.030804999 -0.27056101 1.239602 0
-0.82491702 -0.91163898 0.29825401 0
-0.97142202 -1.083143 0.60049403 0
-0.66341102 -0.80593997 0.902749 0
-0.079524003 -0.25959599 1.241092 0
-0.87173301 -0.90345597 0.30143601 0
-0.95972401 -1.017692 0.60274303 0
-0.69554698 -0.78224897 0.90512002 0
-0.124141 -0.244811 1.242818 0
-0.93729103 -0.91429502 0.30530301 0
-0.91726798 -0.921031 0.60488403 0
-0.71990597 -0.750857 0.90771002 0
-0.164067 -0.22554199 1.244821 0
-0.96954501 -0.89200801 0.30792099 0
-0.964984 -0.91421199 0.6074 0
-0.74077201 -0.71591997 0.91040498 0
-0.200688 -0.203097 1.247021 0
-0.92039597 -0.78718102 0.30753699 0
-0.94883901 -0.84302998 0.60967797 0
-0.75281799 -0.67200202 0.91336298 0
-0.23264199 -0.17604101 1.249508 0
-0.93327898 -0.74473602 0.30944499 0
-0.93869197 -0.77741998 0.61199498 0
-0.754188 -0.61705202 0.91665101 0
-0.26115301 -0.145528 1.252212 0
-0.91434598 -0.66943699 0.31019101 0
-0.93123102 -0.71409798 0.61433703 0
-0.75752503 -0.56378299 0.91989899 0
-0.28566101 -0.110927 1.255173 0
-0.90740103 -0.60593897 0.31138101 0
-0.92683899 -0.65349799 0.61670297 0
-0.75269598 -0.50181502 0.92341399 0
-0.30586699 -0.071852997 1.258415 0
-0.90227598 -0.543899 0.312644 0
-0.92402101 -0.594127 0.61908698 0
-0.91112298 -0.60813498 0.92192 0
-0.31999499 -0.026396001 1.26206 0
-0.89894402 -0.483311 0.31397599 0
-0.92295098 -0.53618902 0.62149 0
-0.94528002 -0.586882 0.92420697 0
-0.321078 0.032781001 1.266564 0
-0.897596 -0.424409 0.31538299 0
-0.92380297 -0.47989699 0.62390798 0
-0.97599399 -0.562105 0.92659903 0
-0.89695299 -0.36587 0.31682 0
-0.92572302 -0.42437899 0.62634099 0
-1.00428 -0.53479898 0.92906702 0
-0.89616102 -0.30679601 0.31825599 0
-0.92763197 -0.368507 0.62878501 0
-1.026598 -0.50117499 0.93172801 0
-0.89491802 -0.24685501 0.31967899 0
-0.92886901 -0.31157199 0.63124102 0
-1.037634 -0.45545399 0.934762 0
-0.89327198 -0.18608101 0.32109299 0
-0.92904699 -0.25313801 0.63370699 0
-0.74862701 -0.088036001 0.94773698 0
-0.89122498 -0.124472 0.32249701 0
-0.92847103 -0.19351199 0.63618702 0
-0.747527 -0.026828 0.95131898 0
-0.88873601 -0.061960999 0.32389 0
-0.92735797 -0.132906 0.63867998 0
-0.74578398 0.035484001 0.95494801 0
-0.88581401 0.001446 0.32527301 0
-0.92583299 -0.071447 0.64118701 0
-0.74308097 0.099262998 0.95863402 0
-0.882447 0.065788001 0.32664499 0
-0.92396897 -0.0091970004 0.643709 0
-0.739353 0.16460299 0.96238202 0
-0.878685 0.131014 0.32800999 0
-0.921799 0.053815 0.646245 0
-0.73444402 0.231703 0.96619803 0
-0.87473798 0.196909 0.329373 0
-0.91936803 0.117556 0.64879799 0
-0.72881699 0.300082 0.97006798 0
-0.87162399 0.26233301 0.33076999 0
-0.916664 0.182042 0.651366 0
-0.72277498 0.369414 0.97398102 0
-0.87053198 0.32593399 0.332241 0
-0.91389602 0.247053 0.65394998 0
-0.715653 0.440467 0.97796398 0
-0.86960101 0.38979399 0.33372301 0
-0.91113198 0.31252399 0.656551 0
-0.706034 0.51487398 0.98206902 0
-0.86784703 0.45503801 0.33518201 0
-0.90908599 0.37763801 0.65916699 0
-0.69589198 0.59044099 0.98622698 0
-0.93954802 0.436138 0.33909801 0
-0.90780902 0.442334 0.66179699 0
-0.685987 0.66632098 0.99040997 0
-0.93978697 0.499486 0.34062099 0
-0.90502101 0.50922602 0.66444701 0
-0.70060998 0.714522 0.99370003 0
-0.940009 0.563299 0.34214801 0
-0.89147699 0.589113 0.66714501 0
-0.71285498 0.76573199 0.99709499 0
-0.94015503 0.62764502 0.343678 0
-0.946087 0.58992302 0.66965503 0
-0.71272802 0.831653 1.000986 0
-0.94006002 0.69273198 0.345204 0
-0.94519401 0.65572798 0.672337 0
-0.71069503 0.90027899 1.004979 0
-0.93685901 0.76197201 0.346634 0
-0.94428098 0.72202802 0.67503601 0
-0.70598102 0.97256899 1.009107 0
-0.93894202 0.82541198 0.348241 0
-0.94336098 0.78881502 0.677751 0
-0.69630301 1.051299 1.013466 0
-0.93697298 0.89417201 0.349722 0
-0.94241703 0.856121 0.680484 0
-0.67964399 1.138999 1.018144 0
-0.93933201 0.95820397 0.35134801 0
-0.94146597 0.92392701 0.68323398 0
-0.65174502 1.240945 1.023324 0
-0.944574 1.019186 0.35306999 0
-0.940467 0.99229097 0.68600202 0
-0.95029902 1.079989 0.35481 0
-0.93651801 1.0647629 0.68880397 0
-0.95911098 1.137408 0.35665199 0
-0.943048 1.1249239 0.691567 0
-0.93366498 1.2376601 0.35742199 0
-0.94813597 1.1872751 0.69435298 0
-0.833839 1.464542 0.014938 0
-0.96718502 1.265278 0.36004499 0
-0.95347601 1.249747 0.69715101 0
-0.895796 1.457487 0.019489 0
-0.837246 1.4980201 0.35759401 0
-0.96079397 1.3101799 0.69995201 0
-0.94581002 1.465129 0.023213999 0
-0.889965 1.502678 0.360825 0
-0.970869 1.367556 0.702748 0
-0.95841098 1.520196 0.024374001 0
-0.94672102 1.5019259 0.36416799 0
-0.97992599 1.426595 0.70556402 0
-0.95902002 1.590989 0.024707001 0
-0.94626403 1.573967 0.365753 0
-0.98627299 1.4894921 0.70841199 0
-0.93734998 1.657445 0.36708799 0
-0.98960698 1.556697 0.71130002 0
-0.96322101 1.696602 0.36948001 0
-0.984667 1.635083 0.71427101 0
-0.933052 1.808888 0.37019101 0
-0.97109401 1.725316 0.71733701 0
-0.97059101 1.833514 0.372935 0
-0.943793 1.834285 0.72055203 0
-0.94132203 1.94621 0.37369499 0
-0.87989998 1.992397 0.72413599 0
