# .PCD v0.7 - Point Cloud Data file format
VERSION 0.7
FIELDS x y z rgb label
SIZE 4 4 4 4 4
TYPE F F F F U
COUNT 1 1 1 1 1
WIDTH 772
HEIGHT 1
VIEWPOINT 0 0 0 1 0 0 0
POINTS 772
DATA ascii
-1.318687 0.000000 -8.025332 0.000000000000000e+00 1851878480
-1.446399 0.207110 -8.802568 0.000000000000000e+00 1851878480
-1.645327 -1.163526 -9.827880 0.000000000000000e+00 1701537140
-1.313629 -0.742237 -7.846579 0.000000000000000e+00 1851878480
-1.322484 -0.560072 -7.899469 0.000000000000000e+00 1736094148
-1.328423 -0.375188 -7.934942 0.000000000000000e+00 1736094148
-1.377967 -0.193756 -8.230878 0.000000000000000e+00 1851878480
-1.349346 0.000000 -8.059923 0.000000000000000e+00 1851878480
-1.510077 0.212332 -9.020000 0.000000000000000e+00 1851878480
-1.680145 -1.167127 -9.853274 0.000000000000000e+00 1701537140
-1.341279 -0.744452 -7.865984 0.000000000000000e+00 1851878480
-1.359244 -0.565456 -7.971343 0.000000000000000e+00 1736094148
-1.376322 -0.381839 -8.071495 0.000000000000000e+00 1736094148
-1.397011 -0.192959 -8.192828 0.000000000000000e+00 1851878480
-1.381708 0.000000 -8.103080 0.000000000000000e+00 1851878480
-1.572158 0.217150 -9.219982 0.000000000000000e+00 1851878480
-1.715979 -1.171308 -9.883440 0.000000000000000e+00 1701537140
-1.369489 -0.746902 -7.887777 0.000000000000000e+00 1851878480
-1.376107 -0.562524 -7.925894 0.000000000000000e+00 1851878480
-1.394982 -0.380292 -8.034609 0.000000000000000e+00 1736094148
-1.412537 -0.191713 -8.135720 0.000000000000000e+00 1736094148
-1.414768 0.000000 -8.148565 0.000000000000000e+00 1851878480
-1.635279 0.221944 -9.418634 0.000000000000000e+00 1851878480
-1.753073 -1.176201 -9.919486 0.000000000000000e+00 1701537140
-1.398989 -0.749967 -7.915958 0.000000000000000e+00 1851878480
-1.404637 -0.564385 -7.947918 0.000000000000000e+00 1851878480
-1.413541 -0.378773 -7.998295 0.000000000000000e+00 1736094148
-1.431287 -0.190942 -8.098713 0.000000000000000e+00 1736094148
-1.446909 0.000000 -8.187108 0.000000000000000e+00 1851878480
-1.429425 -0.753430 -7.948235 0.000000000000000e+00 1851878480
-1.434902 -0.566875 -7.978690 0.000000000000000e+00 1851878480
-1.437489 -0.378729 -7.993072 0.000000000000000e+00 1851878480
-1.449335 -0.190106 -8.058940 0.000000000000000e+00 1851878480
-1.479390 0.000000 -8.226059 0.000000000000000e+00 1851878480
-1.470600 -0.762351 -8.037948 0.000000000000000e+00 1851878480
-1.587925 -0.616984 -8.679222 0.000000000000000e+00 1851878480
-1.469928 -0.380890 -8.034277 0.000000000000000e+00 1851878480
-1.479937 -0.190920 -8.088985 0.000000000000000e+00 1851878480
-1.514421 0.000000 -8.277463 0.000000000000000e+00 1851878480
-1.521520 -0.775960 -8.176887 0.000000000000000e+00 1851878480
-1.627723 -0.622194 -8.747633 0.000000000000000e+00 1851878480
-1.662585 -0.423827 -8.934988 0.000000000000000e+00 1851878480
-1.515085 -0.192285 -8.142301 0.000000000000000e+00 1851878480
-1.551880 0.000000 -8.340041 0.000000000000000e+00 1851878480
-1.561331 -0.783566 -8.252366 0.000000000000000e+00 1851878480
-1.668197 -0.627497 -8.817205 0.000000000000000e+00 1851878480
-1.704237 -0.427517 -9.007694 0.000000000000000e+00 1851878480
-1.560951 -0.194947 -8.250359 0.000000000000000e+00 1700951363
-1.591224 0.000000 -8.410365 0.000000000000000e+00 1851878480
-1.596593 -0.788694 -8.301600 0.000000000000000e+00 1851878480
-1.709364 -0.632897 -8.887965 0.000000000000000e+00 1851878480
-1.746618 -0.431277 -9.081670 0.000000000000000e+00 1851878480
-1.596433 -0.196251 -8.300773 0.000000000000000e+00 1700951363
-1.631723 0.000000 -8.484264 0.000000000000000e+00 1700951363
-1.630507 -0.793015 -8.342203 0.000000000000000e+00 1851878480
-1.751248 -0.638396 -8.959953 0.000000000000000e+00 1851878480
-1.789754 -0.435106 -9.156960 0.000000000000000e+00 1851878480
-1.633061 -0.197655 -8.355271 0.000000000000000e+00 1700951363
-1.670540 0.000000 -8.547026 0.000000000000000e+00 1700951363
-1.663891 -0.796958 -8.378696 0.000000000000000e+00 1851878480
-1.783345 -0.640221 -8.980222 0.000000000000000e+00 1851878480
-1.834999 -0.439329 -9.240329 0.000000000000000e+00 1851878480
-1.673822 -0.199511 -8.428703 0.000000000000000e+00 1700951363
-1.713830 0.000000 -8.630168 0.000000000000000e+00 1700951363
-1.697083 -0.800700 -8.412963 0.000000000000000e+00 1851878480
-1.805166 -0.638363 -8.948762 0.000000000000000e+00 1851878480
-1.856678 -0.437871 -9.204120 0.000000000000000e+00 1851878480
-1.716514 -0.201540 -8.509287 0.000000000000000e+00 1700951363
-1.762098 0.000000 -8.735261 0.000000000000000e+00 1700951363
-1.729743 -0.804091 -8.443408 0.000000000000000e+00 1851878480
-1.828712 -0.637166 -8.926505 0.000000000000000e+00 1851878480
-1.879380 -0.436698 -9.173835 0.000000000000000e+00 1851878480
-1.762574 -0.203900 -8.603669 0.000000000000000e+00 1700951363
-1.819582 0.000000 -8.881940 0.000000000000000e+00 1700951363
-1.772549 -0.812038 -8.521555 0.000000000000000e+00 1851878480
-1.852990 -0.636261 -8.908280 0.000000000000000e+00 1851878480
-1.903000 -0.435773 -9.148703 0.000000000000000e+00 1851878480
-1.813676 -0.206769 -8.719276 0.000000000000000e+00 1700951363
-1.825397 -0.824301 -8.644776 0.000000000000000e+00 1851878480
-1.879161 -0.636028 -8.899394 0.000000000000000e+00 1851878480
-1.928993 -0.435414 -9.135387 0.000000000000000e+00 1851878480
-1.908857 -0.636985 -8.907059 0.000000000000000e+00 1851878480
4.502453 -1.017278 -13.833473 0.000000000000000e+00 1701537140
4.503144 -0.678525 -13.835599 0.000000000000000e+00 1701537140
4.517180 -0.338861 -13.878723 0.000000000000000e+00 1851878480
4.378038 -1.332082 -13.590345 0.000000000000000e+00 1701537140
4.453999 -1.015746 -13.826143 0.000000000000000e+00 1701537140
4.452077 -0.677107 -13.820178 0.000000000000000e+00 1701537140
4.475899 -0.338906 -13.894126 0.000000000000000e+00 1851878480
4.327667 -1.329206 -13.574119 0.000000000000000e+00 1701537140
4.308312 -0.991812 -13.513412 0.000000000000000e+00 1701537140
4.409238 -0.676932 -13.829976 0.000000000000000e+00 1701537140
4.284461 -0.327478 -13.438601 0.000000000000000e+00 1701537140
4.103289 -1.272333 -13.005749 0.000000000000000e+00 1701537140
4.117215 -0.956876 -13.049886 0.000000000000000e+00 1701537140
4.142514 -0.642060 -13.130074 0.000000000000000e+00 1701537140
4.157506 -0.320810 -13.177594 0.000000000000000e+00 1701537140
4.194982 0.000000 -13.296375 0.000000000000000e+00 1851878480
4.045912 -1.266654 -12.959969 0.000000000000000e+00 1701537140
4.013907 -0.941874 -12.857451 0.000000000000000e+00 1701537140
4.027728 -0.630297 -12.901722 0.000000000000000e+00 1701537140
4.016632 -0.312933 -12.866177 0.000000000000000e+00 1851878480
4.112472 0.000000 -13.173175 0.000000000000000e+00 1851878480
4.000605 -1.264694 -12.952035 0.000000000000000e+00 1701537140
3.962641 -0.938920 -12.829128 0.000000000000000e+00 1701537140
3.919535 -0.619352 -12.689570 0.000000000000000e+00 1851878480
3.944036 -0.310276 -12.768890 0.000000000000000e+00 1851878480
4.034401 0.000000 -13.061451 0.000000000000000e+00 1851878480
3.961421 -1.264661 -12.963708 0.000000000000000e+00 1701537140
3.869835 -0.925976 -12.663995 0.000000000000000e+00 1851878480
3.849595 -0.614301 -12.597755 0.000000000000000e+00 1851878480
3.862953 -0.306895 -12.641473 0.000000000000000e+00 1851878480
3.954593 0.000000 -12.941362 0.000000000000000e+00 1851878480
3.922484 -1.264719 -12.976189 0.000000000000000e+00 1701537140
3.802480 -0.918933 -12.579198 0.000000000000000e+00 1851878480
3.770945 -0.607752 -12.474874 0.000000000000000e+00 1851878480
3.778471 -0.303177 -12.499771 0.000000000000000e+00 1851878480
3.868552 0.000000 -12.797774 0.000000000000000e+00 1851878480
3.884121 -1.264976 -12.990597 0.000000000000000e+00 1701537140
3.725632 -0.909438 -12.460524 0.000000000000000e+00 1851878480
3.690968 -0.600860 -12.344587 0.000000000000000e+00 1851878480
3.685820 -0.298724 -12.327370 0.000000000000000e+00 1851878480
3.782943 0.000000 -12.652198 0.000000000000000e+00 1851878480
3.846385 -1.265456 -13.007189 0.000000000000000e+00 1701537140
3.645694 -0.898997 -12.328520 0.000000000000000e+00 1851878480
3.599428 -0.591931 -12.172064 0.000000000000000e+00 1851878480
3.590803 -0.293990 -12.142897 0.000000000000000e+00 1851878480
3.674252 0.000000 -12.425094 0.000000000000000e+00 1851878480
3.809100 -1.266108 -13.025440 0.000000000000000e+00 1701537140
3.554661 -0.885586 -12.155371 0.000000000000000e+00 1851878480
3.506331 -0.582565 -11.990105 0.000000000000000e+00 1851878480
3.499244 -0.289448 -11.965870 0.000000000000000e+00 1851878480
3.569873 0.000000 -12.207389 0.000000000000000e+00 1851878480
3.771935 -1.266826 -13.044259 0.000000000000000e+00 1701537140
3.458639 -0.870647 -11.960807 0.000000000000000e+00 1851878480
3.417123 -0.573663 -11.817235 0.000000000000000e+00 1851878480
3.410716 -0.285066 -11.795079 0.000000000000000e+00 1851878480
3.469976 0.000000 -12.000015 0.000000000000000e+00 1851878480
3.735240 -1.267729 -13.064881 0.000000000000000e+00 1701537140
3.366380 -0.856357 -11.774708 0.000000000000000e+00 1851878480
3.330942 -0.565091 -11.650754 0.000000000000000e+00 1851878480
3.325100 -0.280841 -11.630322 0.000000000000000e+00 1851878480
3.373744 0.000000 -11.800462 0.000000000000000e+00 1851878480
3.708326 0.313208 -12.970743 0.000000000000000e+00 1851878480
3.699130 -1.268865 -13.087802 0.000000000000000e+00 1701537140
3.277433 -0.842623 -11.595806 0.000000000000000e+00 1851878480
3.247374 -0.556790 -11.489453 0.000000000000000e+00 1851878480
3.282391 -0.280190 -11.613346 0.000000000000000e+00 1851878480
3.334405 0.000000 -11.797378 0.000000000000000e+00 1851878480
3.602045 0.307477 -12.744306 0.000000000000000e+00 1851878480
3.663460 -1.270189 -13.112569 0.000000000000000e+00 1701537140
3.192041 -0.829524 -11.425226 0.000000000000000e+00 1851878480
3.205492 -0.555539 -11.473372 0.000000000000000e+00 1851878480
3.255927 -0.280930 -11.653893 0.000000000000000e+00 1851878480
3.262455 0.000000 -11.677258 0.000000000000000e+00 1851878480
3.511709 0.303000 -12.569407 0.000000000000000e+00 1851878480
3.628043 -1.271641 -13.138563 0.000000000000000e+00 1701537140
3.127833 -0.821712 -11.327106 0.000000000000000e+00 1851878480
3.180295 -0.557190 -11.517094 0.000000000000000e+00 1851878480
3.229324 -0.281677 -11.694645 0.000000000000000e+00 1851878480
3.172269 0.000000 -11.488029 0.000000000000000e+00 1851878480
3.420022 0.298310 -12.385241 0.000000000000000e+00 1851878480
3.092224 -1.095809 -11.331243 0.000000000000000e+00 1851878480
3.104042 -0.824470 -11.374546 0.000000000000000e+00 1851878480
3.154719 -0.558814 -11.560248 0.000000000000000e+00 1851878480
3.202557 -0.282428 -11.735547 0.000000000000000e+00 1851878480
3.089264 0.000000 -11.320393 0.000000000000000e+00 1851878480
3.321308 0.292900 -12.170703 0.000000000000000e+00 1851878480
3.005206 -1.076878 -11.144603 0.000000000000000e+00 1851878480
3.080348 -0.827324 -11.423263 0.000000000000000e+00 1851878480
3.128887 -0.560435 -11.603267 0.000000000000000e+00 1851878480
3.071274 -0.273879 -11.389611 0.000000000000000e+00 1851878480
3.006633 0.000000 -11.149894 0.000000000000000e+00 1851878480
3.213166 0.286532 -11.915811 0.000000000000000e+00 1851878480
2.931161 -1.062230 -11.001906 0.000000000000000e+00 1851878480
3.038602 -0.825347 -11.405177 0.000000000000000e+00 1851878480
3.013394 -0.545856 -11.310560 0.000000000000000e+00 1851878480
2.985978 -0.269285 -11.207659 0.000000000000000e+00 1851878480
2.925611 0.000000 -10.981073 0.000000000000000e+00 1851878480
3.086774 0.278376 -11.585989 0.000000000000000e+00 1851878480
2.854598 -1.046333 -10.845911 0.000000000000000e+00 1851878480
2.961981 -0.813750 -11.253903 0.000000000000000e+00 1851878480
2.928898 -0.536627 -11.128209 0.000000000000000e+00 1851878480
2.895339 -0.264102 -11.000704 0.000000000000000e+00 1851878480
2.846890 0.000000 -10.816622 0.000000000000000e+00 1851878480
2.972838 0.271171 -11.295156 0.000000000000000e+00 1851878480
2.566468 0.470223 -9.751175 0.000000000000000e+00 1768716611
2.779408 -1.030587 -10.691123 0.000000000000000e+00 1851878480
2.887424 -0.802466 -11.106613 0.000000000000000e+00 1851878480
2.840026 -0.526378 -10.924292 0.000000000000000e+00 1851878480
2.809292 -0.259225 -10.806073 0.000000000000000e+00 1851878480
2.771150 0.000000 -10.659357 0.000000000000000e+00 1851878480
2.879828 0.265733 -11.077393 0.000000000000000e+00 1851878480
2.524604 0.467917 -9.711007 0.000000000000000e+00 1768716611
2.707575 -1.015740 -10.545316 0.000000000000000e+00 1851878480
2.802407 -0.787983 -10.914663 0.000000000000000e+00 1851878480
2.755932 -0.516790 -10.733657 0.000000000000000e+00 1851878480
2.728686 -0.254743 -10.627542 0.000000000000000e+00 1851878480
2.698773 0.000000 -10.511036 0.000000000000000e+00 1851878480
2.793692 0.260812 -10.880720 0.000000000000000e+00 1851878480
2.486908 0.466343 -9.685878 0.000000000000000e+00 1768716611
2.638819 -1.001718 -10.407745 0.000000000000000e+00 1851878480
2.719423 -0.773742 -10.725656 0.000000000000000e+00 1851878480
2.677246 -0.508004 -10.559304 0.000000000000000e+00 1851878480
2.653002 -0.250623 -10.463682 0.000000000000000e+00 1851878480
2.629397 0.000000 -10.370584 0.000000000000000e+00 1851878480
2.711811 0.256178 -10.695633 0.000000000000000e+00 1851878480
2.451608 0.465190 -9.669369 0.000000000000000e+00 1768716611
2.573086 -0.988528 -10.278506 0.000000000000000e+00 1851878480
2.641691 -0.760677 -10.552556 0.000000000000000e+00 1851878480
2.603265 -0.499915 -10.399058 0.000000000000000e+00 1851878480
2.581604 -0.246815 -10.312529 0.000000000000000e+00 1851878480
2.563161 0.000000 -10.238857 0.000000000000000e+00 1851878480
2.633895 0.251814 -10.521414 0.000000000000000e+00 1851878480
2.417850 0.464309 -9.658394 0.000000000000000e+00 1768716611
2.510096 -0.976092 -10.156822 0.000000000000000e+00 1851878480
2.568672 -0.748674 -10.393844 0.000000000000000e+00 1851878480
2.533573 -0.492467 -10.251821 0.000000000000000e+00 1851878480
2.514928 -0.243373 -10.176372 0.000000000000000e+00 1851878480
2.500503 0.000000 -10.118004 0.000000000000000e+00 1851878480
2.561369 0.247868 -10.364292 0.000000000000000e+00 1851878480
2.385508 0.463687 -9.652689 0.000000000000000e+00 1768716611
2.449491 -0.964298 -10.041525 0.000000000000000e+00 1851878480
2.499791 -0.737603 -10.247725 0.000000000000000e+00 1851878480
2.467732 -0.485597 -10.116302 0.000000000000000e+00 1851878480
2.452694 -0.240284 -10.054653 0.000000000000000e+00 1851878480
2.441373 0.000000 -10.008245 0.000000000000000e+00 1851878480
2.493076 0.244241 -10.220199 0.000000000000000e+00 1851878480
2.354215 0.463260 -9.650948 0.000000000000000e+00 1768716611
2.391044 -0.953076 -9.931924 0.000000000000000e+00 1851878480
2.434259 -0.727261 -10.111429 0.000000000000000e+00 1851878480
2.405643 -0.479307 -9.992563 0.000000000000000e+00 1851878480
2.394118 -0.237483 -9.944690 0.000000000000000e+00 1851878480
2.384688 0.000000 -9.905519 0.000000000000000e+00 1851878480
2.428616 0.240905 -10.087987 0.000000000000000e+00 1851878480
2.323435 0.462928 -9.651088 0.000000000000000e+00 1768716611
2.334621 -0.942396 -9.827714 0.000000000000000e+00 1851878480
2.371793 -0.717592 -9.984192 0.000000000000000e+00 1851878480
2.345994 -0.473355 -9.875590 0.000000000000000e+00 1851878480
2.337389 -0.234798 -9.839367 0.000000000000000e+00 1851878480
2.329249 0.000000 -9.805101 0.000000000000000e+00 1851878480
2.366777 0.237750 -9.963078 0.000000000000000e+00 1851878480
2.292972 0.462657 -9.652390 0.000000000000000e+00 1768716611
2.280104 -0.932229 -9.728614 0.000000000000000e+00 1851878480
2.310585 -0.708066 -9.858665 0.000000000000000e+00 1851878480
2.285783 -0.467139 -9.752845 0.000000000000000e+00 1851878480
2.279695 -0.231949 -9.726869 0.000000000000000e+00 1851878480
2.272749 0.000000 -9.697233 0.000000000000000e+00 1851878480
2.307767 0.234805 -9.846643 0.000000000000000e+00 1851878480
2.262637 0.462409 -9.654088 0.000000000000000e+00 1768716611
2.227204 -0.922476 -9.633589 0.000000000000000e+00 1851878480
2.245777 -0.697181 -9.713925 0.000000000000000e+00 1851878480
2.219167 -0.459439 -9.598827 0.000000000000000e+00 1851878480
2.217499 -0.228563 -9.591610 0.000000000000000e+00 1851878480
2.214134 0.000000 -9.577054 0.000000000000000e+00 1851878480
2.250640 0.231979 -9.734962 0.000000000000000e+00 1851878480
2.232392 0.462177 -9.656033 0.000000000000000e+00 1768716611
2.175419 -0.912940 -9.540608 0.000000000000000e+00 1851878480
2.058595 -0.647521 -9.028261 0.000000000000000e+00 1701537140
2.104752 -0.441513 -9.230691 0.000000000000000e+00 1851878480
2.140683 -0.223562 -9.388273 0.000000000000000e+00 1851878480
2.153242 0.000000 -9.443350 0.000000000000000e+00 1851878480
2.195035 0.229239 -9.626640 0.000000000000000e+00 1851878480
2.202661 0.462051 -9.660087 0.000000000000000e+00 1768716611
2.714983 0.853985 -11.906947 0.000000000000000e+00 1851878480
2.006462 -0.853326 -8.923713 0.000000000000000e+00 1701537140
2.024420 -0.645310 -9.003580 0.000000000000000e+00 1701537140
2.024649 -0.430405 -9.004598 0.000000000000000e+00 1701537140
2.057965 -0.217806 -9.152771 0.000000000000000e+00 1851878480
2.079486 0.000000 -9.248485 0.000000000000000e+00 1851878480
2.140781 0.226571 -9.521097 0.000000000000000e+00 1851878480
2.173559 0.462061 -9.666877 0.000000000000000e+00 1768716611
2.627867 0.837667 -11.687402 0.000000000000000e+00 1851878480
2.007917 -0.865559 -9.057736 0.000000000000000e+00 1701537140
1.995648 -0.644791 -9.002391 0.000000000000000e+00 1701537140
2.025731 -0.436492 -9.138097 0.000000000000000e+00 1701537140
1.977625 -0.212150 -8.921091 0.000000000000000e+00 1701537140
1.995630 0.000000 -9.002311 0.000000000000000e+00 1851878480
2.086980 0.223881 -9.414391 0.000000000000000e+00 1851878480
2.145506 0.462300 -9.678405 0.000000000000000e+00 1768716611
2.541533 0.821165 -11.464887 0.000000000000000e+00 1851878480
1.902474 -1.040577 -8.706261 0.000000000000000e+00 1701537140
1.904210 -0.832179 -8.714206 0.000000000000000e+00 1701537140
1.966907 -0.644272 -9.001126 0.000000000000000e+00 1701537140
1.937523 -0.423245 -8.866656 0.000000000000000e+00 1701537140
1.983003 -0.215661 -9.074784 0.000000000000000e+00 1701537140
1.968597 0.000000 -9.008857 0.000000000000000e+00 1851878480
2.031289 0.220913 -9.295756 0.000000000000000e+00 1851878480
2.120367 0.463187 -9.703400 0.000000000000000e+00 1768716611
2.458729 0.805371 -11.251840 0.000000000000000e+00 1851878480
1.870642 -1.037491 -8.686117 0.000000000000000e+00 1701537140
1.871795 -0.829465 -8.691470 0.000000000000000e+00 1701537140
1.941266 -0.644776 -9.014053 0.000000000000000e+00 1701537140
1.911820 -0.423477 -8.877322 0.000000000000000e+00 1701537140
1.915389 -0.211224 -8.893896 0.000000000000000e+00 1701537140
1.876795 0.000000 -8.714689 0.000000000000000e+00 1701537140
1.967511 0.216972 -9.135920 0.000000000000000e+00 1851878480
2.223753 0.492572 -10.325750 0.000000000000000e+00 1851878480
2.382862 0.791448 -11.064551 0.000000000000000e+00 1851878480
1.840089 -1.035046 -8.671236 0.000000000000000e+00 1701537140
1.845591 -0.829473 -8.697161 0.000000000000000e+00 1701537140
1.915627 -0.645299 -9.027197 0.000000000000000e+00 1701537140
1.886840 -0.423882 -8.891543 0.000000000000000e+00 1701537140
1.835075 -0.205243 -8.647604 0.000000000000000e+00 1701537140
1.832292 0.000000 -8.634492 0.000000000000000e+00 1701537140
1.839772 0.205768 -8.669739 0.000000000000000e+00 1851878480
2.166177 0.486635 -10.207890 0.000000000000000e+00 1851878480
2.313087 0.779188 -10.900187 0.000000000000000e+00 1851878480
1.811426 -1.033618 -8.664775 0.000000000000000e+00 1701537140
1.820732 -0.830102 -8.709288 0.000000000000000e+00 1701537140
1.798328 -0.614523 -8.602119 0.000000000000000e+00 1701537140
1.895171 -0.431894 -9.065360 0.000000000000000e+00 1701537140
1.791535 -0.203263 -8.569629 0.000000000000000e+00 1701537140
1.789364 0.000000 -8.559242 0.000000000000000e+00 1701537140
1.790783 0.203177 -8.566031 0.000000000000000e+00 1851878480
2.109699 0.480783 -10.091531 0.000000000000000e+00 1851878480
2.246397 0.767637 -10.745416 0.000000000000000e+00 1851878480
1.786609 -1.034383 -8.676618 0.000000000000000e+00 1701537140
1.739791 -0.804813 -8.449247 0.000000000000000e+00 1701537140
1.753956 -0.608136 -8.518042 0.000000000000000e+00 1701537140
1.764347 -0.407967 -8.568502 0.000000000000000e+00 1701537140
1.765651 -0.203259 -8.574834 0.000000000000000e+00 1701537140
1.741263 0.000000 -8.456397 0.000000000000000e+00 1701537140
1.745890 0.200984 -8.478867 0.000000000000000e+00 1851878480
2.052998 0.474712 -9.970331 0.000000000000000e+00 1851878480
2.180704 0.756099 -10.590530 0.000000000000000e+00 1851878480
1.702741 -1.000485 -8.397449 0.000000000000000e+00 1701537140
1.698549 -0.797418 -8.376777 0.000000000000000e+00 1701537140
1.711481 -0.602232 -8.440552 0.000000000000000e+00 1701537140
1.714949 -0.402441 -8.457655 0.000000000000000e+00 1701537140
1.741133 -0.203417 -8.586790 0.000000000000000e+00 1701537140
1.694937 0.000000 -8.358962 0.000000000000000e+00 1701537140
1.704309 0.199115 -8.405182 0.000000000000000e+00 1851878480
1.991040 0.467231 -9.819263 0.000000000000000e+00 1851878480
2.116948 0.744907 -10.440203 0.000000000000000e+00 1851878480
1.633266 -0.974158 -8.181437 0.000000000000000e+00 1701537140
1.673924 -0.797727 -8.385103 0.000000000000000e+00 1701537140
1.666089 -0.595114 -8.345857 0.000000000000000e+00 1701537140
1.673442 -0.398632 -8.382687 0.000000000000000e+00 1701537140
1.662271 -0.197137 -8.326727 0.000000000000000e+00 1701537140
1.659411 0.000000 -8.312404 0.000000000000000e+00 1701537140
1.665082 0.197470 -8.340811 0.000000000000000e+00 1851878480
1.943041 0.462853 -9.733174 0.000000000000000e+00 1851878480
2.055378 0.734165 -10.295901 0.000000000000000e+00 1851878480
1.602353 -0.970384 -8.154614 0.000000000000000e+00 1701537140
1.650053 -0.798417 -8.397370 0.000000000000000e+00 1701537140
1.610457 -0.584069 -8.195858 0.000000000000000e+00 1701537140
1.648716 -0.398768 -8.390565 0.000000000000000e+00 1701537140
1.632048 -0.196522 -8.305738 0.000000000000000e+00 1701537140
1.627218 0.000000 -8.281157 0.000000000000000e+00 1701537140
1.628931 0.196147 -8.289875 0.000000000000000e+00 1851878480
1.899143 0.459338 -9.665027 0.000000000000000e+00 1851878480
1.995552 0.723733 -10.155666 0.000000000000000e+00 1851878480
2.175116 1.052481 -11.069494 0.000000000000000e+00 1851878480
1.572148 -0.966936 -8.130421 0.000000000000000e+00 1701537140
1.556238 -0.764763 -8.048146 0.000000000000000e+00 1701537140
1.576594 -0.580703 -8.153413 0.000000000000000e+00 1701537140
1.624679 -0.399081 -8.402088 0.000000000000000e+00 1701537140
1.568776 -0.191849 -8.112987 0.000000000000000e+00 1701537140
1.595620 0.000000 -8.251807 0.000000000000000e+00 1701537140
1.596295 0.195214 -8.255301 0.000000000000000e+00 1851878480
1.833973 0.450492 -9.484462 0.000000000000000e+00 1851878480
1.930272 0.710973 -9.982475 0.000000000000000e+00 1851878480
2.101639 1.032782 -10.868705 0.000000000000000e+00 1851878480
1.544929 -0.965256 -8.120985 0.000000000000000e+00 1701537140
1.527868 -0.762721 -8.031301 0.000000000000000e+00 1701537140
1.522992 -0.569851 -8.005671 0.000000000000000e+00 1701537140
1.527171 -0.381075 -8.027640 0.000000000000000e+00 1701537140
1.539929 -0.191306 -8.094702 0.000000000000000e+00 1701537140
1.538307 0.000000 -8.086176 0.000000000000000e+00 1851878480
1.564924 0.194411 -8.226088 0.000000000000000e+00 1851878480
1.781573 0.444556 -9.364913 0.000000000000000e+00 1851878480
1.890236 0.707261 -9.936109 0.000000000000000e+00 1851878480
2.039770 1.018266 -10.722136 0.000000000000000e+00 1851878480
1.520932 -0.965575 -8.128297 0.000000000000000e+00 1701537140
1.499625 -0.760685 -8.014421 0.000000000000000e+00 1701537140
1.495347 -0.568523 -7.991560 0.000000000000000e+00 1701537140
1.499415 -0.380178 -8.013300 0.000000000000000e+00 1701537140
1.511287 -0.190773 -8.076750 0.000000000000000e+00 1701537140
1.506472 0.000000 -8.051017 0.000000000000000e+00 1851878480
1.534045 0.193646 -8.198376 0.000000000000000e+00 1851878480
1.609916 0.408196 -8.603850 0.000000000000000e+00 1851878480
1.851340 0.703870 -9.894091 0.000000000000000e+00 1851878480
1.987285 1.008051 -10.620619 0.000000000000000e+00 1851878480
1.496955 -0.965925 -8.135794 0.000000000000000e+00 1701537140
1.475356 -0.760637 -8.018407 0.000000000000000e+00 1701537140
1.468168 -0.567336 -7.979342 0.000000000000000e+00 1701537140
1.472263 -0.379411 -8.001598 0.000000000000000e+00 1701537140
1.464221 -0.187860 -7.957890 0.000000000000000e+00 1851878480
1.475830 0.000000 -8.020981 0.000000000000000e+00 1851878480
1.503307 0.192875 -8.170315 0.000000000000000e+00 1851878480
1.570046 0.404610 -8.533039 0.000000000000000e+00 1851878480
1.814009 0.700978 -9.858952 0.000000000000000e+00 1851878480
1.941527 1.000978 -10.551998 0.000000000000000e+00 1851878480
1.473010 -0.966318 -8.143586 0.000000000000000e+00 1701537140
1.451852 -0.760997 -8.026613 0.000000000000000e+00 1701537140
1.444820 -0.567621 -7.987734 0.000000000000000e+00 1701537140
1.448867 -0.379606 -8.010113 0.000000000000000e+00 1701537140
1.434054 -0.187057 -7.928218 0.000000000000000e+00 1851878480
1.446431 0.000000 -7.996644 0.000000000000000e+00 1851878480
1.472694 0.192097 -8.141841 0.000000000000000e+00 1851878480
1.534050 0.401923 -8.481045 0.000000000000000e+00 1851878480
1.780416 0.699465 -9.843088 0.000000000000000e+00 1851878480
1.898467 0.995093 -10.495740 0.000000000000000e+00 1851878480
1.449117 -0.966768 -8.151786 0.000000000000000e+00 1701537140
1.428344 -0.761374 -8.034932 0.000000000000000e+00 1701537140
1.399178 -0.559013 -7.870862 0.000000000000000e+00 1851878480
1.399579 -0.372911 -7.873116 0.000000000000000e+00 1851878480
1.405117 -0.186391 -7.904269 0.000000000000000e+00 1851878480
1.417341 0.000000 -7.973036 0.000000000000000e+00 1851878480
1.442159 0.191305 -8.112646 0.000000000000000e+00 1851878480
1.500656 0.399843 -8.441710 0.000000000000000e+00 1851878480
1.748946 0.698756 -9.838427 0.000000000000000e+00 1851878480
1.855962 0.989314 -10.440429 0.000000000000000e+00 1851878480
1.425313 -0.967304 -8.160635 0.000000000000000e+00 1701537140
1.404863 -0.761785 -8.043545 0.000000000000000e+00 1701537140
1.369910 -0.556768 -7.843425 0.000000000000000e+00 1851878480
1.371000 -0.371603 -7.849664 0.000000000000000e+00 1851878480
1.376961 -0.185809 -7.883792 0.000000000000000e+00 1851878480
1.388541 0.000000 -7.950093 0.000000000000000e+00 1851878480
1.411584 0.190481 -8.082027 0.000000000000000e+00 1851878480
1.469853 0.398397 -8.415645 0.000000000000000e+00 1851878480
1.716564 0.697658 -9.828192 0.000000000000000e+00 1851878480
1.821914 0.987931 -10.431375 0.000000000000000e+00 1851878480
1.401660 -0.967969 -8.170512 0.000000000000000e+00 1701537140
1.351996 -0.746002 -7.881011 0.000000000000000e+00 1851878480
1.341898 -0.554968 -7.822150 0.000000000000000e+00 1851878480
1.343276 -0.370487 -7.830183 0.000000000000000e+00 1851878480
1.349066 -0.185244 -7.863932 0.000000000000000e+00 1851878480
1.359984 0.000000 -7.927577 0.000000000000000e+00 1851878480
1.380995 0.189629 -8.050056 0.000000000000000e+00 1851878480
1.441388 0.397547 -8.402093 0.000000000000000e+00 1851878480
1.684362 0.696601 -9.818430 0.000000000000000e+00 1851878480
1.791616 0.988576 -10.443636 0.000000000000000e+00 1851878480
1.378144 -0.968765 -8.181426 0.000000000000000e+00 1701537140
1.323197 -0.743181 -7.855234 0.000000000000000e+00 1851878480
1.314349 -0.553305 -7.802706 0.000000000000000e+00 1851878480
1.315762 -0.369395 -7.811096 0.000000000000000e+00 1851878480
1.321356 -0.184687 -7.844304 0.000000000000000e+00 1851878480
1.331620 0.000000 -7.905237 0.000000000000000e+00 1851878480
1.350676 0.188785 -8.018364 0.000000000000000e+00 1851878480
1.413856 0.396934 -8.393433 0.000000000000000e+00 1851878480
1.652304 0.695575 -9.808994 0.000000000000000e+00 1851878480
1.758164 0.987483 -10.437438 0.000000000000000e+00 1851878480
1.354719 -0.969665 -8.193147 0.000000000000000e+00 1701537140
1.295398 -0.740835 -7.834377 0.000000000000000e+00 1851878480
1.286953 -0.551652 -7.783308 0.000000000000000e+00 1851878480
1.288374 -0.368301 -7.791898 0.000000000000000e+00 1851878480
1.293820 -0.184136 -7.824834 0.000000000000000e+00 1851878480
1.303403 0.000000 -7.882795 0.000000000000000e+00 1851878480
1.320598 0.187947 -7.986783 0.000000000000000e+00 1851878480
1.386747 0.396423 -8.386845 0.000000000000000e+00 1851878480
1.620497 0.694625 -9.800532 0.000000000000000e+00 1851878480
1.724900 0.986466 -10.431946 0.000000000000000e+00 1851878480
1.331308 -0.970615 -8.205226 0.000000000000000e+00 1701537140
1.267887 -0.738576 -7.814348 0.000000000000000e+00 1851878480
1.259669 -0.549990 -7.763700 0.000000000000000e+00 1851878480
1.261113 -0.367208 -7.772595 0.000000000000000e+00 1851878480
1.266422 -0.183586 -7.805314 0.000000000000000e+00 1851878480
1.275281 0.000000 -7.859918 0.000000000000000e+00 1851878480
1.290882 0.187132 -7.956071 0.000000000000000e+00 1851878480
1.359955 0.395988 -8.381790 0.000000000000000e+00 1851878480
1.588800 0.693693 -9.792224 0.000000000000000e+00 1851878480
1.691781 0.985505 -10.426927 0.000000000000000e+00 1851878480
1.307888 -0.971605 -8.217579 0.000000000000000e+00 1701537140
1.240517 -0.736323 -7.794285 0.000000000000000e+00 1851878480
1.232475 -0.548312 -7.743756 0.000000000000000e+00 1851878480
1.233979 -0.366114 -7.753204 0.000000000000000e+00 1851878480
1.239120 -0.183032 -7.785508 0.000000000000000e+00 1851878480
1.247155 0.000000 -7.835990 0.000000000000000e+00 1851878480
1.261666 0.186362 -7.927164 0.000000000000000e+00 1851878480
1.333462 0.395630 -8.378267 0.000000000000000e+00 1851878480
1.557427 0.692878 -9.785456 0.000000000000000e+00 1851878480
1.658833 0.984619 -10.422601 0.000000000000000e+00 1851878480
1.284539 -0.972697 -8.230722 0.000000000000000e+00 1701537140
1.213262 -0.734059 -7.774013 0.000000000000000e+00 1851878480
1.205390 -0.546622 -7.723570 0.000000000000000e+00 1851878480
1.206981 -0.365023 -7.733765 0.000000000000000e+00 1851878480
1.211861 -0.182464 -7.765038 0.000000000000000e+00 1851878480
1.219022 0.000000 -7.810920 0.000000000000000e+00 1851878480
1.233242 0.185683 -7.902035 0.000000000000000e+00 1851878480
1.307258 0.395349 -8.376298 0.000000000000000e+00 1851878480
1.526171 0.692091 -9.778984 0.000000000000000e+00 1851878480
1.626197 0.983896 -10.419906 0.000000000000000e+00 1851878480
1.261310 -0.973932 -8.245020 0.000000000000000e+00 1701537140
1.186118 -0.731781 -7.753504 0.000000000000000e+00 1851878480
1.178420 -0.544925 -7.703178 0.000000000000000e+00 1851878480
1.180125 -0.363935 -7.714326 0.000000000000000e+00 1851878480
1.184560 -0.181868 -7.743315 0.000000000000000e+00 1851878480
1.191217 0.000000 -7.786835 0.000000000000000e+00 1851878480
1.205695 0.185113 -7.881476 0.000000000000000e+00 1851878480
1.281347 0.395151 -8.376004 0.000000000000000e+00 1851878480
1.495273 0.691445 -9.774408 0.000000000000000e+00 1851878480
1.593783 0.983292 -10.418358 0.000000000000000e+00 1851878480
1.238214 -0.975330 -8.260625 0.000000000000000e+00 1701537140
1.159091 -0.729491 -7.732768 0.000000000000000e+00 1851878480
1.151559 -0.543215 -7.682513 0.000000000000000e+00 1851878480
1.153369 -0.362839 -7.694595 0.000000000000000e+00 1851878480
1.157300 -0.181257 -7.720818 0.000000000000000e+00 1851878480
1.164489 0.000000 -7.768780 0.000000000000000e+00 1851878480
1.179439 0.184725 -7.868517 0.000000000000000e+00 1851878480
1.255966 0.395115 -8.379062 0.000000000000000e+00 1851878480
1.464501 0.690837 -9.770281 0.000000000000000e+00 1851878480
1.561540 0.982777 -10.417665 0.000000000000000e+00 1851878480
1.215185 -0.976850 -8.277204 0.000000000000000e+00 1701537140
1.132181 -0.727189 -7.711823 0.000000000000000e+00 1851878480
1.124809 -0.541495 -7.661608 0.000000000000000e+00 1851878480
1.126781 -0.361755 -7.675041 0.000000000000000e+00 1851878480
1.130560 -0.180706 -7.700779 0.000000000000000e+00 1851878480
1.138528 0.000000 -7.755056 0.000000000000000e+00 1851878480
1.153795 0.184420 -7.859043 0.000000000000000e+00 1851878480
1.230987 0.395210 -8.384835 0.000000000000000e+00 1851878480
1.433975 0.690331 -9.767489 0.000000000000000e+00 1851878480
1.529459 0.982357 -10.417870 0.000000000000000e+00 1851878480
1.192167 -0.978452 -8.294410 0.000000000000000e+00 1701537140
1.105395 -0.724879 -7.690695 0.000000000000000e+00 1851878480
1.098163 -0.539758 -7.640385 0.000000000000000e+00 1851878480
1.100342 -0.360678 -7.655544 0.000000000000000e+00 1851878480
1.104769 -0.180288 -7.686339 0.000000000000000e+00 1851878480
1.115019 0.000000 -7.757658 0.000000000000000e+00 1700951363
1.128292 0.184127 -7.850003 0.000000000000000e+00 1851878480
1.206350 0.395426 -8.393084 0.000000000000000e+00 1851878480
1.403583 0.689875 -9.765315 0.000000000000000e+00 1851878480
1.497563 0.982050 -10.419176 0.000000000000000e+00 1851878480
1.169123 -0.980109 -8.312022 0.000000000000000e+00 1701537140
1.078703 -0.722541 -7.669172 0.000000000000000e+00 1851878480
1.071640 -0.538013 -7.618954 0.000000000000000e+00 1851878480
1.074278 -0.359683 -7.637712 0.000000000000000e+00 1851878480
1.080475 -0.180104 -7.681770 0.000000000000000e+00 1851878480
1.088807 0.000000 -7.741009 0.000000000000000e+00 1700951363
1.102910 0.183843 -7.841272 0.000000000000000e+00 1851878480
1.182416 0.395890 -8.406530 0.000000000000000e+00 1851878480
1.373354 0.689488 -9.764025 0.000000000000000e+00 1851878480
1.465749 0.981793 -10.420919 0.000000000000000e+00 1851878480
1.052098 -0.720164 -7.647154 0.000000000000000e+00 1851878480
1.045298 -0.536289 -7.597726 0.000000000000000e+00 1851878480
1.048910 -0.358886 -7.623981 0.000000000000000e+00 1851878480
1.059895 -0.180545 -7.703827 0.000000000000000e+00 1851878480
1.062743 0.000000 -7.724528 0.000000000000000e+00 1700951363
1.077431 0.183532 -7.831286 0.000000000000000e+00 1851878480
1.158842 0.396500 -8.423023 0.000000000000000e+00 1851878480
1.343257 0.689157 -9.763438 0.000000000000000e+00 1851878480
1.434051 0.981612 -10.423374 0.000000000000000e+00 1851878480
1.025602 -0.717765 -7.624809 0.000000000000000e+00 1851878480
1.019320 -0.534685 -7.578105 0.000000000000000e+00 1851878480
1.024070 -0.358242 -7.613424 0.000000000000000e+00 1851878480
1.053007 -0.183393 -7.828549 0.000000000000000e+00 1851878480
1.036797 0.000000 -7.708038 0.000000000000000e+00 1700951363
1.052165 0.183246 -7.822295 0.000000000000000e+00 1851878480
1.135591 0.397255 -8.442520 0.000000000000000e+00 1851878480
1.313248 0.688865 -9.763309 0.000000000000000e+00 1851878480
1.402465 0.981512 -10.426588 0.000000000000000e+00 1851878480
0.999277 -0.715386 -7.602582 0.000000000000000e+00 1851878480
0.994145 -0.533443 -7.563535 0.000000000000000e+00 1851878480
1.002500 -0.358742 -7.627104 0.000000000000000e+00 1851878480
1.028453 -0.183226 -7.824557 0.000000000000000e+00 1851878480
1.010982 0.000000 -7.691634 0.000000000000000e+00 1700951363
1.026858 0.182941 -7.812420 0.000000000000000e+00 1851878480
1.112434 0.398081 -8.463487 0.000000000000000e+00 1851878480
1.283340 0.688621 -9.763756 0.000000000000000e+00 1851878480
1.370969 0.981482 -10.430448 0.000000000000000e+00 1851878480
0.973385 -0.713217 -7.582503 0.000000000000000e+00 1851878480
0.969674 -0.532533 -7.553593 0.000000000000000e+00 1851878480
0.982616 -0.359885 -7.654408 0.000000000000000e+00 1851878480
1.003730 -0.183021 -7.818882 0.000000000000000e+00 1851878480
0.985387 0.000000 -7.675994 0.000000000000000e+00 1700951363
1.001698 0.182651 -7.803054 0.000000000000000e+00 1851878480
1.085168 0.397445 -8.453270 0.000000000000000e+00 1851878480
1.253484 0.688398 -9.764421 0.000000000000000e+00 1851878480
1.339535 0.981502 -10.434752 0.000000000000000e+00 1851878480
0.948200 -0.711482 -7.566952 0.000000000000000e+00 1851878480
0.945439 -0.531718 -7.544920 0.000000000000000e+00 1851878480
0.956673 -0.358816 -7.634575 0.000000000000000e+00 1851878480
0.979059 -0.182818 -7.813216 0.000000000000000e+00 1851878480
0.960354 0.000000 -7.663948 0.000000000000000e+00 1700951363
0.976668 0.182372 -7.794138 0.000000000000000e+00 1851878480
1.056707 0.396335 -8.432875 0.000000000000000e+00 1851878480
1.223744 0.688238 -9.765884 0.000000000000000e+00 1851878480
1.308158 0.981577 -10.439537 0.000000000000000e+00 1851878480
0.923315 -0.709899 -7.552938 0.000000000000000e+00 1851878480
0.921347 -0.530950 -7.536838 0.000000000000000e+00 1851878480
0.930945 -0.357778 -7.615350 0.000000000000000e+00 1851878480
0.954442 -0.182618 -7.807564 0.000000000000000e+00 1851878480
0.935407 0.000000 -7.651855 0.000000000000000e+00 1700951363
0.951679 0.182089 -7.784959 0.000000000000000e+00 1851878480
1.028535 0.395284 -8.413666 0.000000000000000e+00 1851878480
1.194050 0.688103 -9.767615 0.000000000000000e+00 1851878480
1.276861 0.981726 -10.445026 0.000000000000000e+00 1851878480
0.898511 -0.708307 -7.538736 0.000000000000000e+00 1851878480
0.897402 -0.530235 -7.529429 0.000000000000000e+00 1851878480
0.905421 -0.356773 -7.596714 0.000000000000000e+00 1851878480
0.929879 -0.182420 -7.801923 0.000000000000000e+00 1851878480
0.910557 0.000000 -7.639810 0.000000000000000e+00 1700951363
0.926841 0.181824 -7.776436 0.000000000000000e+00 1851878480
1.000532 0.394250 -8.394718 0.000000000000000e+00 1851878480
1.164454 0.688025 -9.770070 0.000000000000000e+00 1851878480
1.245601 0.981922 -10.450912 0.000000000000000e+00 1851878480
0.873830 -0.706737 -7.524693 0.000000000000000e+00 1851878480
0.873782 -0.529685 -7.524277 0.000000000000000e+00 1851878480
0.880040 -0.355776 -7.578168 0.000000000000000e+00 1851878480
0.905371 -0.182223 -7.796297 0.000000000000000e+00 1851878480
0.885805 0.000000 -7.627812 0.000000000000000e+00 1700951363
0.902108 0.181567 -7.768194 0.000000000000000e+00 1851878480
0.972860 0.393300 -8.377451 0.000000000000000e+00 1851878480
1.134913 0.687981 -9.772917 0.000000000000000e+00 1851878480
1.214368 0.982156 -10.457114 0.000000000000000e+00 1851878480
0.849276 -0.705196 -7.510884 0.000000000000000e+00 1851878480
0.852248 -0.530408 -7.537162 0.000000000000000e+00 1851878480
0.854817 -0.354795 -7.559889 0.000000000000000e+00 1851878480
0.880913 -0.182029 -7.790679 0.000000000000000e+00 1851878480
0.861143 0.000000 -7.615829 0.000000000000000e+00 1700951363
0.877445 0.181312 -7.760001 0.000000000000000e+00 1851878480
0.945440 0.392408 -8.361346 0.000000000000000e+00 1851878480
1.105440 0.687986 -9.776359 0.000000000000000e+00 1851878480
1.183225 0.982490 -10.464279 0.000000000000000e+00 1851878480
0.824899 -0.703728 -7.497773 0.000000000000000e+00 1851878480
0.845386 -0.540559 -7.683987 0.000000000000000e+00 1851878480
0.830588 -0.354187 -7.549479 0.000000000000000e+00 1851878480
0.856509 -0.181837 -7.785086 0.000000000000000e+00 1851878480
0.836762 0.000000 -7.605600 0.000000000000000e+00 1700951363
0.852907 0.181073 -7.752348 0.000000000000000e+00 1851878480
0.918181 0.391540 -8.345644 0.000000000000000e+00 1851878480
1.076051 0.688051 -9.780571 0.000000000000000e+00 1851878480
1.152150 0.982909 -10.472264 0.000000000000000e+00 1851878480
0.800680 -0.702322 -7.485245 0.000000000000000e+00 1851878480
0.821684 -0.540214 -7.681605 0.000000000000000e+00 1851878480
0.806520 -0.353619 -7.539843 0.000000000000000e+00 1851878480
0.832161 -0.181649 -7.779554 0.000000000000000e+00 1851878480
0.812613 0.000000 -7.596803 0.000000000000000e+00 1700951363
0.828496 0.180849 -7.745287 0.000000000000000e+00 1851878480
0.891348 0.390812 -8.332870 0.000000000000000e+00 1851878480
1.046695 0.688147 -9.785145 0.000000000000000e+00 1851878480
1.121176 0.983448 -10.481441 0.000000000000000e+00 1851878480
0.776623 -0.700987 -7.473387 0.000000000000000e+00 1851878480
0.798013 -0.539875 -7.679225 0.000000000000000e+00 1851878480
0.782530 -0.353056 -7.530237 0.000000000000000e+00 1851878480
0.807865 -0.181462 -7.774029 0.000000000000000e+00 1851878480
0.788536 0.000000 -7.588030 0.000000000000000e+00 1700951363
0.804174 0.180633 -7.738511 0.000000000000000e+00 1851878480
0.864734 0.390144 -8.321273 0.000000000000000e+00 1851878480
1.017439 0.688322 -9.790746 0.000000000000000e+00 1851878480
1.090227 0.984049 -10.491178 0.000000000000000e+00 1851878480
0.752813 -0.699810 -7.463142 0.000000000000000e+00 1851878480
0.774370 -0.539541 -7.676847 0.000000000000000e+00 1851878480
0.758615 -0.352499 -7.520661 0.000000000000000e+00 1851878480
0.783617 -0.181277 -7.768520 0.000000000000000e+00 1851878480
0.764529 0.000000 -7.579284 0.000000000000000e+00 1700951363
0.779924 0.180423 -7.731912 0.000000000000000e+00 1851878480
0.838574 0.389652 -8.313349 0.000000000000000e+00 1851878480
0.988190 0.688520 -9.796588 0.000000000000000e+00 1851878480
1.059351 0.984765 -10.502061 0.000000000000000e+00 1851878480
0.729176 -0.698731 -7.453877 0.000000000000000e+00 1851878480
0.750755 -0.539213 -7.674469 0.000000000000000e+00 1851878480
0.734775 -0.351946 -7.511113 0.000000000000000e+00 1851878480
0.759418 -0.181095 -7.763021 0.000000000000000e+00 1851878480
0.740591 0.000000 -7.570565 0.000000000000000e+00 1700951363
0.755807 0.180234 -7.726103 0.000000000000000e+00 1851878480
0.812815 0.389326 -8.308867 0.000000000000000e+00 1851878480
0.958995 0.688776 -9.803163 0.000000000000000e+00 1851878480
1.028505 0.985563 -10.513721 0.000000000000000e+00 1851878480
0.705706 -0.697756 -7.445628 0.000000000000000e+00 1851878480
0.727171 -0.538889 -7.672093 0.000000000000000e+00 1851878480
0.711011 -0.351398 -7.501598 0.000000000000000e+00 1851878480
0.735269 -0.180914 -7.757532 0.000000000000000e+00 1851878480
0.716781 0.000000 -7.562467 0.000000000000000e+00 1700951363
0.731744 0.180047 -7.720335 0.000000000000000e+00 1851878480
0.787417 0.389159 -8.307724 0.000000000000000e+00 1851878480
0.929827 0.689073 -9.810235 0.000000000000000e+00 1851878480
0.997685 0.986445 -10.526180 0.000000000000000e+00 1851878480
0.682404 -0.696894 -7.438524 0.000000000000000e+00 1851878480
0.703613 -0.538571 -7.669719 0.000000000000000e+00 1851878480
0.687695 -0.351046 -7.496203 0.000000000000000e+00 1851878480
0.711166 -0.180736 -7.752054 0.000000000000000e+00 1851878480
0.693221 0.000000 -7.556442 0.000000000000000e+00 1700951363
0.707743 0.179866 -7.714742 0.000000000000000e+00 1851878480
0.762202 0.389080 -8.308369 0.000000000000000e+00 1851878480
0.900668 0.689404 -9.817714 0.000000000000000e+00 1851878480
0.966891 0.987422 -10.539573 0.000000000000000e+00 1851878480
0.659182 -0.696066 -7.431707 0.000000000000000e+00 1851878480
0.680082 -0.538258 -7.667346 0.000000000000000e+00 1851878480
0.664456 -0.350715 -7.491169 0.000000000000000e+00 1851878480
0.687111 -0.180559 -7.746585 0.000000000000000e+00 1851878480
0.669712 0.000000 -7.550432 0.000000000000000e+00 1700951363
0.683826 0.179696 -7.709555 0.000000000000000e+00 1851878480
0.737287 0.389157 -8.312274 0.000000000000000e+00 1851878480
0.871540 0.689789 -9.825863 0.000000000000000e+00 1851878480
0.936066 0.988442 -10.553336 0.000000000000000e+00 1851878480
0.636051 -0.695286 -7.425333 0.000000000000000e+00 1851878480
0.656579 -0.537950 -7.664973 0.000000000000000e+00 1851878480
0.661814 -0.361618 -7.726087 0.000000000000000e+00 1851878480
0.663102 -0.180384 -7.741129 0.000000000000000e+00 1851878480
0.646283 0.000000 -7.544776 0.000000000000000e+00 1700951363
0.659964 0.179531 -7.704488 0.000000000000000e+00 1851878480
0.712509 0.389319 -8.317914 0.000000000000000e+00 1851878480
0.842397 0.690195 -9.834240 0.000000000000000e+00 1851878480
0.905292 0.989601 -10.568484 0.000000000000000e+00 1851878480
0.612976 -0.694516 -7.418999 0.000000000000000e+00 1851878480
0.633103 -0.537647 -7.662600 0.000000000000000e+00 1851878480
0.638148 -0.361413 -7.723660 0.000000000000000e+00 1851878480
0.639142 -0.180212 -7.735683 0.000000000000000e+00 1851878480
0.622908 0.000000 -7.539203 0.000000000000000e+00 1700951363
0.636157 0.179370 -7.699558 0.000000000000000e+00 1851878480
0.687843 0.389557 -8.325123 0.000000000000000e+00 1851878480
0.813272 0.690650 -9.843218 0.000000000000000e+00 1851878480
0.874538 0.990872 -10.584745 0.000000000000000e+00 1851878480
0.589956 -0.693761 -7.412744 0.000000000000000e+00 1851878480
0.609652 -0.537349 -7.660230 0.000000000000000e+00 1851878480
0.614494 -0.361203 -7.721072 0.000000000000000e+00 1851878480
0.615225 -0.180041 -7.730246 0.000000000000000e+00 1851878480
0.599576 0.000000 -7.533617 0.000000000000000e+00 1700951363
0.612407 0.179216 -7.694838 0.000000000000000e+00 1851878480
0.663177 0.389819 -8.332762 0.000000000000000e+00 1851878480
0.784137 0.691141 -9.852616 0.000000000000000e+00 1851878480
0.843851 0.992331 -10.602922 0.000000000000000e+00 1851878480
0.566993 -0.693024 -7.406613 0.000000000000000e+00 1851878480
0.586227 -0.537057 -7.657861 0.000000000000000e+00 1851878480
0.590647 -0.360863 -7.715603 0.000000000000000e+00 1851878480
0.591353 -0.179872 -7.724822 0.000000000000000e+00 1851878480
0.576285 0.000000 -7.527996 0.000000000000000e+00 1700951363
0.588698 0.179065 -7.690145 0.000000000000000e+00 1851878480
0.638545 0.390126 -8.341288 0.000000000000000e+00 1851878480
0.754987 0.691662 -9.862366 0.000000000000000e+00 1851878480
0.813240 0.994006 -10.623320 0.000000000000000e+00 1851878480
0.544096 -0.692313 -7.400690 0.000000000000000e+00 1851878480
0.562828 -0.536769 -7.655492 0.000000000000000e+00 1851878480
0.566846 -0.360526 -7.710144 0.000000000000000e+00 1851878480
0.567527 -0.179706 -7.719406 0.000000000000000e+00 1851878480
0.553042 0.000000 -7.522382 0.000000000000000e+00 1700951363
0.565023 0.178912 -7.685336 0.000000000000000e+00 1851878480
0.613881 0.390441 -8.349904 0.000000000000000e+00 1851878480
0.725843 0.692236 -9.872789 0.000000000000000e+00 1851878480
0.782717 0.995938 -10.646372 0.000000000000000e+00 1851878480
0.521249 -0.691618 -7.394867 0.000000000000000e+00 1851878480
0.539453 -0.536486 -7.653122 0.000000000000000e+00 1851878480
0.543088 -0.360193 -7.704696 0.000000000000000e+00 1851878480
0.543744 -0.179541 -7.713999 0.000000000000000e+00 1851878480
0.529842 0.000000 -7.516782 0.000000000000000e+00 1700951363
0.541407 0.178769 -7.680842 0.000000000000000e+00 1851878480
0.589189 0.390768 -8.358723 0.000000000000000e+00 1851878480
0.696671 0.692840 -9.883554 0.000000000000000e+00 1851878480
0.752218 0.998080 -10.671594 0.000000000000000e+00 1851878480
0.498466 -0.690957 -7.389328 0.000000000000000e+00 1851878480
0.516102 -0.536209 -7.650756 0.000000000000000e+00 1851878480
0.519373 -0.359864 -7.699257 0.000000000000000e+00 1851878480
0.520004 -0.179378 -7.708604 0.000000000000000e+00 1851878480
0.506686 0.000000 -7.511184 0.000000000000000e+00 1700951363
0.517810 0.178621 -7.676079 0.000000000000000e+00 1851878480
0.564423 0.391078 -8.367084 0.000000000000000e+00 1851878480
0.667477 0.693482 -9.894765 0.000000000000000e+00 1851878480
0.721682 1.000371 -10.698307 0.000000000000000e+00 1851878480
0.475737 -0.690317 -7.383956 0.000000000000000e+00 1851878480
0.492774 -0.535936 -7.648391 0.000000000000000e+00 1851878480
0.495702 -0.359538 -7.693828 0.000000000000000e+00 1851878480
0.496306 -0.179217 -7.703216 0.000000000000000e+00 1851878480
0.483574 0.000000 -7.505592 0.000000000000000e+00 1700951363
0.494262 0.178479 -7.671490 0.000000000000000e+00 1851878480
0.539625 0.391396 -8.375566 0.000000000000000e+00 1851878480
0.638272 0.694178 -9.906673 0.000000000000000e+00 1851878480
0.691037 1.002727 -10.725641 0.000000000000000e+00 1851878480
0.453064 -0.689704 -7.378805 0.000000000000000e+00 1851878480
0.469472 -0.535669 -7.646025 0.000000000000000e+00 1851878480
0.472074 -0.359217 -7.688408 0.000000000000000e+00 1851878480
0.472653 -0.179058 -7.697839 0.000000000000000e+00 1851878480
0.460631 0.000000 -7.502035 0.000000000000000e+00 1700951363
0.470759 0.178340 -7.666990 0.000000000000000e+00 1851878480
0.514734 0.391678 -8.383177 0.000000000000000e+00 1851878480
0.609035 0.694911 -9.919008 0.000000000000000e+00 1851878480
0.660231 1.005076 -10.752806 0.000000000000000e+00 1851878480
0.430436 -0.689109 -7.373762 0.000000000000000e+00 1851878480
0.446191 -0.535407 -7.643660 0.000000000000000e+00 1851878480
0.448487 -0.358899 -7.682998 0.000000000000000e+00 1851878480
0.449040 -0.178901 -7.692472 0.000000000000000e+00 1851878480
